ply
format ascii 1.0
element vertex 1559
property float x
property float y
property float z
property uchar label
end_header
-1.171642 0.541257 -0.180789 1
-1.094853 0.537071 -0.212722 1
-1.115980 0.540575 -0.138307 1
-1.161833 0.542832 -0.219435 1
-1.080414 0.525286 -0.179603 1
-1.159760 0.542358 -0.154263 1
-1.119083 0.539076 -0.230435 1
-1.088280 0.542190 -0.140715 1
-1.180041 0.542917 -0.198661 1
-1.079043 0.535421 -0.202577 1
-1.133346 0.542701 -0.134918 1
-1.151500 0.541418 -0.234512 1
-1.073590 0.532983 -0.159772 1
-1.177127 0.544353 -0.167417 1
-1.098158 0.538701 -0.227242 1
-1.101345 0.542709 -0.129736 1
-1.182312 0.540728 -0.220715 1
-1.068102 0.532646 -0.187123 1
-1.156054 0.542685 -0.139565 1
-1.130982 0.542281 -0.241649 1
-1.073631 0.542536 -0.140349 1
-1.191375 0.544082 -0.188158 1
-1.076559 0.540740 -0.214879 1
-1.123400 0.539682 -0.124800 1
-1.171203 0.541229 -0.239434 1
-1.064945 0.527515 -0.169088 1
-1.175261 0.547608 -0.151281 1
-1.107484 0.540554 -0.241279 1
-1.086900 0.541442 -0.126539 1
-1.197676 0.542489 -0.213524 1
-1.062658 0.536050 -0.199340 1
-1.146301 0.542825 -0.125947 1
-1.149849 0.541920 -0.251353 1
-1.062339 0.538204 -0.145920 1
-1.195126 0.547130 -0.172413 1
-1.085138 0.535876 -0.233374 1
-1.107794 0.540022 -0.117554 1
-1.187221 0.546253 -0.235612 1
-1.057210 0.526952 -0.181061 1
-1.171484 0.545277 -0.135921 1
-1.126010 0.536558 -0.257210 1
-1.073468 0.537383 -0.128350 1
-1.207890 0.545432 -0.200060 1
-1.062559 0.538495 -0.214213 1
-1.133657 0.540530 -0.115191 1
-1.171266 0.542321 -0.256101 1
-1.053135 0.533165 -0.156032 1
-1.193253 0.549167 -0.154472 1
-1.094942 0.539015 -0.248075 1
-1.092221 0.537467 -0.114848 1
-1.204319 0.548034 -0.227463 1
-1.049601 0.535232 -0.192861 1
-1.163066 0.541410 -0.121606 1
-1.147697 0.535315 -0.268943 1
-1.060034 0.534571 -0.134212 1
-1.210826 0.549983 -0.181580 1
-1.069221 0.537489 -0.232203 1
-1.117260 0.538984 -0.107628 1
-1.190319 0.546806 -0.252818 1
-1.047248 0.526505 -0.170674 1
-1.189580 0.545938 -0.137152 1
-1.113074 0.537018 -0.264697 1
-1.076898 0.533442 -0.116589 1
-1.216421 0.551090 -0.212885 1
-1.048202 0.539623 -0.208129 1
-1.148760 0.538925 -0.109220 1
-1.169272 0.538928 -0.273394 1
-1.047500 0.533679 -0.143684 1
-1.209670 0.551850 -0.161474 1
-1.082273 0.534650 -0.251957 1
-1.099674 0.536504 -0.104138 1
-1.205441 0.553855 -0.241910 1
-1.040138 0.531385 -0.184834 1
-1.177674 0.545231 -0.119970 1
-1.140354 0.529374 -0.282872 1
-1.060982 0.531809 -0.122147 1
-1.133430 0.535982 -0.167947 1
-1.137898 0.535778 -0.176701 1
-1.121982 0.533612 -0.162028 1
-1.148796 0.537993 -0.164683 1
-1.126761 0.531857 -0.183465 1
-1.126463 0.537860 -0.148041 1
-1.152801 0.539140 -0.182097 1
-1.112863 0.527700 -0.170569 1
-1.147450 0.541005 -0.149511 1
-1.138094 0.533055 -0.196217 1
-1.107609 0.541300 -0.145031 1
-1.165538 0.540009 -0.172145 1
-1.112419 0.528762 -0.186651 1
-1.136676 0.535927 -0.137636 1
-1.157764 0.535801 -0.199120 1
-1.097307 0.535250 -0.156763 1
-1.163443 0.542990 -0.152111 1
-1.123516 0.534296 -0.201912 1
-1.111077 0.541654 -0.132270 1
-1.172324 0.542783 -0.186263 1
-1.098999 0.526024 -0.179374 1
-1.150469 0.539783 -0.133857 1
-1.146440 0.538479 -0.210008 1
-1.089061 0.545236 -0.139671 1
-1.178901 0.543455 -0.163924 1
-1.105545 0.534577 -0.199020 1
-1.125550 0.538364 -0.123935 1
-1.177338 0.535422 -0.206718 1
-1.086349 0.530583 -0.163479 1
-1.168151 0.542669 -0.138392 1
-1.129258 0.538127 -0.215517 1
-1.096267 0.542194 -0.126496 1
-1.186830 0.545907 -0.181139 1
-1.090508 0.530916 -0.189979 1
-1.145676 0.536884 -0.120900 1
-1.162042 0.540320 -0.219039 1
-1.078276 0.539983 -0.143786 1
-1.185192 0.545372 -0.150951 1
-1.108297 0.537551 -0.212846 1
-1.111151 0.539587 -0.115844 1
-1.191331 0.541488 -0.203825 1
-1.080626 0.525179 -0.175647 1
-1.165798 0.540984 -0.124240 1
-1.143800 0.537922 -0.228262 1
-1.083498 0.538868 -0.127268 1
-1.197568 0.547548 -0.170382 1
-1.089393 0.534012 -0.203485 1
-1.133394 0.536691 -0.110305 1
-1.181860 0.540262 -0.223481 1
-1.069753 0.535103 -0.152839 1
-1.187993 0.542905 -0.136417 1
-1.120105 0.535914 -0.228468 1
-1.097048 0.537246 -0.113115 1
-1.203992 0.546160 -0.195138 1
-1.073999 0.531176 -0.187217 1
-1.158016 0.538089 -0.111298 1
-1.162724 0.538074 -0.237346 1
-1.070598 0.537673 -0.132324 1
-1.202725 0.548800 -0.155369 1
-1.093792 0.537469 -0.217813 1
-1.117751 0.536518 -0.103427 1
-1.199348 0.543708 -0.220238 1
-1.065995 0.526744 -0.167213 1
-1.183846 0.540650 -0.120871 1
-1.133068 0.540821 -0.239022 1
-1.083009 0.533953 -0.115044 1
-1.212845 0.550273 -0.181241 1
-1.072922 0.536106 -0.201138 1
-1.144832 0.535916 -0.100616 1
-1.183283 0.539980 -0.240846 1
-1.059854 0.536372 -0.141564 1
-1.205827 0.545158 -0.139103 1
-1.106806 0.535500 -0.234899 1
-1.101505 0.534595 -0.100919 1
-1.215949 0.546166 -0.211442 1
-1.060824 0.529909 -0.181115 1
-1.172395 0.540043 -0.105960 1
-1.158059 0.535118 -0.252720 1
-1.068906 0.532359 -0.120968 1
-1.217368 0.552874 -0.163749 1
-1.077384 0.540082 -0.216491 1
-1.128076 0.534191 -0.093313 1
-1.200107 0.547120 -0.235779 1
-1.052728 0.533462 -0.154933 1
-1.197996 0.546210 -0.120717 1
-1.125317 0.533662 -0.251042 1
-1.085628 0.531279 -0.102860 1
-1.221339 0.555933 -0.193683 1
-1.059184 0.535376 -0.196159 1
-1.158162 0.536989 -0.093864 1
-1.179274 0.539302 -0.256413 1
-1.056222 0.531919 -0.130634 1
-1.219170 0.551461 -0.144843 1
-1.089997 0.538528 -0.234920 1
-1.107200 0.536462 -0.089628 1
-1.216929 0.552306 -0.225769 1
-1.051405 0.525240 -0.173433 1
-1.190579 0.539899 -0.104651 1
-1.147991 0.533317 -0.263995 1
-1.070044 0.528796 -0.108919 1
-1.142047 0.536851 -0.150993 1
-1.144414 0.539797 -0.158529 1
-1.127636 0.538854 -0.144052 1
-1.156141 0.540581 -0.146946 1
-1.133946 0.535205 -0.165586 1
-1.133579 0.540495 -0.130952 1
-1.160081 0.542060 -0.163956 1
-1.116472 0.536762 -0.151355 1
-1.158455 0.538401 -0.133353 1
-1.144994 0.536939 -0.177702 1
-1.119094 0.536848 -0.130175 1
-1.173071 0.542437 -0.154051 1
-1.120413 0.531063 -0.169347 1
-1.145142 0.536490 -0.120860 1
-1.164046 0.540328 -0.179934 1
-1.104153 0.538698 -0.139925 1
-1.171940 0.543888 -0.134728 1
-1.133094 0.534361 -0.185149 1
-1.120516 0.540250 -0.116575 1
-1.179828 0.545388 -0.167829 1
-1.104315 0.532926 -0.160865 1
-1.158945 0.540358 -0.116853 1
-1.158312 0.535677 -0.194039 1
-1.101315 0.538671 -0.125740 1
-1.186779 0.545346 -0.145856 1
-1.117529 0.530512 -0.184304 1
-1.135273 0.536658 -0.107893 1
-1.181409 0.542574 -0.185881 1
-1.088442 0.543186 -0.144016 1
-1.177037 0.542951 -0.121103 1
-1.140481 0.536037 -0.199553 1
-1.106464 0.539083 -0.111451 1
-1.196555 0.545894 -0.163454 1
-1.102435 0.526319 -0.175660 1
-1.153777 0.537741 -0.103936 1
-1.171839 0.540539 -0.201388 1
-1.086431 0.540681 -0.128276 1
-1.193224 0.546943 -0.132972 1
-1.120128 0.534098 -0.197901 1
-1.121075 0.537076 -0.100235 1
-1.195851 0.547695 -0.183237 1
-1.086187 0.532118 -0.157592 1
-1.174143 0.541734 -0.106907 1
-1.154541 0.536919 -0.211429 1
-1.093688 0.535438 -0.112512 1
-1.205127 0.549885 -0.151785 1
-1.101763 0.528938 -0.189514 1
-1.142184 0.536243 -0.093815 1
-1.191056 0.541373 -0.204977 1
-1.075480 0.540988 -0.135987 1
-1.196348 0.543994 -0.118528 1
-1.130245 0.535616 -0.211711 1
-1.107318 0.533719 -0.097915 1
-1.209499 0.550963 -0.175118 1
-1.085708 0.526390 -0.173297 1
-1.166164 0.538849 -0.094109 1
-1.172529 0.538576 -0.219308 1
-1.080407 0.534759 -0.117762 1
-1.211687 0.549504 -0.137285 1
-1.104362 0.535988 -0.202242 1
-1.126316 0.536023 -0.087280 1
-1.208612 0.544742 -0.201521 1
-1.069221 0.538745 -0.148167 1
-1.192507 0.541185 -0.103174 1
-1.145341 0.537697 -0.223473 1
-1.091749 0.532884 -0.099743 1
-1.219095 0.554061 -0.161729 1
-1.084950 0.531064 -0.187520 1
-1.152920 0.536453 -0.083720 1
-1.193874 0.539679 -0.222831 1
-1.069119 0.534639 -0.126981 1
-1.214755 0.545809 -0.120952 1
-1.115546 0.537549 -0.217128 1
-1.108280 0.536804 -0.084806 1
-1.218739 0.553833 -0.189565 1
-1.069345 0.531262 -0.165282 1
-1.181153 0.540130 -0.088563 1
-1.165412 0.539060 -0.232610 1
-1.077335 0.531873 -0.105864 1
-1.226721 0.553366 -0.145454 1
-1.090129 0.534268 -0.203296 1
-1.136224 0.534303 -0.076807 1
-1.210606 0.546932 -0.217549 1
-1.060135 0.536279 -0.139208 1
-1.206796 0.546721 -0.102802 1
-1.132168 0.538789 -0.230907 1
-1.091517 0.535222 -0.086841 1
-1.225070 0.562168 -0.172874 1
-1.071247 0.529611 -0.183064 1
-1.166859 0.536786 -0.076738 1
-1.187433 0.542047 -0.236549 1
-1.065298 0.530197 -0.116037 1
-1.231414 0.548941 -0.127280 1
-1.098540 0.540979 -0.217292 1
-1.114004 0.538347 -0.073500 1
-1.223951 0.555626 -0.205632 1
-1.058261 0.530302 -0.156632 1
-1.199646 0.539876 -0.086847 1
-1.151438 0.542905 -0.240457 1
-1.076596 0.531815 -0.093262 1
-1.150634 0.535673 -0.125054 1
-1.154864 0.536217 -0.133183 1
-1.135508 0.538496 -0.118534 1
-1.164439 0.539682 -0.120567 1
-1.143360 0.533246 -0.139977 1
-1.144891 0.534731 -0.106483 1
-1.170896 0.538296 -0.138152 1
-1.125811 0.534373 -0.126628 1
-1.166670 0.537305 -0.106992 1
-1.152617 0.537825 -0.150672 1
-1.127347 0.535473 -0.105252 1
-1.180967 0.542194 -0.126875 1
-1.126074 0.535155 -0.142208 1
-1.153006 0.535514 -0.094979 1
-1.171002 0.541903 -0.152037 1
-1.113166 0.536339 -0.115737 1
-1.184065 0.538028 -0.109018 1
-1.141932 0.533842 -0.158831 1
-1.132640 0.532432 -0.092781 1
-1.190499 0.542082 -0.141262 1
-1.108187 0.540147 -0.133644 1
-1.169965 0.535190 -0.091248 1
-1.164550 0.538690 -0.165384 1
-1.111248 0.534182 -0.102107 1
-1.198284 0.540733 -0.119428 1
-1.127414 0.528436 -0.159000 1
-1.146030 0.531033 -0.083034 1
-1.188158 0.544299 -0.157249 1
-1.098946 0.538176 -0.121132 1
-1.188922 0.537205 -0.095042 1
-1.150795 0.533763 -0.173474 1
-1.116721 0.533625 -0.087717 1
-1.205029 0.545115 -0.135577 1
-1.105103 0.536536 -0.146893 1
-1.161910 0.536003 -0.077933 1
-1.180839 0.539949 -0.173624 1
-1.098721 0.531668 -0.106139 1
-1.205214 0.541668 -0.106445 1
-1.132448 0.528635 -0.173760 1
-1.131145 0.531887 -0.075777 1
-1.204582 0.546941 -0.155161 1
-1.089735 0.540713 -0.130711 1
-1.185786 0.535909 -0.080779 1
-1.161721 0.539139 -0.182770 1
-1.101811 0.533478 -0.088636 1
-1.216990 0.545274 -0.124840 1
-1.112004 0.526456 -0.164806 1
-1.152156 0.531505 -0.068455 1
-1.198783 0.542235 -0.175902 1
-1.086865 0.533592 -0.114017 1
-1.205816 0.541347 -0.091275 1
-1.140318 0.534061 -0.185492 1
-1.113522 0.534560 -0.073233 1
-1.218554 0.549714 -0.146924 1
-1.089925 0.534665 -0.145822 1
-1.175799 0.535070 -0.067857 1
-1.180437 0.539739 -0.190334 1
-1.090286 0.529539 -0.094868 1
-1.223912 0.544398 -0.110155 1
-1.118333 0.527665 -0.179860 1
-1.135858 0.531348 -0.062427 1
-1.212057 0.549961 -0.170200 1
-1.078229 0.536548 -0.125127 1
-1.201386 0.538892 -0.075918 1
-1.155843 0.535788 -0.196744 1
-1.097356 0.534974 -0.075449 1
-1.228767 0.552015 -0.133653 1
-1.098788 0.521661 -0.165995 1
-1.161029 0.534222 -0.057724 1
-1.200436 0.542191 -0.192434 1
-1.079313 0.528936 -0.104637 1
-1.225111 0.542460 -0.093202 1
-1.128204 0.532133 -0.193120 1
-1.116358 0.534009 -0.060490 1
-1.223990 0.556612 -0.159383 1
-1.074681 0.537631 -0.139325 1
-1.189912 0.537558 -0.061669 1
-1.175803 0.537443 -0.204921 1
-1.084052 0.532265 -0.082200 1
-1.236856 0.550712 -0.117336 1
-1.103665 0.526323 -0.181207 1
-1.143818 0.532396 -0.051328 1
-1.217129 0.549014 -0.187060 1
-1.070423 0.530791 -0.117247 1
-1.220216 0.539683 -0.075695 1
-1.144063 0.535094 -0.205402 1
-1.097920 0.535279 -0.062903 1
-1.235272 0.559742 -0.144830 1
-1.082864 0.523939 -0.160625 1
-1.174423 0.535270 -0.050184 1
-1.197468 0.540822 -0.207902 1
-1.073802 0.527393 -0.093175 1
-1.242750 0.544924 -0.099153 1
-1.113096 0.532108 -0.195563 1
-1.122509 0.534558 -0.048980 1
-1.227338 0.560340 -0.174016 1
-1.064793 0.534157 -0.132029 1
-1.208846 0.537017 -0.059279 1
-1.166715 0.535006 -0.216495 1
-1.081641 0.534937 -0.069469 1
-1.150286 0.535844 -0.096104 1
-1.154148 0.536950 -0.103773 1
-1.139146 0.532926 -0.091419 1
-1.167945 0.534239 -0.092364 1
-1.141855 0.535717 -0.110323 1
-1.145856 0.532716 -0.078426 1
-1.171360 0.537083 -0.108532 1
-1.127149 0.532687 -0.098913 1
-1.167040 0.535739 -0.078127 1
-1.151575 0.539440 -0.120664 1
-1.127774 0.534597 -0.077718 1
-1.181141 0.540918 -0.097223 1
-1.125183 0.537440 -0.113214 1
-1.152913 0.534607 -0.066658 1
-1.171187 0.541264 -0.122029 1
-1.115649 0.532668 -0.089073 1
-1.184040 0.536675 -0.079468 1
-1.140290 0.537018 -0.128409 1
-1.130989 0.534343 -0.064856 1
-1.190938 0.540491 -0.111032 1
-1.112328 0.534314 -0.107587 1
-1.170482 0.533079 -0.062465 1
-1.164450 0.538886 -0.134923 1
-1.110573 0.535491 -0.074883 1
-1.198753 0.538668 -0.089377 1
-1.124235 0.534907 -0.128027 1
-1.145272 0.530971 -0.054936 1
-1.187896 0.543808 -0.126474 1
-1.103732 0.530724 -0.095742 1
-1.190055 0.534137 -0.065680 1
-1.151669 0.533273 -0.143409 1
-1.114470 0.536946 -0.060381 1
-1.205608 0.542987 -0.105125 1
-1.105326 0.537988 -0.118785 1
-1.161744 0.534678 -0.049543 1
-1.179362 0.541475 -0.141867 1
-1.098941 0.531948 -0.079374 1
-1.206647 0.538231 -0.076550 1
-1.132186 0.530604 -0.143434 1
-1.128337 0.535208 -0.048158 1
-1.205849 0.544262 -0.124531 1
-1.094964 0.532776 -0.105865 1
-1.188171 0.531091 -0.051711 1
-1.161859 0.539435 -0.151842 1
-1.099049 0.538428 -0.061656 1
-1.218090 0.542261 -0.094313 1
-1.105411 0.540175 -0.131841 1
-1.152049 0.530038 -0.040385 1
-1.197061 0.543412 -0.143557 1
-1.089540 0.529772 -0.088300 1
-1.208155 0.536690 -0.061591 1
-1.142482 0.532282 -0.155959 1
-1.111685 0.536843 -0.046434 1
-1.220451 0.546030 -0.116275 1
-1.090297 0.536509 -0.118162 1
-1.176992 0.531589 -0.039089 1
-1.177836 0.542945 -0.157311 1
-1.087703 0.535104 -0.067947 1
-1.225610 0.540520 -0.079672 1
-1.119972 0.527313 -0.150653 1
-1.133456 0.533520 -0.034933 1
-1.212289 0.548403 -0.138647 1
-1.083424 0.528206 -0.100665 1
-1.203141 0.534721 -0.046330 1
-1.155665 0.537063 -0.165094 1
-1.096342 0.536425 -0.049254 1
-1.230188 0.548570 -0.102832 1
-1.092345 0.536865 -0.132917 1
-1.162135 0.530745 -0.029485 1
-1.196444 0.546131 -0.158314 1
-1.078100 0.532803 -0.078023 1
-1.227264 0.537924 -0.062815 1
-1.131954 0.528431 -0.164561 1
-1.115616 0.533956 -0.033837 1
-1.227399 0.551396 -0.128969 1
-1.078800 0.532153 -0.114341 1
-1.195152 0.528976 -0.032511 1
-1.172434 0.542135 -0.170747 1
-1.083021 0.534517 -0.056231 1
-1.238888 0.546438 -0.086546 1
-1.101813 0.532928 -0.149985 1
-1.142293 0.532747 -0.023728 1
-1.214613 0.550437 -0.153648 1
-1.073090 0.527298 -0.091979 1
-1.222421 0.534921 -0.045465 1
-1.145651 0.534510 -0.174660 1
-1.099097 0.532203 -0.036998 1
-1.242650 0.550457 -0.115366 1
-1.078955 0.535676 -0.129557 1
-1.179813 0.526021 -0.021344 1
-1.193305 0.545329 -0.172887 1
-1.072203 0.531875 -0.066969 1
-1.243447 0.541787 -0.067989 1
-1.118351 0.526275 -0.168393 1
-1.123428 0.531325 -0.022157 1
-1.230367 0.555576 -0.143179 1
-1.069202 0.527646 -0.107602 1
-1.209989 0.533287 -0.029370 1
-1.165677 0.537374 -0.183130 1
-1.083423 0.531026 -0.044175 1
-1.149443 0.532241 -0.070965 1
-1.151561 0.535867 -0.078023 1
-1.134323 0.535475 -0.065746 1
-1.163961 0.534561 -0.066149 1
-1.139848 0.534216 -0.084868 1
-1.140320 0.535845 -0.052838 1
-1.167340 0.537509 -0.081890 1
-1.122921 0.534956 -0.073427 1
-1.166728 0.530964 -0.052756 1
-1.150848 0.536018 -0.095233 1
-1.121864 0.539103 -0.052590 1
-1.181010 0.536023 -0.071469 1
-1.125534 0.532665 -0.088923 1
-1.152544 0.529849 -0.041715 1
-1.170540 0.537412 -0.096119 1
-1.112114 0.534057 -0.064307 1
-1.180764 0.535508 -0.053248 1
-1.138565 0.535429 -0.102689 1
-1.125458 0.537853 -0.040073 1
-1.186823 0.540434 -0.083910 1
-1.111025 0.532393 -0.083122 1
-1.167819 0.531214 -0.036825 1
-1.163470 0.535747 -0.108775 1
-1.108093 0.534896 -0.050832 1
-1.195906 0.536747 -0.062702 1
-1.121722 0.535072 -0.102326 1
-1.139958 0.533434 -0.029933 1
-1.188033 0.538781 -0.100334 1
-1.098868 0.535223 -0.070657 1
-1.186867 0.532616 -0.039435 1
-1.145766 0.537634 -0.115203 1
-1.111897 0.536080 -0.036470 1
-1.205100 0.538349 -0.078570 1
-1.107024 0.531216 -0.095513 1
-1.163032 0.527348 -0.024383 1
-1.175758 0.541402 -0.114301 1
-1.094092 0.536249 -0.054998 1
-1.203962 0.535887 -0.049848 1
-1.126133 0.536403 -0.115359 1
-1.125815 0.533700 -0.023938 1
-1.201768 0.543796 -0.096793 1
-1.094424 0.529824 -0.082104 1
-1.184719 0.529809 -0.025592 1
-1.160425 0.537173 -0.125176 1
-1.099253 0.532894 -0.038474 1
-1.215499 0.539706 -0.067162 1
-1.107255 0.533496 -0.108537 1
-1.148685 0.529201 -0.015406 1
-1.193349 0.542907 -0.115565 1
-1.084120 0.536064 -0.063619 1
-1.207153 0.532283 -0.035054 1
-1.139059 0.533657 -0.128460 1
-1.113152 0.528745 -0.022803 1
-1.216970 0.544473 -0.088572 1
-1.091953 0.529795 -0.095305 1
-1.176922 0.525942 -0.013336 1
-1.176834 0.539773 -0.130397 1
-1.086494 0.532489 -0.044811 1
-1.222891 0.537914 -0.052451 1
-1.111187 0.538808 -0.120828 1
-1.133300 0.527948 -0.010495 1
-1.212351 0.543242 -0.111745 1
-1.079874 0.531517 -0.076160 1
-1.203684 0.528407 -0.019916 1
-1.155084 0.533966 -0.138542 1
-1.098742 0.526386 -0.026135 1
-1.230588 0.542725 -0.075904 1
-1.092277 0.533862 -0.108946 1
-1.162359 0.524550 -0.004067 1
-1.195784 0.542155 -0.131142 1
-1.076321 0.531885 -0.054855 1
-1.226200 0.533436 -0.035743 1
-1.127066 0.532842 -0.135970 1
-1.118587 0.522981 -0.009758 1
-1.228333 0.545118 -0.102089 1
-1.078829 0.528651 -0.091060 1
-1.192542 0.526354 -0.006249 1
-1.171646 0.538954 -0.143676 1
-1.083494 0.528170 -0.033439 1
-1.238918 0.540847 -0.059348 1
-1.098045 0.536889 -0.123141 1
-1.144412 0.523548 0.001295 1
-1.212046 0.548156 -0.125542 1
-1.068706 0.532781 -0.067706 1
-1.218719 0.533285 -0.018511 1
-1.144593 0.532526 -0.147717 1
-1.101753 0.521278 -0.013437 1
-1.243299 0.544303 -0.088077 1
-1.080280 0.530024 -0.106706 1
-1.176505 0.524366 0.004452 1
-1.191603 0.542754 -0.144941 1
-1.070890 0.529701 -0.044186 1
-1.241542 0.538048 -0.040472 1
-1.113964 0.530838 -0.139968 1
-1.126972 0.519286 0.002565 1
-1.232430 0.548187 -0.116499 1
-1.068173 0.526424 -0.084150 1
-1.211110 0.526166 -0.002567 1
-1.161929 0.538500 -0.154105 1
-1.083346 0.525335 -0.021197 1
-1.149475 0.530549 -0.056211 1
-1.155500 0.528677 -0.064074 1
-1.138017 0.528196 -0.051906 1
-1.167154 0.528544 -0.051705 1
-1.143338 0.527466 -0.071075 1
-1.144243 0.528286 -0.038747 1
-1.172200 0.529439 -0.067915 1
-1.125544 0.529182 -0.059653 1
-1.167361 0.528338 -0.037836 1
-1.153804 0.530298 -0.081200 1
-1.125074 0.532258 -0.038783 1
-1.185208 0.529014 -0.056967 1
-1.126278 0.530048 -0.074621 1
-1.152606 0.527950 -0.026948 1
-1.172225 0.533589 -0.081435 1
-1.112098 0.532512 -0.050150 1
-1.186376 0.526655 -0.038631 1
-1.141751 0.529241 -0.088980 1
-1.129094 0.530300 -0.026033 1
-1.192782 0.531479 -0.069867 1
-1.113930 0.525983 -0.069663 1
-1.172664 0.522878 -0.021987 1
-1.165728 0.531167 -0.094346 1
-1.108439 0.532601 -0.036836 1
-1.201498 0.528325 -0.048014 1
-1.127111 0.525026 -0.089716 1
-1.142975 0.527035 -0.015417 1
-1.190760 0.533773 -0.085661 1
-1.101649 0.528682 -0.057327 1
-1.191784 0.524683 -0.024369 1
-1.151248 0.528333 -0.102312 1
-1.114841 0.529233 -0.022527 1
-1.207135 0.534230 -0.063401 1
-1.107678 0.528823 -0.081404 1
-1.166032 0.521297 -0.009342 1
-1.182088 0.531814 -0.101088 1
-1.095906 0.531232 -0.041452 1
-1.209064 0.528170 -0.034747 1
-1.132116 0.525699 -0.103114 1
-1.128949 0.526751 -0.009544 1
-1.209147 0.533636 -0.083049 1
-1.093870 0.529587 -0.067865 1
-1.188112 0.523656 -0.010277 1
-1.162805 0.532486 -0.110858 1
-1.101558 0.526833 -0.024678 1
-1.221735 0.531033 -0.052332 1
-1.109879 0.527778 -0.095198 1
-1.151726 0.522793 -0.000469 1
-1.200432 0.532878 -0.102249 1
-1.087051 0.528764 -0.050530 1
-1.207727 0.529776 -0.019516 1
-1.141800 0.528287 -0.114609 1
-1.115423 0.522832 -0.008521 1
-1.224008 0.535064 -0.074306 1
-1.094504 0.523761 -0.082121 1
-1.176952 0.523974 0.001896 1
-1.179517 0.534820 -0.115954 1
-1.088462 0.526849 -0.031260 1
-1.228247 0.530303 -0.037132 1
-1.114717 0.531783 -0.107944 1
-1.136103 0.521504 0.004309 1
-1.215555 0.537917 -0.096892 1
-1.081697 0.526475 -0.062899 1
-1.203427 0.526838 -0.004352 1
-1.157277 0.529551 -0.124152 1
-1.099912 0.522199 -0.012091 1
-1.238541 0.532627 -0.061252 1
-1.095815 0.526173 -0.096319 1
-1.164979 0.518879 0.011277 1
-1.199028 0.536669 -0.116617 1
-1.077054 0.528757 -0.041354 1
-1.225827 0.531992 -0.019922 1
-1.129019 0.528658 -0.121920 1
-1.120756 0.517151 0.004877 1
-1.232202 0.539236 -0.087113 1
-1.080586 0.523925 -0.077783 1
-1.193271 0.523530 0.009291 1
-1.174834 0.533354 -0.129517 1
-1.085764 0.521617 -0.019746 1
-1.246210 0.531584 -0.044089 1
-1.101335 0.530016 -0.110396 1
-1.145419 0.519923 0.016278 1
-1.219900 0.537838 -0.112309 1
-1.070345 0.527817 -0.054574 1
-1.220795 0.529134 -0.002706 1
-1.146564 0.528442 -0.133323 1
-1.102777 0.517203 0.000839 1
-1.246630 0.539095 -0.072646 1
-1.082836 0.523911 -0.093797 1
-1.176279 0.522667 0.019738 1
-1.194568 0.537591 -0.130392 1
-1.071970 0.525575 -0.030747 1
-1.244074 0.533628 -0.024577 1
-1.115460 0.527410 -0.125825 1
-1.128800 0.514041 0.017513 1
-1.236023 0.542640 -0.101502 1
-1.067273 0.527405 -0.070035 1
-1.208135 0.527726 0.012916 1
-1.167546 0.529597 -0.141339 1
-1.084630 0.520582 -0.007315 1
-1.154538 0.525236 -0.047457 1
-1.158990 0.525741 -0.055052 1
-1.141279 0.525255 -0.042933 1
-1.173118 0.522422 -0.042786 1
-1.147874 0.522808 -0.062459 1
-1.148351 0.524135 -0.029679 1
-1.176207 0.526086 -0.058848 1
-1.130112 0.523977 -0.051129 1
-1.171942 0.524021 -0.028564 1
-1.157553 0.527049 -0.072390 1
-1.128532 0.528720 -0.029885 1
-1.191323 0.523202 -0.047956 1
-1.130707 0.525182 -0.066254 1
-1.157222 0.523201 -0.017667 1
-1.176101 0.530475 -0.072481 1
-1.116042 0.527941 -0.041578 1
-1.190492 0.523291 -0.029134 1
-1.146646 0.524115 -0.080705 1
-1.133109 0.525883 -0.016961 1
-1.197300 0.527843 -0.060706 1
-1.116896 0.523219 -0.060981 1
-1.176320 0.519800 -0.012398 1
-1.169376 0.528288 -0.085460 1
-1.111914 0.528652 -0.028087 1
-1.206046 0.524723 -0.038517 1
-1.130693 0.521591 -0.081174 1
-1.149065 0.519776 -0.006009 1
-1.193996 0.531702 -0.076380 1
-1.104155 0.526452 -0.048633 1
-1.195478 0.521876 -0.014646 1
-1.155656 0.524182 -0.093875 1
-1.118575 0.524880 -0.013524 1
-1.213498 0.528736 -0.054325 1
-1.111338 0.524829 -0.073102 1
-1.171246 0.515904 0.000404 1
-1.185252 0.529779 -0.091911 1
-1.099612 0.526559 -0.032902 1
-1.213229 0.525107 -0.025010 1
-1.136976 0.520424 -0.095088 1
-1.132994 0.522154 -0.000205 1
-1.213166 0.530859 -0.073737 1
-1.096906 0.526330 -0.059447 1
-1.192197 0.520259 -0.000424 1
-1.165890 0.530390 -0.101889 1
-1.104081 0.524313 -0.015771 1
-1.226613 0.527419 -0.042734 1
-1.113130 0.524638 -0.086800 1
-1.157059 0.516804 0.009324 1
-1.203669 0.530936 -0.092914 1
-1.089268 0.526816 -0.041898 1
-1.214841 0.523290 -0.009641 1
-1.145489 0.525078 -0.106092 1
-1.118429 0.519592 0.000699 1
-1.230039 0.530312 -0.065146 1
-1.097469 0.520755 -0.073701 1
-1.182725 0.518128 0.011950 1
-1.182327 0.533248 -0.106737 1
-1.091161 0.523797 -0.022538 1
-1.232960 0.526945 -0.027285 1
-1.119944 0.525504 -0.100460 1
-1.139604 0.517817 0.013901 1
-1.220575 0.534168 -0.087890 1
-1.083651 0.525109 -0.054271 1
-1.205462 0.526122 0.005561 1
-1.159763 0.528282 -0.114975 1
-1.102382 0.519634 -0.003058 1
-1.243268 0.529446 -0.051569 1
-1.098071 0.524654 -0.087657 1
-1.166167 0.518944 0.020906 1
-1.202186 0.534839 -0.107339 1
-1.079060 0.527008 -0.032749 1
-1.229708 0.529484 -0.009916 1
-1.133755 0.523634 -0.114103 1
-1.123368 0.514573 0.014291 1
-1.236455 0.536523 -0.077681 1
-1.082567 0.522650 -0.069155 1
-1.195055 0.523006 0.019186 1
-1.177281 0.532251 -0.120180 1
-1.087622 0.520084 -0.010895 1
-1.250555 0.528875 -0.034127 1
-1.105138 0.525848 -0.102460 1
-1.147361 0.518712 0.025866 1
-1.223402 0.535805 -0.102923 1
-1.071901 0.527105 -0.045963 1
-1.222081 0.529375 0.007301 1
-1.149855 0.525971 -0.124621 1
-1.104747 0.515507 0.010001 1
-1.251847 0.535592 -0.063115 1
-1.086299 0.519778 -0.085791 1
-1.177410 0.522832 0.029452 1
-1.197714 0.535767 -0.121182 1
-1.074587 0.522309 -0.022161 1
-1.248002 0.531314 -0.014464 1
-1.118867 0.524303 -0.117536 1
-1.129601 0.514505 0.026825 1
-1.241358 0.538910 -0.092424 1
-1.068882 0.526737 -0.061445 1
-1.208722 0.528686 0.022783 1
-1.169979 0.528520 -0.132001 1
-1.086805 0.518264 0.001626 1
-1.156308 0.523097 -0.036936 1
-1.160927 0.523468 -0.044547 1
-1.140377 0.526961 -0.032236 1
-1.171499 0.524975 -0.031630 1
-1.148425 0.522483 -0.051833 1
-1.150995 0.520504 -0.019152 1
-1.175921 0.526929 -0.047784 1
-1.126864 0.529564 -0.040109 1
-1.174423 0.521017 -0.017724 1
-1.158173 0.526721 -0.061696 1
-1.130481 0.525832 -0.019613 1
-1.189689 0.525671 -0.036569 1
-1.131154 0.524989 -0.055831 1
-1.159857 0.519661 -0.006879 1
-1.177842 0.528757 -0.061843 1
-1.116883 0.526804 -0.031420 1
-1.192562 0.521063 -0.018047 1
-1.147478 0.523498 -0.070155 1
-1.135410 0.522393 -0.006477 1
-1.200050 0.525025 -0.049887 1
-1.115056 0.526843 -0.050197 1
-1.178564 0.517053 -0.001294 1
-1.171131 0.526554 -0.074922 1
-1.113890 0.525387 -0.018005 1
-1.205810 0.525419 -0.027151 1
-1.129043 0.524891 -0.070039 1
-1.151691 0.515970 0.004873 1
-1.196295 0.529475 -0.065655 1
-1.104017 0.527045 -0.038453 1
-1.197198 0.520066 -0.003368 1
-1.154632 0.526328 -0.082589 1
-1.120707 0.521313 -0.003158 1
-1.216244 0.526099 -0.043257 1
-1.111637 0.524907 -0.062847 1
-1.169309 0.518710 0.011348 1
-1.187154 0.528015 -0.081233 1
-1.099945 0.526103 -0.022852 1
-1.214813 0.523680 -0.013624 1
-1.135158 0.524023 -0.083637 1
-1.135600 0.517999 0.010559 1
-1.216665 0.527445 -0.062969 1
-1.096968 0.526675 -0.049358 1
-1.192899 0.519616 0.010889 1
-1.167432 0.529010 -0.091366 1
-1.106130 0.520568 -0.005598 1
-1.229031 0.525245 -0.031369 1
-1.114233 0.523461 -0.076752 1
-1.157866 0.515661 0.020346 1
-1.202844 0.532483 -0.081289 1
-1.089918 0.525782 -0.032031 1
-1.212721 0.526064 0.001787 1
-1.147064 0.523532 -0.095788 1
-1.120833 0.515359 0.011333 1
-1.232735 0.527943 -0.053947 1
-1.095343 0.525452 -0.062785 1
-1.178819 0.523363 0.022747 1
-1.184562 0.531124 -0.096264 1
-1.093217 0.519778 -0.012602 1
-1.233118 0.527210 -0.015652 1
-1.121573 0.523623 -0.090528 1
-1.141082 0.515409 0.024849 1
-1.223598 0.531431 -0.077054 1
-1.083026 0.526786 -0.044178 1
-1.205491 0.526355 0.016943 1
-1.161007 0.527347 -0.104374 1
-1.104124 0.516218 0.007298 1
-1.242518 0.530710 -0.039744 1
-1.099429 0.522901 -0.077904 1
-1.163399 0.522795 0.031553 1
-1.204309 0.533010 -0.096580 1
-1.081009 0.523037 -0.023120 1
-1.230040 0.529516 0.001683 1
-1.135405 0.521948 -0.103962 1
-1.124667 0.512150 0.025083 1
-1.239777 0.533637 -0.066652 1
-1.082002 0.524431 -0.058947 1
-1.194785 0.523505 0.030493 1
-1.178661 0.531231 -0.109443 1
-1.088854 0.517431 -0.000825 1
-1.247869 0.532055 -0.022171 1
-1.107153 0.523146 -0.092914 1
-1.145568 0.521267 0.036421 1
-1.225926 0.533679 -0.092001 1
-1.072625 0.525798 -0.036339 1
-1.222761 0.528950 0.018899 1
-1.150677 0.525676 -0.113889 1
-1.106276 0.512352 0.020573 1
-1.254874 0.533129 -0.051724 1
-1.084775 0.523720 -0.074958 1
-1.172940 0.528734 0.039851 1
-1.199825 0.533972 -0.110498 1
-1.076121 0.518898 -0.012388 1
-1.249003 0.530748 -0.002676 1
-1.120483 0.522590 -0.107583 1
-1.128653 0.515783 0.037371 1
-1.244378 0.536419 -0.081379 1
-1.069013 0.526954 -0.051695 1
-1.208492 0.529177 0.034206 1
-1.169105 0.530522 -0.120253 1
-1.087723 0.516050 0.011810 1
-1.157569 0.521178 -0.027758 1
-1.162535 0.521198 -0.035409 1
-1.143837 0.521487 -0.023466 1
-1.177116 0.517385 -0.022588 1
-1.149236 0.521286 -0.042767 1
-1.151193 0.519865 -0.009847 1
-1.180454 0.521093 -0.038909 1
-1.131051 0.522663 -0.031793 1
-1.175694 0.519098 -0.008162 1
-1.159155 0.525490 -0.052599 1
-1.131547 0.523677 -0.010630 1
-1.195146 0.518917 -0.027373 1
-1.131200 0.524898 -0.046860 1
-1.159973 0.519074 0.002595 1
-1.179096 0.527345 -0.052557 1
-1.117895 0.524688 -0.022706 1
-1.193530 0.519728 -0.008261 1
-1.147951 0.522999 -0.061070 1
-1.136265 0.520455 0.002707 1
-1.201483 0.523469 -0.040261 1
-1.117018 0.523338 -0.041821 1
-1.179067 0.516020 0.008460 1
-1.171460 0.526417 -0.065524 1
-1.115581 0.521854 -0.009233 1
-1.209563 0.521026 -0.017439 1
-1.131703 0.520786 -0.061812 1
-1.151774 0.515222 0.014340 1
-1.197658 0.528119 -0.056168 1
-1.105026 0.524826 -0.029962 1
-1.197127 0.519926 0.006555 1
-1.157801 0.522173 -0.074241 1
-1.122190 0.518035 0.005915 1
-1.217614 0.524713 -0.033388 1
-1.111976 0.524308 -0.054192 1
-1.170826 0.516088 0.021167 1
-1.187842 0.527542 -0.071732 1
-1.102952 0.519869 -0.014416 1
-1.214901 0.523526 -0.003553 1
-1.139004 0.518360 -0.075833 1
-1.136419 0.515875 0.019939 1
-1.217717 0.526561 -0.053140 1
-1.097551 0.525301 -0.040939 1
-1.191468 0.521035 0.020721 1
-1.168463 0.528078 -0.082230 1
-1.107258 0.517620 0.003270 1
-1.229316 0.525058 -0.021199 1
-1.114746 0.522769 -0.068109 1
-1.156353 0.517114 0.029785 1
-1.206684 0.528434 -0.072389 1
-1.091222 0.522611 -0.023705 1
-1.212293 0.526389 0.011858 1
-1.148175 0.522368 -0.086918 1
-1.121667 0.512925 0.020579 1
-1.234056 0.526813 -0.043927 1
-1.097113 0.522013 -0.054767 1
-1.177431 0.524619 0.032403 1
-1.185284 0.530728 -0.086820 1
-1.094204 0.516913 -0.003964 1
-1.232833 0.527559 -0.005388 1
-1.122316 0.522781 -0.081866 1
-1.140598 0.515209 0.034259 1
-1.225083 0.530226 -0.067286 1
-1.084664 0.522990 -0.036141 1
-1.204821 0.526828 0.026959 1
-1.162093 0.526419 -0.095331 1
-1.104993 0.513460 0.016312 1
-1.246917 0.526423 -0.029818 1
-1.099602 0.522748 -0.069327 1
-1.163677 0.521641 0.041337 1
-1.204735 0.533036 -0.086811 1
-1.082030 0.520036 -0.014770 1
-1.229371 0.530163 0.011924 1
-1.136050 0.521509 -0.095044 1
-1.124159 0.511847 0.034328 1
-1.241296 0.532451 -0.056660 1
-1.081832 0.524560 -0.050523 1
-1.194256 0.523655 0.040480 1
-1.179315 0.531011 -0.100027 1
-1.089502 0.514919 0.007901 1
-1.251345 0.528707 -0.011892 1
-1.108394 0.521336 -0.084657 1
-1.144672 0.521608 0.045834 1
-1.226664 0.533390 -0.082061 1
-1.073438 0.523318 -0.028213 1
-1.221963 0.529611 0.029093 1
-1.152011 0.524417 -0.105074 1
-1.106505 0.510583 0.029703 1
-1.256939 0.531425 -0.041539 1
-1.087222 0.518840 -0.067455 1
-1.174764 0.525609 0.050084 1
-1.200189 0.534160 -0.100732 1
-1.077130 0.515546 -0.003950 1
-1.248942 0.530851 0.007790 1
-1.121452 0.521585 -0.099007 1
-1.127552 0.516344 0.046589 1
-1.245851 0.535402 -0.071384 1
-1.069088 0.526344 -0.043526 1
-1.206773 0.530750 0.044146 1
-1.171881 0.527566 -0.111833 1
-1.088503 0.513007 0.020698 1
-1.158854 0.518952 -0.018220 1
-1.163585 0.519465 -0.025822 1
-1.145092 0.519063 -0.014103 1
-1.177627 0.516319 -0.012643 1
-1.150188 0.519666 -0.033411 1
-1.152532 0.517203 -0.000238 1
-1.181352 0.519767 -0.029047 1
-1.131995 0.520690 -0.022667 1
-1.176084 0.518011 0.001831 1
-1.163262 0.519722 -0.043742 1
-1.133254 0.520162 -0.001350 1
-1.195518 0.518207 -0.017181 1
-1.131387 0.524387 -0.037689 1
-1.160749 0.517157 0.012450 1
-1.184464 0.520473 -0.043569 1
-1.119632 0.521054 -0.013794 1
-1.193559 0.519224 0.001987 1
-1.149960 0.520090 -0.052056 1
-1.137980 0.516764 0.012258 1
-1.202279 0.522444 -0.030089 1
-1.117623 0.521936 -0.032922 1
-1.177590 0.517213 0.018521 1
-1.172106 0.525724 -0.055856 1
-1.116710 0.518928 -0.000153 1
-1.209645 0.520638 -0.007001 1
-1.131630 0.520921 -0.052539 1
-1.150944 0.515383 0.024077 1
-1.199092 0.526504 -0.046238 1
-1.106664 0.521210 -0.021331 1
-1.195552 0.521252 0.016845 1
-1.157796 0.522434 -0.064576 1
-1.123196 0.515125 0.015292 1
-1.218261 0.523889 -0.022943 1
-1.113693 0.521156 -0.045684 1
-1.168716 0.517990 0.031054 1
-1.188478 0.527011 -0.061820 1
-1.103797 0.517287 -0.005556 1
-1.213821 0.524364 0.006982 1
-1.138750 0.519008 -0.066337 1
-1.136066 0.515124 0.029538 1
-1.218847 0.525393 -0.042829 1
-1.097823 0.524290 -0.032293 1
-1.189714 0.522429 0.030913 1
-1.171221 0.524771 -0.073235 1
-1.107309 0.516186 0.012358 1
-1.229070 0.525155 -0.010497 1
-1.115311 0.521890 -0.059279 1
-1.153936 0.519383 0.039405 1
-1.208318 0.526822 -0.062417 1
-1.092120 0.519925 -0.015133 1
-1.212993 0.525038 0.022478 1
-1.148249 0.522689 -0.077370 1
-1.120555 0.513312 0.029897 1
-1.235339 0.525495 -0.033353 1
-1.096975 0.522043 -0.046015 1
-1.177891 0.522992 0.042724 1
-1.185111 0.531372 -0.076716 1
-1.094425 0.515119 0.004890 1
-1.231010 0.529215 0.005372 1
-1.124792 0.519027 -0.073593 1
-1.137752 0.518158 0.043576 1
-1.226284 0.529173 -0.056935 1
-1.085093 0.521405 -0.027694 1
-1.202993 0.528231 0.037304 1
-1.162349 0.526608 -0.085632 1
-1.104424 0.512856 0.025439 1
-1.246175 0.527139 -0.018848 1
-1.102586 0.517273 -0.061563 1
-1.161452 0.523444 0.051073 1
-1.205342 0.532765 -0.076657 1
-1.082688 0.517411 -0.006221 1
-1.227209 0.532035 0.022576 1
-1.136727 0.521012 -0.085865 1
-1.121255 0.515047 0.043404 1
-1.243338 0.530539 -0.046174 1
-1.081960 0.523897 -0.042096 1
-1.191386 0.526200 0.050538 1
-1.179578 0.531261 -0.090087 1
-1.089679 0.512849 0.016809 1
-1.248744 0.531153 -0.000851 1
-1.109569 0.519631 -0.076140 1
-1.142743 0.522942 0.055367 1
-1.228215 0.532117 -0.071810 1
-1.074455 0.520097 -0.019986 1
-1.218626 0.532638 0.039487 1
-1.152422 0.524512 -0.095521 1
-1.105045 0.511368 0.038804 1
-1.257669 0.530790 -0.030585 1
-1.087136 0.519006 -0.058809 1
-1.172729 0.527028 0.060014 1
-1.200417 0.534465 -0.090494 1
-1.077242 0.513679 0.004665 1
-1.245884 0.533607 0.018684 1
-1.121913 0.521458 -0.089944 1
-1.125081 0.518563 0.055776 1
-1.247448 0.534107 -0.060831 1
-1.069268 0.525286 -0.035318 1
-1.203977 0.533096 0.054353 1
-1.171858 0.528333 -0.101797 1
-1.088504 0.510966 0.029723 1
-1.157694 0.514408 0.000707 1
-1.162617 0.514864 -0.006871 1
-1.141334 0.518185 0.004566 1
-1.172072 0.517780 0.006921 1
-1.144638 0.521842 -0.014431 1
-1.148014 0.517153 0.018665 1
-1.177842 0.518768 -0.009483 1
-1.127566 0.521110 -0.004324 1
-1.172031 0.517228 0.021342 1
-1.159443 0.519458 -0.024567 1
-1.132548 0.514118 0.017146 1
-1.190091 0.519396 0.002823 1
-1.129830 0.520601 -0.019725 1
-1.155514 0.517872 0.031530 1
-1.180452 0.520344 -0.023849 1
-1.118863 0.515103 0.004116 1
-1.188498 0.519701 0.021875 1
-1.146164 0.520036 -0.033177 1
-1.133156 0.516960 0.030805 1
-1.198492 0.521765 -0.010018 1
-1.114772 0.520025 -0.015099 1
-1.168286 0.523200 0.037590 1
-1.172583 0.519907 -0.037253 1
-1.115770 0.512779 0.017963 1
-1.202758 0.523304 0.013255 1
-1.126666 0.522892 -0.033893 1
-1.141791 0.521796 0.042402 1
-1.198654 0.522032 -0.026686 1
-1.104085 0.518416 -0.003766 1
-1.186971 0.525891 0.036415 1
-1.153778 0.522885 -0.045391 1
-1.119507 0.513337 0.033637 1
-1.215512 0.521895 -0.002538 1
-1.109438 0.522017 -0.027687 1
-1.158511 0.525234 0.049564 1
-1.189212 0.521209 -0.042877 1
-1.100432 0.515393 0.012121 1
-1.208055 0.525504 0.027252 1
-1.132463 0.523232 -0.046961 1
-1.129415 0.517848 0.047828 1
-1.218894 0.520474 -0.022754 1
-1.096776 0.518897 -0.015265 1
-1.182906 0.524732 0.050447 1
-1.167454 0.524902 -0.053732 1
-1.104724 0.512341 0.030383 1
-1.220893 0.529001 0.010197 1
-1.111828 0.521756 -0.041306 1
-1.144086 0.526397 0.057420 1
-1.206008 0.524810 -0.042384 1
-1.089543 0.516734 0.002119 1
-1.204640 0.528995 0.042413 1
-1.146205 0.520570 -0.058842 1
-1.114060 0.515968 0.047841 1
-1.232770 0.523433 -0.012572 1
-1.093074 0.522436 -0.028512 1
-1.167869 0.529481 0.061281 1
-1.185093 0.526761 -0.057867 1
-1.092519 0.509886 0.022559 1
-1.222004 0.533737 0.025825 1
-1.121054 0.519587 -0.055121 1
-1.129436 0.523186 0.061458 1
-1.226843 0.523967 -0.036906 1
-1.082710 0.518173 -0.010757 1
-1.195445 0.531199 0.056949 1
-1.160528 0.524355 -0.066821 1
-1.099986 0.511984 0.043344 1
-1.236790 0.532007 0.002370 1
-1.096138 0.522817 -0.042972 1
-1.151582 0.530014 0.069093 1
-1.206609 0.526834 -0.057559 1
-1.080116 0.513693 0.010919 1
-1.220140 0.534342 0.042899 1
-1.135145 0.518342 -0.067719 1
-1.112941 0.520484 0.060881 1
-1.242751 0.526585 -0.025491 1
-1.079076 0.522204 -0.025236 1
-1.180520 0.533265 0.069149 1
-1.178468 0.528191 -0.071090 1
-1.086542 0.509529 0.034464 1
-1.238943 0.536201 0.020075 1
-1.107483 0.517494 -0.058576 1
-1.135137 0.526507 0.073451 1
-1.229355 0.526499 -0.051988 1
-1.071585 0.517443 -0.003216 1
-1.211937 0.534437 0.059602 1
-1.151061 0.521769 -0.077036 1
-1.096196 0.518422 0.055785 1
-1.253767 0.530060 -0.009243 1
-1.080890 0.524657 -0.040679 1
-1.163016 0.532920 0.078258 1
-1.200015 0.530630 -0.071187 1
-1.072860 0.513326 0.021742 1
-1.240729 0.533808 0.039654 1
-1.120946 0.517830 -0.072420 1
-1.118425 0.520799 0.073754 1
-1.249266 0.527916 -0.040520 1
-1.068151 0.519351 -0.019140 1
-1.197118 0.535038 0.074066 1
-1.168620 0.528220 -0.082150 1
-1.083197 0.511632 0.047124 1
-1.143519 0.515500 0.019471 1
-1.150388 0.513099 0.012110 1
-1.128757 0.517368 0.022812 1
-1.157602 0.518634 0.025926 1
-1.133263 0.519607 0.003987 1
-1.132047 0.520988 0.036705 1
-1.164734 0.517890 0.009890 1
-1.118065 0.515911 0.013556 1
-1.155342 0.520880 0.039956 1
-1.147247 0.518216 -0.005558 1
-1.118886 0.514955 0.035033 1
-1.175424 0.519934 0.022351 1
-1.118145 0.519403 -0.001616 1
-1.138471 0.522646 0.049393 1
-1.169334 0.517013 -0.004388 1
-1.107060 0.513606 0.021824 1
-1.167832 0.527776 0.040531 1
-1.133004 0.520930 -0.014274 1
-1.116413 0.522525 0.048061 1
-1.184802 0.521010 0.009883 1
-1.103576 0.518288 0.002536 1
-1.149234 0.530005 0.055295 1
-1.161784 0.516595 -0.017919 1
-1.102671 0.513212 0.035446 1
-1.185429 0.526507 0.032762 1
-1.115340 0.521641 -0.015770 1
-1.126216 0.524761 0.059843 1
-1.187309 0.518632 -0.006721 1
-1.092582 0.517134 0.013533 1
-1.166825 0.533051 0.054522 1
-1.142204 0.521439 -0.026368 1
-1.103838 0.517733 0.050667 1
-1.199659 0.523035 0.017713 1
-1.098798 0.519878 -0.010171 1
-1.141126 0.529955 0.066968 1
-1.178433 0.517593 -0.023068 1
-1.089235 0.512969 0.029324 1
-1.192150 0.526545 0.046745 1
-1.120511 0.523165 -0.028374 1
-1.113538 0.521711 0.064823 1
-1.201594 0.523470 -0.001897 1
-1.085520 0.517778 0.001909 1
-1.159901 0.535650 0.067465 1
-1.157742 0.520646 -0.034632 1
-1.090721 0.514483 0.047322 1
-1.204764 0.530081 0.030242 1
-1.100515 0.521185 -0.023440 1
-1.128517 0.528922 0.074673 1
-1.193487 0.522937 -0.021956 1
-1.077783 0.516145 0.019006 1
-1.186050 0.533164 0.061109 1
-1.134276 0.520210 -0.039663 1
-1.098159 0.520662 0.064376 1
-1.215157 0.526010 0.008349 1
-1.083134 0.519412 -0.011535 1
-1.148890 0.535693 0.078294 1
-1.175537 0.522035 -0.038313 1
-1.079340 0.511142 0.039386 1
-1.204793 0.535780 0.045460 1
-1.107483 0.522946 -0.036177 1
-1.114144 0.525752 0.078358 1
-1.213625 0.522173 -0.015932 1
-1.071486 0.517233 0.006009 1
-1.178279 0.533807 0.075336 1
-1.150753 0.520616 -0.047743 1
-1.083046 0.519674 0.059314 1
-1.219530 0.533808 0.022916 1
-1.085052 0.522483 -0.025530 1
-1.134447 0.534295 0.085927 1
-1.196042 0.522862 -0.037247 1
-1.069203 0.511083 0.027612 1
-1.201845 0.537446 0.062010 1
-1.122367 0.519990 -0.048325 1
-1.097459 0.524114 0.077252 1
-1.227502 0.526353 -0.004176 1
-1.068774 0.520119 -0.008602 1
-1.164490 0.534819 0.087176 1
-1.168554 0.524354 -0.051502 1
-1.070876 0.515882 0.050520 1
-1.220783 0.538643 0.040185 1
-1.095240 0.519288 -0.040168 1
-1.118507 0.530694 0.089918 1
-1.218695 0.522004 -0.031117 1
-1.060317 0.516597 0.013206 1
-1.194604 0.536552 0.078368 1
-1.139863 0.520576 -0.057585 1
-1.080432 0.523641 0.071607 1
-1.235466 0.532394 0.012056 1
-1.070789 0.522803 -0.023912 1
-1.147521 0.534208 0.095849 1
-1.189867 0.526587 -0.051016 1
-1.061191 0.512087 0.038165 1
-1.218982 0.539739 0.058977 1
-1.110443 0.516389 -0.053955 1
-1.102003 0.525430 0.089846 1
-1.235956 0.525608 -0.018959 1
-1.057891 0.517072 -0.002810 1
-1.183712 0.532757 0.093276 1
-1.157946 0.525891 -0.062416 1
-1.067367 0.518080 0.062757 1
-1.122927 0.517036 0.034775 1
-1.128966 0.515624 0.027765 1
-1.111381 0.514426 0.037889 1
-1.136300 0.520258 0.041354 1
-1.117558 0.514311 0.019333 1
-1.113339 0.519836 0.051519 1
-1.146330 0.515240 0.025965 1
-1.101580 0.512089 0.028505 1
-1.132218 0.525063 0.054710 1
-1.128432 0.517419 0.010348 1
-1.098197 0.517880 0.049324 1
-1.151839 0.523699 0.038152 1
-1.101429 0.516561 0.013426 1
-1.117744 0.524098 0.063821 1
-1.149414 0.516573 0.012077 1
-1.089701 0.511512 0.036408 1
-1.147238 0.527610 0.055881 1
-1.114305 0.521040 0.001449 1
-1.098544 0.520441 0.062474 1
-1.166495 0.517397 0.026421 1
-1.086082 0.517422 0.017200 1
-1.129909 0.528724 0.070106 1
-1.141497 0.517405 -0.001269 1
-1.083003 0.515322 0.049457 1
-1.164883 0.525471 0.048751 1
-1.100606 0.515930 -0.000840 1
-1.107132 0.524016 0.074112 1
-1.167230 0.517496 0.010210 1
-1.076756 0.513092 0.027848 1
-1.146852 0.531894 0.069648 1
-1.124298 0.520080 -0.010268 1
-1.083550 0.520573 0.064232 1
-1.176309 0.524975 0.034257 1
-1.081347 0.519677 0.004580 1
-1.120774 0.530381 0.081155 1
-1.159524 0.515647 -0.006067 1
-1.071813 0.511576 0.043383 1
-1.167383 0.530269 0.062037 1
-1.104304 0.520229 -0.012997 1
-1.092699 0.524541 0.078216 1
-1.184018 0.518486 0.015169 1
-1.068212 0.517573 0.016145 1
-1.139540 0.535169 0.082090 1
-1.137931 0.521427 -0.017700 1
-1.070820 0.517532 0.060705 1
-1.185336 0.526822 0.046836 1
-1.083418 0.520684 -0.008439 1
-1.109071 0.528377 0.088696 1
-1.177084 0.517126 -0.004920 1
-1.061254 0.513934 0.032890 1
-1.161515 0.536759 0.075731 1
-1.114861 0.522036 -0.023109 1
-1.077392 0.524461 0.077324 1
-1.193959 0.524633 0.025550 1
-1.066444 0.518617 0.002809 1
-1.128779 0.535198 0.092540 1
-1.157167 0.519876 -0.021159 1
-1.059346 0.515489 0.052623 1
-1.186412 0.531145 0.061934 1
-1.089394 0.524299 -0.020541 1
-1.094449 0.526213 0.091898 1
-1.192390 0.521256 0.001850 1
-1.054197 0.517660 0.019841 1
-1.156457 0.534138 0.090053 1
-1.130555 0.522723 -0.030454 1
-1.063077 0.523156 0.072134 1
-1.198743 0.531601 0.039847 1
-1.067924 0.523119 -0.010820 1
-1.114912 0.533451 0.099903 1
-1.176756 0.520841 -0.019541 1
-1.050049 0.514844 0.040950 1
-1.180977 0.535654 0.077770 1
-1.102774 0.523207 -0.031647 1
-1.076606 0.527789 0.089854 1
-1.204494 0.526559 0.013642 1
-1.052738 0.518580 0.005285 1
-1.146531 0.530398 0.102555 1
-1.151486 0.521058 -0.034481 1
-1.050938 0.520518 0.063192 1
-1.198627 0.537706 0.056615 1
-1.075492 0.524821 -0.024191 1
-1.099711 0.529195 0.103776 1
-1.197637 0.520831 -0.012839 1
-1.043345 0.516619 0.026667 1
-1.177861 0.529801 0.094846 1
-1.119686 0.523666 -0.040128 1
-1.060034 0.527897 0.083900 1
-1.211461 0.533027 0.029522 1
-1.055605 0.520006 -0.009923 1
-1.127440 0.533317 0.109962 1
-1.171836 0.523575 -0.033369 1
-1.043066 0.513522 0.051267 1
-1.197473 0.537930 0.075101 1
-1.090736 0.520886 -0.037194 1
-1.081084 0.528523 0.102372 1
-1.212406 0.526124 -0.000470 1
-1.040640 0.518723 0.010860 1
-1.164665 0.528900 0.108870 1
-1.143400 0.519752 -0.046075 1
-1.045945 0.526073 0.074494 1
-1.103604 0.517481 0.045828 1
-1.109733 0.515694 0.039077 1
-1.091531 0.516336 0.048624 1
-1.114997 0.523030 0.052285 1
-1.100405 0.511563 0.030653 1
-1.092827 0.522608 0.061851 1
-1.124690 0.518086 0.037509 1
-1.083187 0.512053 0.039375 1
-1.112512 0.525420 0.065481 1
-1.112918 0.511836 0.021902 1
-1.078737 0.519728 0.059586 1
-1.132055 0.523395 0.049601 1
-1.084919 0.513518 0.024481 1
-1.097727 0.525583 0.074074 1
-1.130700 0.515098 0.024028 1
-1.071225 0.512081 0.046933 1
-1.125801 0.529742 0.066605 1
-1.099024 0.515801 0.012729 1
-1.077585 0.524833 0.072108 1
-1.144323 0.519749 0.038293 1
-1.070324 0.513423 0.027950 1
-1.109151 0.530654 0.080278 1
-1.123048 0.516157 0.010740 1
-1.063895 0.517369 0.059488 1
-1.140819 0.530246 0.059668 1
-1.081583 0.517924 0.010519 1
-1.086047 0.527817 0.083623 1
-1.150358 0.512695 0.022491 1
-1.059867 0.511314 0.038357 1
-1.125035 0.534429 0.079923 1
-1.107278 0.517597 0.001443 1
-1.063191 0.524898 0.073612 1
-1.156239 0.523921 0.046216 1
-1.065501 0.516460 0.015287 1
-1.102045 0.529389 0.091538 1
-1.137035 0.519376 0.006643 1
-1.053397 0.512893 0.053449 1
-1.142032 0.536406 0.072295 1
-1.087842 0.517718 -0.001660 1
-1.072867 0.526934 0.087687 1
-1.161112 0.520902 0.027642 1
-1.053297 0.512326 0.026577 1
-1.119346 0.535603 0.092357 1
-1.120587 0.519027 -0.005623 1
-1.050178 0.523544 0.069799 1
-1.160050 0.531793 0.058095 1
-1.068307 0.516293 0.002311 1
-1.089663 0.528905 0.098538 1
-1.157714 0.515520 0.007825 1
-1.044199 0.513143 0.043032 1
-1.140553 0.537231 0.086376 1
-1.098833 0.518603 -0.011549 1
-1.055864 0.531448 0.085762 1
-1.172275 0.524837 0.037921 1
-1.050698 0.515752 0.013262 1
-1.110340 0.533317 0.103048 1
-1.138756 0.518184 -0.008557 1
-1.039502 0.520891 0.061863 1
-1.160708 0.536358 0.072591 1
-1.074438 0.519883 -0.009653 1
-1.074049 0.529285 0.100960 1
-1.175107 0.516303 0.014634 1
-1.038723 0.513983 0.029998 1
-1.137329 0.532109 0.100980 1
-1.113603 0.520302 -0.018367 1
-1.043800 0.526562 0.081153 1
-1.179302 0.528776 0.052143 1
-1.053897 0.517039 -0.000519 1
-1.096471 0.531975 0.110102 1
-1.160505 0.515379 -0.006910 1
-1.031036 0.519390 0.050419 1
-1.160026 0.535088 0.088855 1
-1.086358 0.521195 -0.020091 1
-1.055830 0.533018 0.098230 1
-1.186155 0.522404 0.026484 1
-1.036783 0.516690 0.015486 1
-1.122846 0.535140 0.111512 1
-1.133054 0.519907 -0.021703 1
-1.031957 0.524351 0.072188 1
-1.179008 0.535000 0.068598 1
-1.060116 0.521871 -0.013423 1
-1.080711 0.529182 0.113432 1
-1.177048 0.519915 0.000474 1
-1.025586 0.519034 0.036419 1
-1.151592 0.535947 0.104076 1
-1.103394 0.520867 -0.028207 1
-1.040406 0.532141 0.092410 1
-1.192218 0.529573 0.042199 1
-1.039698 0.518455 0.000473 1
-1.108118 0.532511 0.120033 1
-1.155845 0.518198 -0.020744 1
-1.022253 0.523110 0.059882 1
-1.176368 0.536819 0.086528 1
-1.072326 0.523367 -0.025158 1
-1.059245 0.535230 0.110092 1
-1.193888 0.522010 0.012701 1
-1.024139 0.518654 0.020810 1
-1.144148 0.528040 0.119453 1
-1.123403 0.521551 -0.032752 1
-1.026877 0.530356 0.083035 1
-1.087167 0.516535 0.052158 1
-1.094577 0.512321 0.045676 1
-1.075552 0.514959 0.054862 1
-1.098595 0.521658 0.058652 1
-1.084115 0.510487 0.037143 1
-1.074960 0.524691 0.067541 1
-1.109068 0.515117 0.044222 1
-1.068125 0.509149 0.045715 1
-1.096091 0.524097 0.071690 1
-1.097468 0.508935 0.028619 1
-1.062214 0.519906 0.065438 1
-1.114970 0.522453 0.056105 1
-1.069376 0.511782 0.030861 1
-1.080636 0.525938 0.079838 1
-1.115180 0.511820 0.030907 1
-1.054040 0.513948 0.052783 1
-1.110200 0.526762 0.073101 1
-1.082659 0.515279 0.019361 1
-1.061125 0.524928 0.077792 1
-1.126758 0.519034 0.045061 1
-1.054771 0.512204 0.034143 1
-1.093276 0.528543 0.086440 1
-1.108326 0.512011 0.017578 1
-1.045979 0.521236 0.064825 1
-1.123182 0.529799 0.066018 1
-1.066184 0.516396 0.016936 1
-1.069722 0.527229 0.089352 1
-1.131174 0.514080 0.029563 1
-1.043967 0.511031 0.044343 1
-1.109807 0.530916 0.086417 1
-1.091684 0.515568 0.008219 1
-1.047059 0.524940 0.079182 1
-1.138205 0.523366 0.052945 1
-1.050972 0.513540 0.021477 1
-1.084796 0.529715 0.097096 1
-1.123763 0.512798 0.013550 1
-1.037293 0.513171 0.059188 1
-1.127025 0.532221 0.079025 1
-1.072508 0.515990 0.004921 1
-1.055368 0.529191 0.092747 1
-1.146122 0.516087 0.034815 1
-1.037697 0.511890 0.032595 1
-1.104056 0.532265 0.098744 1
-1.105161 0.516360 0.001327 1
-1.035382 0.521052 0.075676 1
-1.143033 0.529761 0.064793 1
-1.053481 0.514131 0.008612 1
-1.072366 0.529798 0.103820 1
-1.139615 0.515165 0.015202 1
-1.027645 0.515233 0.048665 1
-1.122743 0.536943 0.092289 1
-1.084309 0.515164 -0.004901 1
-1.040886 0.529322 0.091544 1
-1.154600 0.523217 0.044974 1
-1.035951 0.513793 0.019312 1
-1.093616 0.532388 0.108790 1
-1.122100 0.516748 -0.001251 1
-1.024039 0.520419 0.067438 1
-1.143949 0.533947 0.079176 1
-1.059873 0.517311 -0.003263 1
-1.056628 0.531193 0.105884 1
-1.157062 0.515081 0.022081 1
-1.022384 0.516159 0.035756 1
-1.115971 0.536890 0.105526 1
-1.098338 0.517795 -0.011400 1
-1.027984 0.526683 0.086497 1
-1.156249 0.533547 0.058437 1
-1.039762 0.513861 0.005555 1
-1.078905 0.532960 0.115223 1
-1.142231 0.515258 0.000759 1
-1.014631 0.522034 0.055736 1
-1.139376 0.537665 0.094284 1
-1.071781 0.518459 -0.013509 1
-1.040438 0.531667 0.103805 1
-1.167452 0.521553 0.033827 1
-1.022073 0.515123 0.021369 1
-1.107799 0.531128 0.118071 1
-1.117020 0.517921 -0.014380 1
-1.016003 0.525477 0.077379 1
-1.158524 0.536513 0.074791 1
-1.046712 0.517369 -0.007400 1
-1.062378 0.532316 0.117880 1
-1.162923 0.513719 0.007870 1
