ply
format ascii 1.0
element vertex 1595
property float x
property float y
property float z
property uchar label
end_header
1.655897 0.512267 -1.356357 1
1.604707 0.509399 -1.238296 1
1.567588 0.520237 -1.363103 1
1.677247 0.512295 -1.300145 1
1.549252 0.509496 -1.267421 1
1.624820 0.504323 -1.377585 1
1.644496 0.512500 -1.245183 1
1.542772 0.525313 -1.334094 1
1.674733 0.512043 -1.340146 1
1.578217 0.508275 -1.236930 1
1.584148 0.502662 -1.379081 1
1.675504 0.516685 -1.274710 1
1.534567 0.515922 -1.290525 1
1.650417 0.510529 -1.373531 1
1.621427 0.509903 -1.228710 1
1.550260 0.523971 -1.359284 1
1.686950 0.515322 -1.316605 1
1.551997 0.509897 -1.247637 1
1.609565 0.497189 -1.388710 1
1.663567 0.516819 -1.248659 1
1.528327 0.518998 -1.318722 1
1.673922 0.512939 -1.359192 1
1.592402 0.511462 -1.223167 1
1.565231 0.506655 -1.380311 1
1.690049 0.516541 -1.287700 1
1.530879 0.513216 -1.269427 1
1.639013 0.496657 -1.388480 1
1.641533 0.507549 -1.223989 1
1.533760 0.526221 -1.349347 1
1.691673 0.515825 -1.335892 1
1.561146 0.509418 -1.228227 1
1.589722 0.488742 -1.395328 1
1.682109 0.517570 -1.257444 1
1.519186 0.518974 -1.299671 1
1.667354 0.510590 -1.377935 1
1.610911 0.506538 -1.210867 1
1.545582 0.510097 -1.375513 1
1.700494 0.518475 -1.305905 1
1.533338 0.510420 -1.246608 1
1.607826 0.061950 -1.393562 1
1.663104 0.511402 -1.227844 1
1.519452 0.527135 -1.333884 1
1.690845 0.515499 -1.356771 1
1.576400 0.509293 -1.211410 1
1.506851 0.029896 -1.385184 1
1.698305 0.518788 -1.272145 1
1.514734 0.516934 -1.276807 1
1.655432 0.497243 -1.394912 1
1.633415 0.508113 -1.206573 1
1.527393 0.516163 -1.365079 1
1.706158 0.519047 -1.327120 1
1.542687 0.509809 -1.224679 1
1.569756 0.053838 -1.408411 1
1.684199 0.513336 -1.237442 1
1.507048 0.520801 -1.312478 1
1.684741 0.509150 -1.377403 1
1.596596 0.506522 -1.197689 1
1.463792 0.027691 -1.376586 1
1.710726 0.519966 -1.291619 1
1.515444 0.511351 -1.250912 1
1.635693 0.047205 -1.408932 1
1.598649 0.505446 -1.307760 1
1.591495 0.505993 -1.299507 1
1.598744 0.510834 -1.324110 1
1.611770 0.509353 -1.294919 1
1.577455 0.509655 -1.309818 1
1.617720 0.513847 -1.324573 1
1.594416 0.504958 -1.280707 1
1.583703 0.513231 -1.332827 1
1.628407 0.512553 -1.302077 1
1.570023 0.507031 -1.291866 1
1.610066 0.513784 -1.341462 1
1.613198 0.508345 -1.274881 1
1.565401 0.512748 -1.324036 1
1.635335 0.513848 -1.322080 1
1.578734 0.506146 -1.271158 1
1.589965 0.516195 -1.349782 1
1.634658 0.513410 -1.285362 1
1.554816 0.509959 -1.301435 1
1.627285 0.514831 -1.344937 1
1.601571 0.506848 -1.259528 1
1.565792 0.517838 -1.342911 1
1.647748 0.513737 -1.308585 1
1.560169 0.509549 -1.273983 1
1.604987 0.513319 -1.360012 1
1.630121 0.511799 -1.265730 1
1.547359 0.516652 -1.320159 1
1.645106 0.515075 -1.337991 1
1.582261 0.506519 -1.251920 1
1.575669 0.519495 -1.360409 1
1.652573 0.513965 -1.288533 1
1.543523 0.511952 -1.286848 1
1.625261 0.512208 -1.362229 1
1.615796 0.510085 -1.248372 1
1.548817 0.522325 -1.342367 1
1.659503 0.514320 -1.321897 1
1.559677 0.507208 -1.254380 1
1.592775 0.511730 -1.372379 1
1.647994 0.515071 -1.266082 1
1.533443 0.516362 -1.308147 1
1.646643 0.512953 -1.355183 1
1.593665 0.508716 -1.237605 1
1.558811 0.522161 -1.363315 1
1.667127 0.512508 -1.298698 1
1.538533 0.508691 -1.267489 1
1.615981 0.506881 -1.376925 1
1.633606 0.510704 -1.243612 1
1.533497 0.526405 -1.334655 1
1.665183 0.512778 -1.338745 1
1.566955 0.506374 -1.236191 1
1.575473 0.504701 -1.378975 1
1.665090 0.515871 -1.273057 1
1.524274 0.515510 -1.290929 1
1.641432 0.510785 -1.372363 1
1.610264 0.509285 -1.227808 1
1.541043 0.523388 -1.359518 1
1.677154 0.514520 -1.314815 1
1.540944 0.508850 -1.247556 1
1.600899 0.499141 -1.388181 1
1.652821 0.514327 -1.246622 1
1.518600 0.519195 -1.319354 1
1.664753 0.512110 -1.357599 1
1.581049 0.510026 -1.222353 1
1.556568 0.508047 -1.380446 1
1.679815 0.515878 -1.285890 1
1.520239 0.512779 -1.269849 1
1.630203 0.497107 -1.387455 1
1.630295 0.506156 -1.222539 1
1.524074 0.524270 -1.349648 1
1.682131 0.515408 -1.334098 1
1.549744 0.507889 -1.227812 1
1.536904 0.037281 -1.382738 1
1.671492 0.516064 -1.255484 1
1.509127 0.519035 -1.300402 1
1.658395 0.511035 -1.376525 1
1.599462 0.506043 -1.210131 1
1.536392 0.508732 -1.375773 1
1.690563 0.517550 -1.303899 1
1.522477 0.510603 -1.247159 1
1.596986 0.062057 -1.392640 1
1.652026 0.508656 -1.225643 1
1.509710 0.526202 -1.334480 1
1.681642 0.514769 -1.354944 1
1.564765 0.507521 -1.210649 1
1.495295 0.026969 -1.385670 1
1.687780 0.518758 -1.270391 1
1.504154 0.516366 -1.277429 1
1.646673 0.498377 -1.393654 1
1.621926 0.507744 -1.205588 1
1.517256 0.511451 -1.365297 1
1.696479 0.518664 -1.325132 1
1.531476 0.509885 -1.225064 1
1.558420 0.045007 -1.408028 1
1.672814 0.517888 -1.237434 1
1.497222 0.521038 -1.313418 1
1.675647 0.510572 -1.375801 1
1.585279 0.509709 -1.198611 1
1.452069 0.025541 -1.377710 1
1.700597 0.518964 -1.289446 1
1.504815 0.512265 -1.251927 1
1.625017 0.049449 -1.407578 1
1.587924 0.504562 -1.305782 1
1.580734 0.506233 -1.297836 1
1.588284 0.509898 -1.322173 1
1.600815 0.506503 -1.292304 1
1.567033 0.511458 -1.308645 1
1.607223 0.510093 -1.321920 1
1.583319 0.504501 -1.278812 1
1.573660 0.515355 -1.331573 1
1.617690 0.510323 -1.299418 1
1.559221 0.507952 -1.290625 1
1.599924 0.513161 -1.339463 1
1.601974 0.505887 -1.272219 1
1.555276 0.514910 -1.323059 1
1.624961 0.513734 -1.319790 1
1.567563 0.506530 -1.269665 1
1.579836 0.514748 -1.347983 1
1.623725 0.510140 -1.282287 1
1.544150 0.510774 -1.300374 1
1.617235 0.514436 -1.342739 1
1.590220 0.506777 -1.257606 1
1.556141 0.521186 -1.342039 1
1.637200 0.512670 -1.305931 1
1.548565 0.506809 -1.271929 1
1.595231 0.514734 -1.358314 1
1.618878 0.509390 -1.262811 1
1.537138 0.518239 -1.319343 1
1.634985 0.513935 -1.335438 1
1.570660 0.505478 -1.249941 1
1.566222 0.522731 -1.359301 1
1.641757 0.512567 -1.285685 1
1.532578 0.512394 -1.285849 1
1.615465 0.512700 -1.360158 1
1.604142 0.506126 -1.245057 1
1.539119 0.524845 -1.341630 1
1.649106 0.514953 -1.319412 1
1.548140 0.506917 -1.252917 1
1.583383 0.515156 -1.370967 1
1.636900 0.510563 -1.262351 1
1.522915 0.517277 -1.307400 1
1.636726 0.513907 -1.352872 1
1.581889 0.507445 -1.235356 1
1.549309 0.524164 -1.362318 1
1.656397 0.512767 -1.296047 1
1.527248 0.508993 -1.266490 1
1.606450 0.509310 -1.375091 1
1.622065 0.509180 -1.240806 1
1.523295 0.526719 -1.333835 1
1.655018 0.513223 -1.336138 1
1.555133 0.505843 -1.234513 1
1.566048 0.506654 -1.377667 1
1.654067 0.515074 -1.270158 1
1.513319 0.515709 -1.290135 1
1.631762 0.511145 -1.370050 1
1.598236 0.504918 -1.224236 1
1.530742 0.521269 -1.358377 1
1.666716 0.513959 -1.311880 1
1.528934 0.506832 -1.245782 1
1.591586 0.502215 -1.386524 1
1.641534 0.507845 -1.242022 1
1.508217 0.520020 -1.318794 1
1.654849 0.512663 -1.354993 1
1.568485 0.504142 -1.218547 1
1.547247 0.510145 -1.379413 1
1.668972 0.515343 -1.282889 1
1.508964 0.513053 -1.269086 1
1.620683 0.497962 -1.385290 1
1.618439 0.506192 -1.220241 1
1.513271 0.521054 -1.348558 1
1.672067 0.513748 -1.330956 1
1.537462 0.505674 -1.225742 1
1.523929 0.031482 -1.380956 1
1.660319 0.513771 -1.252017 1
1.498275 0.519169 -1.299814 1
1.648785 0.511063 -1.373950 1
1.587373 0.505813 -1.208092 1
1.526527 0.508153 -1.374866 1
1.680265 0.514252 -1.300208 1
1.510693 0.510135 -1.246096 1
1.584820 0.059072 -1.390148 1
1.640276 0.507087 -1.222519 1
1.498535 0.522906 -1.333452 1
1.671803 0.513921 -1.351961 1
1.552535 0.506755 -1.208832 1
1.482832 0.026864 -1.384623 1
1.676841 0.517113 -1.266967 1
1.491795 0.512151 -1.275751 1
1.637239 0.498341 -1.391220 1
1.609723 0.504770 -1.202201 1
1.505943 0.505516 -1.364187 1
1.686507 0.515524 -1.321524 1
1.519388 0.509374 -1.223801 1
1.545700 0.035526 -1.406101 1
1.661832 0.508796 -1.231572 1
1.486050 0.519410 -1.312688 1
1.665951 0.511463 -1.373043 1
1.572378 0.503435 -1.194285 1
1.439685 0.026989 -1.377316 1
1.689865 0.518108 -1.286108 1
1.493748 0.514552 -1.251933 1
1.613158 0.051095 -1.404728 1
1.577504 0.503747 -1.302496 1
1.569987 0.503373 -1.294185 1
1.577976 0.507321 -1.318658 1
1.589981 0.501226 -1.287825 1
1.556137 0.506748 -1.304902 1
1.597058 0.508209 -1.318280 1
1.572468 0.503286 -1.275391 1
1.563853 0.516579 -1.328895 1
1.607219 0.506982 -1.295228 1
1.548678 0.508328 -1.287924 1
1.590047 0.512202 -1.336135 1
1.591099 0.504490 -1.268499 1
1.545316 0.515854 -1.320572 1
1.614862 0.511716 -1.315903 1
1.556671 0.506461 -1.266704 1
1.570248 0.515954 -1.345203 1
1.613063 0.507020 -1.277939 1
1.533762 0.511281 -1.297913 1
1.607452 0.513439 -1.339197 1
1.578976 0.503913 -1.253535 1
1.546526 0.522380 -1.339596 1
1.626951 0.511312 -1.301951 1
1.537652 0.506693 -1.269193 1
1.585813 0.516595 -1.355386 1
1.607888 0.505505 -1.258154 1
1.527042 0.518671 -1.317008 1
1.625136 0.513262 -1.331694 1
1.559424 0.504852 -1.246716 1
1.556561 0.521643 -1.356492 1
1.631243 0.511277 -1.281587 1
1.521834 0.512192 -1.283346 1
1.605965 0.513487 -1.356849 1
1.592958 0.505788 -1.241510 1
1.529247 0.524517 -1.339218 1
1.639126 0.512275 -1.315106 1
1.536580 0.504489 -1.249442 1
1.574402 0.519439 -1.368342 1
1.626043 0.509103 -1.258161 1
1.512491 0.517125 -1.305108 1
1.627114 0.513482 -1.349165 1
1.570248 0.504318 -1.231118 1
1.539044 0.519430 -1.359409 1
1.646016 0.512488 -1.292030 1
1.516369 0.509686 -1.264222 1
1.597297 0.513224 -1.372080 1
1.610794 0.505204 -1.235870 1
1.512679 0.523635 -1.331206 1
1.645155 0.513520 -1.332275 1
1.543723 0.505884 -1.231630 1
1.557774 0.515331 -1.375448 1
1.643521 0.510542 -1.264978 1
1.501781 0.512006 -1.287091 1
1.622364 0.511511 -1.366477 1
1.586746 0.504639 -1.220707 1
1.519818 0.514619 -1.355472 1
1.656677 0.511852 -1.307414 1
1.517944 0.508521 -1.243758 1
1.582603 0.505538 -1.383572 1
1.630399 0.506406 -1.237680 1
1.497530 0.518233 -1.316441 1
1.645229 0.513093 -1.351139 1
1.556855 0.504053 -1.215407 1
1.537114 0.505227 -1.376650 1
1.658608 0.512558 -1.278088 1
1.497377 0.510676 -1.266234 1
1.611654 0.509485 -1.382326 1
1.606959 0.506434 -1.216658 1
1.502413 0.516487 -1.345985 1
1.662197 0.513008 -1.326719 1
1.526214 0.507576 -1.223683 1
1.511972 0.033693 -1.376933 1
1.649469 0.511289 -1.247198 1
1.486114 0.513096 -1.296559 1
1.639428 0.511227 -1.370136 1
1.575670 0.505920 -1.204781 1
1.516381 0.504714 -1.372424 1
1.670052 0.512878 -1.295674 1
1.499943 0.512753 -1.244590 1
1.573297 0.065704 -1.385499 1
1.628899 0.502938 -1.217124 1
1.487151 0.517830 -1.330833 1
1.662262 0.512539 -1.347689 1
1.540195 0.503172 -1.204517 1
1.470859 0.028585 -1.381116 1
1.666230 0.515340 -1.262252 1
1.480521 0.511100 -1.273496 1
1.628019 0.501341 -1.387603 1
1.597992 0.505343 -1.198799 1
1.495131 0.500770 -1.361812 1
1.676634 0.513775 -1.316920 1
1.508392 0.512424 -1.222373 1
1.533567 0.031799 -1.401724 1
1.650666 0.506612 -1.226690 1
1.474547 0.515627 -1.310204 1
1.656515 0.512411 -1.369060 1
1.560532 0.504377 -1.191430 1
1.427961 0.030569 -1.374455 1
1.679667 0.515293 -1.281071 1
1.483121 0.517123 -1.250625 1
1.601460 0.051241 -1.399517 1
1.566549 0.505302 -1.299525 1
1.558927 0.505091 -1.291364 1
1.567253 0.508392 -1.315590 1
1.578649 0.501220 -1.284331 1
1.545275 0.508370 -1.302258 1
1.586177 0.506858 -1.314525 1
1.561034 0.504317 -1.272386 1
1.552837 0.513372 -1.325408 1
1.595928 0.503678 -1.290813 1
1.537565 0.509958 -1.285411 1
1.579575 0.512681 -1.332816 1
1.579349 0.502535 -1.264450 1
1.534809 0.517687 -1.318136 1
1.604018 0.510195 -1.311864 1
1.545096 0.507319 -1.263883 1
1.560104 0.517951 -1.342374 1
1.601569 0.504627 -1.273534 1
1.522768 0.512514 -1.295531 1
1.596997 0.512992 -1.335504 1
1.567076 0.503619 -1.250050 1
1.536242 0.523434 -1.337030 1
1.615927 0.509489 -1.297620 1
1.526193 0.508069 -1.266773 1
1.575782 0.518490 -1.352290 1
1.596104 0.504587 -1.254113 1
1.516376 0.519762 -1.314723 1
1.614582 0.512412 -1.327670 1
1.547493 0.505489 -1.243764 1
1.546353 0.521333 -1.353625 1
1.619919 0.509669 -1.277151 1
1.510519 0.512987 -1.281031 1
1.595863 0.515072 -1.353408 1
1.580904 0.505394 -1.237774 1
1.518663 0.523970 -1.336699 1
1.628322 0.511910 -1.310925 1
1.524948 0.506781 -1.247299 1
1.564570 0.520791 -1.365348 1
1.614325 0.507578 -1.253707 1
1.501349 0.517032 -1.302789 1
1.616834 0.513848 -1.345290 1
1.557895 0.503313 -1.227444 1
1.528285 0.515918 -1.356499 1
1.634848 0.512586 -1.287819 1
1.504868 0.511182 -1.262141 1
1.587577 0.517027 -1.368882 1
1.598698 0.505192 -1.231998 1
1.501621 0.521843 -1.328716 1
1.634585 0.514276 -1.328199 1
1.531803 0.508183 -1.229424 1
1.547608 0.513313 -1.372462 1
1.631961 0.509513 -1.260454 1
1.490130 0.511293 -1.284713 1
1.612356 0.513677 -1.362804 1
1.574363 0.504501 -1.217073 1
1.508883 0.511507 -1.352843 1
1.645685 0.512818 -1.303229 1
1.506472 0.511767 -1.242191 1
1.573026 0.508323 -1.380435 1
1.618358 0.506115 -1.233461 1
1.486068 0.516296 -1.314046 1
1.634939 0.514002 -1.347056 1
1.544126 0.502556 -1.211656 1
1.527066 0.504787 -1.374038 1
1.647256 0.512092 -1.273546 1
1.485796 0.511731 -1.264300 1
1.601994 0.514216 -1.378871 1
1.594433 0.503178 -1.211612 1
1.490927 0.512319 -1.343422 1
1.651487 0.514018 -1.322441 1
1.514436 0.511074 -1.222146 1
1.498847 0.031370 -1.372835 1
1.637657 0.510160 -1.242501 1
1.474129 0.510838 -1.294118 1
1.629413 0.512767 -1.366146 1
1.562753 0.503160 -1.200234 1
1.505292 0.499890 -1.369824 1
1.658881 0.513542 -1.291252 1
1.488649 0.516348 -1.243394 1
1.560576 0.061352 -1.380557 1
1.616517 0.503055 -1.213005 1
1.474890 0.512349 -1.328152 1
1.651860 0.513656 -1.343383 1
1.527744 0.504971 -1.202181 1
1.458111 0.029403 -1.377727 1
1.654680 0.514596 -1.257503 1
1.468415 0.509963 -1.271246 1
1.618240 0.505948 -1.383815 1
1.585154 0.502869 -1.194021 1
1.371194 0.040098 -1.320653 1
1.665837 0.513785 -1.312275 1
1.496732 0.516125 -1.221175 1
1.520818 0.028651 -1.397350 1
1.638509 0.505617 -1.221929 1
1.461548 0.509440 -1.307300 1
1.646502 0.512667 -1.364724 1
1.547604 0.504140 -1.187999 1
1.414978 0.030933 -1.371713 1
1.668429 0.514383 -1.276142 1
1.471307 0.518215 -1.248902 1
1.589405 0.061382 -1.394312 1
1.556446 0.507547 -1.295621 1
1.548772 0.507647 -1.287631 1
1.557364 0.510482 -1.311627 1
1.568276 0.503358 -1.280275 1
1.535300 0.510714 -1.298626 1
1.576167 0.508340 -1.310231 1
1.550471 0.505598 -1.268347 1
1.543200 0.515847 -1.321678 1
1.585469 0.502989 -1.285941 1
1.527356 0.512074 -1.281860 1
1.569884 0.514536 -1.328656 1
1.568604 0.503161 -1.260023 1
1.525146 0.520076 -1.314650 1
1.593686 0.503322 -1.305857 1
1.533951 0.505198 -1.259107 1
1.550687 0.520325 -1.338516 1
1.590924 0.504475 -1.268685 1
1.512625 0.514027 -1.292017 1
1.587197 0.512801 -1.330850 1
1.556210 0.504891 -1.245932 1
1.526413 0.523062 -1.333127 1
1.605612 0.507181 -1.292230 1
1.515751 0.510263 -1.263381 1
1.566330 0.519590 -1.348076 1
1.585219 0.504794 -1.249379 1
1.505583 0.516536 -1.310464 1
1.604688 0.512357 -1.322819 1
1.536651 0.507418 -1.240066 1
1.536814 0.521346 -1.349663 1
1.609366 0.508550 -1.271892 1
1.499390 0.510786 -1.276762 1
1.586377 0.516375 -1.348952 1
1.569777 0.505344 -1.233086 1
1.508834 0.523838 -1.333038 1
1.618223 0.511171 -1.305770 1
1.514345 0.509578 -1.244112 1
1.555133 0.520160 -1.361119 1
1.603464 0.507732 -1.248775 1
1.489932 0.512471 -1.298320 1
1.607170 0.513473 -1.340394 1
1.546611 0.503600 -1.223070 1
1.518418 0.514213 -1.352561 1
1.624471 0.511883 -1.282543 1
1.494329 0.513016 -1.258904 1
1.578330 0.518426 -1.364511 1
1.587553 0.505804 -1.227324 1
1.491248 0.520108 -1.324984 1
1.624682 0.515087 -1.323259 1
1.520464 0.508144 -1.225245 1
1.537839 0.510215 -1.368248 1
1.621200 0.509660 -1.255352 1
1.479602 0.511912 -1.281351 1
1.602915 0.513468 -1.357990 1
1.562839 0.503275 -1.211956 1
1.500184 0.516101 -1.349750 1
1.635420 0.514072 -1.298264 1
1.496127 0.515711 -1.239605 1
1.563742 0.507879 -1.376068 1
1.607237 0.506892 -1.228641 1
1.475508 0.515125 -1.310485 1
1.625295 0.513884 -1.341976 1
1.533200 0.506940 -1.208881 1
1.517863 0.505888 -1.370306 1
1.636654 0.512583 -1.268398 1
1.475132 0.512958 -1.261110 1
1.592845 0.516452 -1.374327 1
1.583068 0.504890 -1.207338 1
1.480549 0.510200 -1.339802 1
1.641441 0.515383 -1.317400 1
1.503781 0.515029 -1.219547 1
1.485962 0.027841 -1.366679 1
1.626802 0.506189 -1.236005 1
1.463399 0.510413 -1.290727 1
1.619996 0.513059 -1.361161 1
1.551493 0.506805 -1.197035 1
1.496454 0.503078 -1.366480 1
1.648423 0.514936 -1.286192 1
1.478361 0.520040 -1.240946 1
1.547591 0.047657 -1.373515 1
1.605102 0.502297 -1.207594 1
1.464154 0.510130 -1.324613 1
1.642088 0.514661 -1.338240 1
1.516244 0.506290 -1.198442 1
1.445557 0.028772 -1.372180 1
1.644301 0.508598 -1.250390 1
1.457611 0.510510 -1.268070 1
1.609044 0.514520 -1.379293 1
1.573676 0.506067 -1.190432 1
1.475089 0.500783 -1.356498 1
1.655610 0.515181 -1.307096 1
1.486242 0.520380 -1.218907 1
1.508199 0.023716 -1.390982 1
1.627217 0.506608 -1.216956 1
1.450222 0.506652 -1.303651 1
1.637054 0.512658 -1.359508 1
1.535819 0.504737 -1.183729 1
1.402015 0.029219 -1.366663 1
1.657854 0.514732 -1.270738 1
1.460356 0.519148 -1.245790 1
1.577505 0.062139 -1.387332 1
1.547448 0.509673 -1.290696 1
1.539623 0.509339 -1.282716 1
1.548580 0.512389 -1.306649 1
1.558958 0.504811 -1.275028 1
1.526309 0.512217 -1.293863 1
1.567264 0.509568 -1.304874 1
1.541010 0.507089 -1.263343 1
1.534552 0.517315 -1.316835 1
1.576033 0.501219 -1.279743 1
1.517397 0.509183 -1.276160 1
1.561303 0.516130 -1.323472 1
1.558961 0.504185 -1.254640 1
1.515521 0.516291 -1.309142 1
1.584618 0.502907 -1.299929 1
1.524468 0.507380 -1.254491 1
1.542329 0.522112 -1.333634 1
1.581362 0.504532 -1.262793 1
1.502713 0.511185 -1.286615 1
1.578536 0.513057 -1.325233 1
1.546337 0.505615 -1.240599 1
1.517794 0.523440 -1.328388 1
1.596375 0.505624 -1.285882 1
1.506196 0.511478 -1.258765 1
1.557649 0.516813 -1.342451 1
1.575396 0.505115 -1.243574 1
1.496456 0.516351 -1.305810 1
1.595897 0.511378 -1.316764 1
1.526488 0.506855 -1.234569 1
1.528180 0.519998 -1.344606 1
1.599877 0.507423 -1.265499 1
1.489693 0.510482 -1.272001 1
1.577792 0.513045 -1.342988 1
1.559718 0.505838 -1.227477 1
1.499789 0.522243 -1.328254 1
1.609230 0.510399 -1.299507 1
1.504855 0.512634 -1.240042 1
1.546749 0.518967 -1.355871 1
1.593670 0.508230 -1.242814 1
1.480553 0.512248 -1.293792 1
1.598637 0.513038 -1.334441 1
1.536783 0.507325 -1.218816 1
1.510613 0.517699 -1.348206 1
1.615170 0.511725 -1.276263 1
1.484771 0.514522 -1.254649 1
1.570163 0.518775 -1.359080 1
1.577410 0.505743 -1.221292 1
1.481770 0.517648 -1.320227 1
1.615991 0.512506 -1.316704 1
1.511017 0.513100 -1.221764 1
1.529186 0.507098 -1.363052 1
1.611516 0.509910 -1.249128 1
1.469814 0.511248 -1.276781 1
1.594639 0.514103 -1.352227 1
1.552624 0.505405 -1.206943 1
1.491026 0.513152 -1.344971 1
1.626364 0.513566 -1.291828 1
1.486812 0.519482 -1.236041 1
1.556316 0.514803 -1.371136 1
1.597171 0.507649 -1.222657 1
1.465708 0.512776 -1.305816 1
1.616799 0.513736 -1.335828 1
1.523164 0.510201 -1.204674 1
1.509169 0.503237 -1.365396 1
1.627190 0.512260 -1.261882 1
1.465620 0.514542 -1.257117 1
1.584852 0.518039 -1.368767 1
1.572595 0.504251 -1.201044 1
1.471952 0.510706 -1.335602 1
1.632617 0.515533 -1.311064 1
1.494429 0.520175 -1.216425 1
1.536548 0.500070 -1.378686 1
1.616838 0.506929 -1.229788 1
1.453218 0.508153 -1.286053 1
1.611758 0.512494 -1.355063 1
1.540289 0.502359 -1.189555 1
1.487063 0.498204 -1.361652 1
1.639196 0.514978 -1.279685 1
1.468975 0.523141 -1.237417 1
1.569213 0.508454 -1.381870 1
1.594758 0.504503 -1.202088 1
1.454131 0.506563 -1.319979 1
1.633516 0.515170 -1.331960 1
1.506901 0.513794 -1.196113 1
1.435322 0.028010 -1.365206 1
1.634543 0.509208 -1.243966 1
1.447457 0.509663 -1.263653 1
1.601068 0.516755 -1.373525 1
1.563004 0.506307 -1.184512 1
1.465422 0.496359 -1.351876 1
1.646576 0.516249 -1.300739 1
1.477034 0.525581 -1.216069 1
1.498552 0.025115 -1.383193 1
1.617089 0.503395 -1.209260 1
1.440122 0.504346 -1.299217 1
1.628772 0.512923 -1.353254 1
1.524952 0.505041 -1.178247 1
1.391986 0.030251 -1.360339 1
1.648410 0.515006 -1.264135 1
1.450624 0.520734 -1.242001 1
1.584409 0.493371 -1.388556 1
1.538000 0.508635 -1.285403 1
1.530460 0.511438 -1.278187 1
1.539678 0.514176 -1.301954 1
1.549627 0.506791 -1.270247 1
1.517181 0.513414 -1.289290 1
1.558280 0.511202 -1.299935 1
1.531632 0.509501 -1.258885 1
1.525712 0.518324 -1.312180 1
1.566710 0.503261 -1.274771 1
1.508044 0.510496 -1.271677 1
1.552152 0.512991 -1.317879 1
1.549347 0.505840 -1.249777 1
1.506391 0.516301 -1.304501 1
1.575461 0.503556 -1.294575 1
1.515028 0.509893 -1.250241 1
1.533450 0.521004 -1.328636 1
1.571791 0.505603 -1.257546 1
1.493205 0.511060 -1.281986 1
1.569512 0.509836 -1.319438 1
1.536649 0.507956 -1.236077 1
1.508842 0.522831 -1.323719 1
1.587028 0.504764 -1.280069 1
1.496573 0.512517 -1.254317 1
1.549262 0.519279 -1.337709 1
1.565590 0.506078 -1.238336 1
1.487024 0.515411 -1.301187 1
1.586949 0.510662 -1.311121 1
1.516955 0.510403 -1.230644 1
1.519513 0.519787 -1.339899 1
1.590319 0.507148 -1.259727 1
1.479957 0.510405 -1.267462 1
1.569243 0.514279 -1.337855 1
1.549461 0.504159 -1.221489 1
1.490327 0.519596 -1.323479 1
1.600102 0.508124 -1.293351 1
1.495422 0.515786 -1.236236 1
1.538202 0.518312 -1.350931 1
1.583736 0.504791 -1.236059 1
1.470711 0.510684 -1.289129 1
1.589912 0.512259 -1.328819 1
1.526994 0.510704 -1.214772 1
1.501745 0.516476 -1.343582 1
1.605814 0.508836 -1.269749 1
1.475445 0.517084 -1.250864 1
1.561833 0.519765 -1.354024 1
1.567307 0.506185 -1.215815 1
1.471929 0.514553 -1.315494 1
1.607097 0.511145 -1.310742 1
1.501439 0.516786 -1.218116 1
1.520532 0.505857 -1.358216 1
1.601799 0.509820 -1.243249 1
1.459795 0.510147 -1.272227 1
1.586166 0.514963 -1.346863 1
1.542435 0.507069 -1.202115 1
1.481699 0.510593 -1.340381 1
1.617215 0.512316 -1.285678 1
1.477193 0.521727 -1.232175 1
1.548005 0.514596 -1.366126 1
1.587111 0.507810 -1.216903 1
1.455336 0.509054 -1.300990 1
1.608116 0.513714 -1.330112 1
1.512603 0.509658 -1.199320 1
1.500756 0.503664 -1.360892 1
1.617670 0.511637 -1.255748 1
1.455741 0.514933 -1.252918 1
1.576610 0.518909 -1.363522 1
1.562273 0.505268 -1.195759 1
1.462199 0.507597 -1.331074 1
1.623684 0.514996 -1.305063 1
1.484885 0.523877 -1.213009 1
1.528276 0.500265 -1.373845 1
1.606880 0.507391 -1.223958 1
1.442724 0.505420 -1.281352 1
1.603284 0.513455 -1.349505 1
1.529910 0.504342 -1.184928 1
1.478652 0.499108 -1.357404 1
1.630030 0.512360 -1.273024 1
1.459190 0.524630 -1.233508 1
1.561147 0.510038 -1.376760 1
1.584445 0.505078 -1.196424 1
1.443994 0.503472 -1.315497 1
1.624802 0.515024 -1.326047 1
1.497080 0.517815 -1.192698 1
1.424929 0.032165 -1.358926 1
1.624797 0.508963 -1.237786 1
1.437127 0.508603 -1.259253 1
1.592858 0.518129 -1.368111 1
1.552168 0.503826 -1.177830 1
1.637690 0.513705 -1.294165 1
1.466789 0.526300 -1.211767 1
1.488477 0.031792 -1.376164 1
1.606871 0.503998 -1.203404 1
1.429827 0.502095 -1.294850 1
1.620281 0.512968 -1.347421 1
1.514851 0.509499 -1.174821 1
1.379545 0.024847 -1.354166 1
1.638961 0.514472 -1.257829 1
1.440294 0.520412 -1.237705 1
1.576142 0.491360 -1.383063 1
1.529147 0.511348 -1.279554 1
1.520997 0.510150 -1.271487 1
1.530970 0.516412 -1.296014 1
1.540619 0.509946 -1.264415 1
1.508191 0.514603 -1.283324 1
1.549044 0.508292 -1.292807 1
1.522549 0.512470 -1.253195 1
1.517020 0.519600 -1.306217 1
1.557671 0.506483 -1.268771 1
1.498746 0.511211 -1.265616 1
1.543602 0.515452 -1.311834 1
1.540070 0.508539 -1.243842 1
1.497375 0.516410 -1.298468 1
1.566529 0.505666 -1.288222 1
1.505851 0.512633 -1.244633 1
1.524995 0.522602 -1.322676 1
1.562344 0.505185 -1.250565 1
1.483791 0.510824 -1.275868 1
1.560878 0.511855 -1.313140 1
1.527369 0.511464 -1.230523 1
1.499780 0.521312 -1.317522 1
1.577815 0.503342 -1.272822 1
1.487426 0.514985 -1.248803 1
1.540992 0.521992 -1.331723 1
1.556122 0.508290 -1.232126 1
1.477527 0.513852 -1.294983 1
1.577997 0.506618 -1.303632 1
1.507827 0.514724 -1.225543 1
1.510740 0.518659 -1.333721 1
1.580912 0.505050 -1.252158 1
1.470658 0.511611 -1.261749 1
1.560838 0.516517 -1.331588 1
1.539902 0.507105 -1.215628 1
1.480623 0.515752 -1.317073 1
1.591092 0.506248 -1.285997 1
1.486492 0.520156 -1.231357 1
1.529594 0.516983 -1.344597 1
1.574145 0.505402 -1.229188 1
1.460954 0.509172 -1.282962 1
1.581269 0.511905 -1.322008 1
1.517680 0.515218 -1.209705 1
1.492451 0.513009 -1.337299 1
1.596601 0.508044 -1.262467 1
1.466249 0.519365 -1.245504 1
1.553516 0.520349 -1.347672 1
1.557230 0.503141 -1.207714 1
1.461487 0.509037 -1.308860 1
1.598306 0.509317 -1.303461 1
1.492160 0.520520 -1.213019 1
1.513024 0.511914 -1.352593 1
1.592318 0.509066 -1.235878 1
1.449979 0.509443 -1.266222 1
1.577754 0.515828 -1.340276 1
1.532147 0.505355 -1.194560 1
1.471880 0.505950 -1.334077 1
1.608230 0.510618 -1.278194 1
1.468007 0.524808 -1.227080 1
1.539570 0.513169 -1.359728 1
1.577214 0.504388 -1.208531 1
1.444809 0.504743 -1.294496 1
1.599520 0.513289 -1.323140 1
1.503174 0.514156 -1.194386 1
1.491240 0.498358 -1.354540 1
1.608377 0.510638 -1.248257 1
1.445927 0.515049 -1.247085 1
1.568419 0.520203 -1.357078 1
1.552307 0.506777 -1.189245 1
1.451954 0.502700 -1.324788 1
1.615024 0.510733 -1.297172 1
1.474945 0.524685 -1.207026 1
1.519743 0.498663 -1.367548 1
1.597214 0.506945 -1.216520 1
1.431724 0.500900 -1.274652 1
1.594871 0.514337 -1.342750 1
1.520203 0.508736 -1.179799 1
1.620934 0.511556 -1.265576 1
1.449278 0.525001 -1.227686 1
1.553031 0.510869 -1.370350 1
1.574514 0.507132 -1.189953 1
1.432973 0.497460 -1.308972 1
1.616273 0.512695 -1.318644 1
1.487878 0.523199 -1.188333 1
1.412871 0.027622 -1.349921 1
1.615348 0.507811 -1.230066 1
1.427134 0.508295 -1.253451 1
1.584677 0.519461 -1.361504 1
1.541736 0.502728 -1.170213 1
1.628826 0.512757 -1.286721 1
1.457220 0.528720 -1.206537 1
1.477707 0.033275 -1.366813 1
1.596984 0.503907 -1.195957 1
1.418731 0.497316 -1.288371 1
1.611822 0.513771 -1.340498 1
1.505458 0.515820 -1.170705 1
1.368601 0.027035 -1.345844 1
1.629762 0.513610 -1.250231 1
1.429930 0.519555 -1.231638 1
1.568262 0.498056 -1.376567 1
1.520474 0.513747 -1.272479 1
1.512238 0.512531 -1.264461 1
1.522382 0.517915 -1.288790 1
1.531891 0.513484 -1.257526 1
1.498658 0.511618 -1.275245 1
1.540456 0.510665 -1.285529 1
1.513661 0.515229 -1.246271 1
1.508323 0.519629 -1.298883 1
1.548853 0.509375 -1.261539 1
1.489756 0.512616 -1.258525 1
1.535177 0.517004 -1.304515 1
1.531186 0.512647 -1.237140 1
1.488152 0.514620 -1.290883 1
1.557832 0.507844 -1.280735 1
1.497165 0.516917 -1.238292 1
1.516407 0.521888 -1.315246 1
1.553286 0.507548 -1.243142 1
1.474323 0.509655 -1.268312 1
1.552368 0.512540 -1.305495 1
1.518092 0.513260 -1.223222 1
1.490415 0.517473 -1.309773 1
1.568912 0.505021 -1.265100 1
1.478589 0.517968 -1.242244 1
1.532724 0.522746 -1.324383 1
1.546682 0.507988 -1.223907 1
1.467504 0.509480 -1.286998 1
1.569322 0.506026 -1.295541 1
1.498889 0.518743 -1.219153 1
1.502266 0.518362 -1.326483 1
1.571787 0.505919 -1.244169 1
1.461090 0.511051 -1.254356 1
1.552586 0.517830 -1.324098 1
1.530696 0.511043 -1.208896 1
1.470563 0.509900 -1.309121 1
1.582262 0.504325 -1.277423 1
1.477257 0.522095 -1.224499 1
1.521631 0.519272 -1.337487 1
1.564819 0.506920 -1.221377 1
1.450389 0.504145 -1.274777 1
1.572785 0.510499 -1.313888 1
1.507744 0.514209 -1.201409 1
1.482842 0.507403 -1.329550 1
1.587593 0.507149 -1.253949 1
1.456524 0.518915 -1.238122 1
1.545373 0.520705 -1.340179 1
1.547744 0.505632 -1.200289 1
1.450710 0.501986 -1.300694 1
1.589697 0.505944 -1.294707 1
1.483082 0.524153 -1.206676 1
1.504251 0.508697 -1.345069 1
1.583050 0.508532 -1.227335 1
1.438703 0.503192 -1.257564 1
1.569491 0.515291 -1.332414 1
1.522817 0.509942 -1.188126 1
1.461866 0.500093 -1.326379 1
1.599476 0.506854 -1.269024 1
1.458221 0.524835 -1.219743 1
1.531181 0.510709 -1.352090 1
1.567640 0.504973 -1.200278 1
1.433061 0.496010 -1.285852 1
1.591130 0.509603 -1.314542 1
1.494127 0.519385 -1.188516 1
1.481516 0.491505 -1.346806 1
1.599302 0.509396 -1.239473 1
1.435471 0.512573 -1.239245 1
1.560347 0.520021 -1.349416 1
1.542567 0.508293 -1.181454 1
1.441334 0.496151 -1.317009 1
1.606470 0.508093 -1.288372 1
1.465656 0.527531 -1.200551 1
1.511482 0.497842 -1.360109 1
1.587765 0.505805 -1.207577 1
1.419188 0.491342 -1.265471 1
1.586655 0.513426 -1.334688 1
1.511074 0.515235 -1.174306 1
1.458083 0.484484 -1.343350 1
1.612104 0.509662 -1.256651 1
1.438236 0.521130 -1.219181 1
1.545274 0.513629 -1.362929 1
1.564771 0.507821 -1.181676 1
1.421643 0.490291 -1.300957 1
1.607955 0.509472 -1.309926 1
1.478400 0.526191 -1.181759 1
1.487989 0.487647 -1.363441 1
1.606144 0.505827 -1.220826 1
1.413588 0.496855 -1.243297 1
1.576644 0.518519 -1.353638 1
1.532118 0.507498 -1.163779 1
1.620241 0.510702 -1.277863 1
1.446661 0.527052 -1.198502 1
1.525002 0.504136 -1.372817 1
1.587332 0.504537 -1.187500 1
1.603598 0.513744 -1.332376 1
1.496632 0.523678 -1.166045 1
1.620899 0.510913 -1.240895 1
1.416675 0.509700 -1.221358 1
1.561223 0.515052 -1.369484 1
1.512099 0.515410 -1.265003 1
1.503786 0.514318 -1.257052 1
1.513484 0.514439 -1.280287 1
1.523278 0.514420 -1.249732 1
1.489953 0.511471 -1.267503 1
1.532341 0.513698 -1.278178 1
1.504945 0.516453 -1.238670 1
1.499345 0.515844 -1.290561 1
1.540483 0.512574 -1.254178 1
1.480933 0.512973 -1.250897 1
1.527082 0.518066 -1.296884 1
1.522401 0.513939 -1.229370 1
1.479160 0.512389 -1.282910 1
1.549597 0.510815 -1.273211 1
1.488826 0.520731 -1.231593 1
1.508107 0.520790 -1.307489 1
1.544727 0.510932 -1.235795 1
1.465389 0.509387 -1.260676 1
1.544315 0.514194 -1.297788 1
1.509576 0.517485 -1.216478 1
1.481523 0.514545 -1.301853 1
1.560451 0.507424 -1.257336 1
1.469880 0.519723 -1.235073 1
1.524757 0.522929 -1.316729 1
1.537925 0.511056 -1.216515 1
1.458146 0.506739 -1.279009 1
1.561133 0.507942 -1.287680 1
1.490368 0.522650 -1.212501 1
1.493723 0.515738 -1.318670 1
1.563113 0.508003 -1.236287 1
1.452132 0.511575 -1.246958 1
1.544746 0.519481 -1.316439 1
1.522027 0.515704 -1.202211 1
1.461473 0.507090 -1.301319 1
1.573854 0.505364 -1.269238 1
1.468557 0.524667 -1.217587 1
1.513552 0.517992 -1.329762 1
1.555949 0.509214 -1.213582 1
1.440500 0.500673 -1.266587 1
1.564763 0.511742 -1.305929 1
1.499052 0.518523 -1.194801 1
1.474251 0.505382 -1.321912 1
1.578977 0.507534 -1.245508 1
1.447175 0.518618 -1.230479 1
1.537629 0.521425 -1.332497 1
1.538664 0.507891 -1.192539 1
1.441198 0.498795 -1.292841 1
1.581450 0.506034 -1.286326 1
1.473834 0.525073 -1.199077 1
1.496033 0.506964 -1.337394 1
1.574094 0.504846 -1.217493 1
1.428729 0.500610 -1.249474 1
1.561666 0.516365 -1.324513 1
1.514047 0.515227 -1.181761 1
1.453507 0.499909 -1.319075 1
1.591017 0.506908 -1.260468 1
1.448753 0.524753 -1.212059 1
1.523179 0.508805 -1.344225 1
1.558518 0.506554 -1.192128 1
1.423195 0.492927 -1.277956 1
1.583085 0.509171 -1.306159 1
1.485591 0.524832 -1.182521 1
1.474969 0.498800 -1.340014 1
1.590621 0.506082 -1.229782 1
1.425069 0.509336 -1.230832 1
1.552525 0.518106 -1.341363 1
1.532919 0.506640 -1.172090 1
1.431164 0.490385 -1.308979 1
1.598222 0.507412 -1.279694 1
1.456504 0.529321 -1.193400 1
1.503393 0.495982 -1.352349 1
1.578729 0.507383 -1.199318 1
1.409423 0.489851 -1.257801 1
1.578810 0.513166 -1.326464 1
1.502460 0.521814 -1.168663 1
1.451152 0.489657 -1.336517 1
1.603582 0.509522 -1.247915 1
1.427905 0.518739 -1.210810 1
1.537361 0.510503 -1.354946 1
1.555259 0.505548 -1.171903 1
1.414430 0.495402 -1.294711 1
1.599934 0.507893 -1.301194 1
1.469776 0.531063 -1.175720 1
1.479676 0.485408 -1.355793 1
1.597251 0.506369 -1.212130 1
1.403803 0.496199 -1.235741 1
1.568964 0.517509 -1.345529 1
1.523132 0.513566 -1.157712 1
1.611962 0.509841 -1.269004 1
1.436602 0.526047 -1.190375 1
1.516437 0.496751 -1.364812 1
1.578111 0.506663 -1.179370 1
1.400596 0.498506 -1.274750 1
1.595832 0.509666 -1.323528 1
1.487974 0.529666 -1.160368 1
1.612488 0.506406 -1.230709 1
1.405795 0.506425 -1.212808 1
1.553879 0.518045 -1.361744 1
1.505082 0.514703 -1.251830 1
1.497102 0.516507 -1.244623 1
1.506775 0.514712 -1.267460 1
1.516550 0.516653 -1.237137 1
1.482937 0.511448 -1.254628 1
1.525647 0.513603 -1.265101 1
1.498287 0.519962 -1.226566 1
1.492362 0.514210 -1.277542 1
1.533669 0.513262 -1.241026 1
1.474445 0.516623 -1.238988 1
1.520280 0.515623 -1.283599 1
1.515625 0.517414 -1.217051 1
1.471110 0.506873 -1.269053 1
1.543046 0.512277 -1.260292 1
1.481925 0.523285 -1.219336 1
1.500816 0.515552 -1.294019 1
1.537734 0.511398 -1.222358 1
1.458320 0.510075 -1.248070 1
1.537790 0.513247 -1.284613 1
1.502588 0.520360 -1.204034 1
1.473665 0.508727 -1.288294 1
1.553745 0.508458 -1.244077 1
1.462873 0.521799 -1.222805 1
1.518029 0.519561 -1.303609 1
1.530885 0.513268 -1.203536 1
1.450018 0.502417 -1.265427 1
1.554632 0.507706 -1.274344 1
1.482911 0.523396 -1.199475 1
1.486915 0.513605 -1.305887 1
1.556188 0.508144 -1.222579 1
1.444725 0.511830 -1.234240 1
1.538309 0.517320 -1.303301 1
1.514180 0.513001 -1.187437 1
1.453588 0.502473 -1.288014 1
1.567339 0.508504 -1.256442 1
1.461304 0.526545 -1.205201 1
1.507422 0.518662 -1.317333 1
1.548635 0.506963 -1.198851 1
1.432662 0.498810 -1.253446 1
1.558329 0.508874 -1.292291 1
1.492040 0.522661 -1.182787 1
1.467965 0.506274 -1.309576 1
1.572192 0.506707 -1.231488 1
1.439640 0.519231 -1.217846 1
1.531609 0.522426 -1.319993 1
1.530971 0.505776 -1.177607 1
1.433159 0.494982 -1.279592 1
1.575013 0.505369 -1.272707 1
1.466853 0.529011 -1.187293 1
1.490695 0.512052 -1.325443 1
1.567144 0.507974 -1.204482 1
1.421283 0.501147 -1.236860 1
1.555411 0.514093 -1.311258 1
1.506654 0.517801 -1.168857 1
1.446562 0.498562 -1.306467 1
1.584414 0.508792 -1.247223 1
1.440968 0.525233 -1.199253 1
1.518142 0.517228 -1.332397 1
1.551004 0.503822 -1.176792 1
1.415015 0.489998 -1.264729 1
1.576801 0.505797 -1.292257 1
1.478417 0.528743 -1.170535 1
1.468989 0.500230 -1.327676 1
1.583774 0.508008 -1.216354 1
1.417109 0.509046 -1.217931 1
1.546619 0.519586 -1.328761 1
1.525757 0.511949 -1.160009 1
1.424566 0.491236 -1.296661 1
1.591816 0.506966 -1.265966 1
1.448346 0.529042 -1.180061 1
1.498364 0.502642 -1.340196 1
1.571525 0.504799 -1.184038 1
1.403149 0.493960 -1.246150 1
1.572665 0.509862 -1.312904 1
1.495168 0.525905 -1.156492 1
1.445076 0.491035 -1.324198 1
1.597022 0.507289 -1.233370 1
1.419181 0.516768 -1.197157 1
1.531938 0.515826 -1.342652 1
1.547813 0.507368 -1.158149 1
1.593691 0.507879 -1.287704 1
1.462020 0.532853 -1.162955 1
1.475128 0.493389 -1.343707 1
1.590335 0.504945 -1.197340 1
1.399443 0.506617 -1.226080 1
1.562932 0.514901 -1.332382 1
1.515798 0.518319 -1.145489 1
1.605580 0.508729 -1.254956 1
1.427786 0.524325 -1.176493 1
1.511174 0.501672 -1.352346 1
1.570805 0.507648 -1.165210 1
1.589763 0.509047 -1.310133 1
1.480607 0.533779 -1.148370 1
1.605689 0.508206 -1.217097 1
1.400616 0.515238 -1.202965 1
1.548010 0.517311 -1.348983 1
1.501753 0.517264 -1.238735 1
1.493723 0.519118 -1.231575 1
1.503178 0.514650 -1.253785 1
1.512611 0.515273 -1.222742 1
1.480218 0.517095 -1.242419 1
1.522168 0.513952 -1.251396 1
1.494070 0.518348 -1.212086 1
1.488131 0.510438 -1.263183 1
1.530107 0.514062 -1.227191 1
1.471343 0.520815 -1.226496 1
1.516702 0.514257 -1.269731 1
1.511125 0.512923 -1.201314 1
1.467619 0.508008 -1.255716 1
1.539568 0.512118 -1.246310 1
1.478172 0.525101 -1.206052 1
1.496959 0.512731 -1.280068 1
1.533945 0.510780 -1.207824 1
1.455054 0.513084 -1.235224 1
1.534393 0.512534 -1.270768 1
1.497991 0.517195 -1.188608 1
1.469606 0.506313 -1.274374 1
1.550313 0.509862 -1.230264 1
1.458878 0.522679 -1.209304 1
1.514439 0.517091 -1.289818 1
1.526338 0.506861 -1.186676 1
1.446722 0.504656 -1.252359 1
1.551332 0.508250 -1.260515 1
1.478908 0.524774 -1.185833 1
1.482958 0.510388 -1.292047 1
1.552588 0.508548 -1.208242 1
1.441560 0.515689 -1.221687 1
1.534906 0.515118 -1.289417 1
1.510274 0.514714 -1.173472 1
1.449430 0.500312 -1.274137 1
1.563946 0.507765 -1.242089 1
1.456696 0.525603 -1.190911 1
1.503983 0.517113 -1.303861 1
1.544655 0.504372 -1.183134 1
1.429325 0.501346 -1.240417 1
1.555138 0.509289 -1.278558 1
1.487981 0.524262 -1.168986 1
1.464259 0.504822 -1.296034 1
1.568736 0.507758 -1.217345 1
1.435063 0.518572 -1.203835 1
1.527896 0.516523 -1.305862 1
1.527066 0.507464 -1.163320 1
1.428885 0.493229 -1.265682 1
1.571791 0.507371 -1.259064 1
1.462682 0.530462 -1.173708 1
1.487703 0.513205 -1.312358 1
1.563345 0.503105 -1.187966 1
1.418079 0.504686 -1.224137 1
1.552242 0.512980 -1.297492 1
1.502820 0.521152 -1.155506 1
1.442918 0.497924 -1.293004 1
1.581086 0.507763 -1.232608 1
1.435507 0.522092 -1.184106 1
1.515402 0.519934 -1.319471 1
1.547030 0.503018 -1.161339 1
1.411501 0.491602 -1.251455 1
1.573671 0.507068 -1.278546 1
1.474776 0.533159 -1.157999 1
1.466553 0.503952 -1.314808 1
1.580298 0.503580 -1.200168 1
1.412300 0.508130 -1.203787 1
1.543407 0.516980 -1.315072 1
1.521539 0.512119 -1.144946 1
1.421384 0.492823 -1.283506 1
1.588593 0.507823 -1.251959 1
1.443207 0.527477 -1.165196 1
1.496151 0.507996 -1.327359 1
1.567807 0.505463 -1.169204 1
1.399013 0.494361 -1.232557 1
1.569594 0.508747 -1.298995 1
1.491368 0.530121 -1.143624 1
1.443298 0.497098 -1.311585 1
1.593691 0.507401 -1.218846 1
1.413680 0.514377 -1.182250 1
1.529312 0.519427 -1.329709 1
1.543463 0.503139 -1.140897 1
1.590608 0.506999 -1.273490 1
1.456931 0.531566 -1.147874 1
1.473097 0.498654 -1.330779 1
1.586799 0.505208 -1.182434 1
1.391593 0.497133 -1.209363 1
1.559904 0.513352 -1.318693 1
1.511927 0.522563 -1.132303 1
1.418836 0.489690 -1.301796 1
1.602378 0.508995 -1.240672 1
1.422248 0.522271 -1.161389 1
1.509090 0.508123 -1.339432 1
1.566958 0.507220 -1.149685 1
1.586798 0.505658 -1.295739 1
1.476410 0.536427 -1.134864 1
1.447331 0.490477 -1.328549 1
1.602573 0.503027 -1.200567 1
1.391947 0.504311 -1.185083 1
1.545206 0.518844 -1.335787 1
1.500884 0.519077 -1.223183 1
1.492684 0.520195 -1.215793 1
1.502448 0.516926 -1.238408 1
1.511308 0.513924 -1.205968 1
1.479663 0.520604 -1.227426 1
1.521227 0.514296 -1.235433 1
1.492843 0.518770 -1.195860 1
1.487770 0.514512 -1.248239 1
1.529027 0.513341 -1.210622 1
1.470612 0.523835 -1.211369 1
1.515758 0.514223 -1.253858 1
1.510406 0.516744 -1.186056 1
1.467206 0.511583 -1.240624 1
1.538706 0.512640 -1.230277 1
1.477034 0.526685 -1.190331 1
1.495907 0.512170 -1.264177 1
1.532589 0.506927 -1.189811 1
1.454866 0.518002 -1.220597 1
1.533484 0.511938 -1.254708 1
1.497007 0.519655 -1.172843 1
1.468605 0.506553 -1.258539 1
1.549446 0.509958 -1.213870 1
1.457934 0.525186 -1.193946 1
1.513244 0.514596 -1.273684 1
1.525277 0.507581 -1.169947 1
1.446487 0.508717 -1.237359 1
1.550589 0.509262 -1.244637 1
1.478140 0.528752 -1.170844 1
1.481461 0.507322 -1.275764 1
1.551549 0.505648 -1.190493 1
1.440838 0.518668 -1.206482 1
1.533933 0.513199 -1.273318 1
1.509312 0.517513 -1.157609 1
1.448685 0.501721 -1.258481 1
1.563204 0.508586 -1.225967 1
1.455449 0.527349 -1.175148 1
1.502586 0.513387 -1.287700 1
1.543528 0.502298 -1.165164 1
1.429605 0.507236 -1.225879 1
1.554388 0.509160 -1.262574 1
1.487244 0.528902 -1.154118 1
1.462843 0.502618 -1.279886 1
1.567967 0.508066 -1.200784 1
1.434016 0.520823 -1.188314 1
1.527149 0.517015 -1.290369 1
1.526116 0.510046 -1.147071 1
1.428544 0.496213 -1.250246 1
1.571123 0.509734 -1.243458 1
1.461406 0.532531 -1.157951 1
1.486461 0.510929 -1.296480 1
1.562451 0.501156 -1.170069 1
1.417842 0.508994 -1.209201 1
1.551409 0.510852 -1.281373 1
1.501843 0.524618 -1.139885 1
1.441207 0.495008 -1.276603 1
1.580407 0.508240 -1.216251 1
1.434063 0.523444 -1.168093 1
1.514491 0.518944 -1.303923 1
1.545966 0.502334 -1.143508 1
1.411382 0.495460 -1.236203 1
1.573019 0.508021 -1.262718 1
1.473200 0.534060 -1.141510 1
1.465660 0.503674 -1.299100 1
1.579574 0.508238 -1.184856 1
1.411837 0.512150 -1.188752 1
1.542409 0.512923 -1.298941 1
1.520686 0.516477 -1.129408 1
1.419301 0.489284 -1.266811 1
1.587929 0.510130 -1.236272 1
1.441164 0.527041 -1.148208 1
1.496678 0.516225 -1.312773 1
1.566974 0.506101 -1.152059 1
1.398891 0.498513 -1.217425 1
1.568938 0.508494 -1.283112 1
1.490081 0.532396 -1.127480 1
1.442063 0.495598 -1.295583 1
1.593104 0.506880 -1.201967 1
1.412442 0.516535 -1.166455 1
1.528580 0.519389 -1.314309 1
1.542400 0.503765 -1.123309 1
1.399846 0.487986 -1.251283 1
1.589984 0.508474 -1.257711 1
1.454257 0.528600 -1.129362 1
1.473685 0.505374 -1.315821 1
1.586088 0.507391 -1.166049 1
1.559184 0.511748 -1.302857 1
1.510746 0.525067 -1.115918 1
1.418284 0.490963 -1.286070 1
1.601820 0.509296 -1.224329 1
1.420824 0.524374 -1.145453 1
1.509459 0.516212 -1.324672 1
1.566053 0.506461 -1.131610 1
1.586168 0.508388 -1.280283 1
1.473989 0.533842 -1.116226 1
1.447775 0.495356 -1.313267 1
1.601818 0.507717 -1.185206 1
1.544479 0.518131 -1.320306 1
1.501237 0.520763 -1.210154 1
1.492986 0.521726 -1.202696 1
1.502965 0.519458 -1.225664 1
1.511429 0.513794 -1.192109 1
1.480259 0.523582 -1.214866 1
1.521526 0.514956 -1.222078 1
1.493181 0.520819 -1.182785 1
1.488644 0.518793 -1.235957 1
1.529145 0.512121 -1.196414 1
1.470910 0.525565 -1.198397 1
1.516103 0.515087 -1.240681 1
1.510165 0.514191 -1.171085 1
1.468606 0.517915 -1.228882 1
1.538759 0.509154 -1.215611 1
1.476930 0.526741 -1.176604 1
1.496489 0.514504 -1.251378 1
1.532750 0.505922 -1.175317 1
1.455893 0.522602 -1.208518 1
1.533795 0.511944 -1.241269 1
1.497445 0.522761 -1.160036 1
1.469785 0.511515 -1.246286 1
1.549723 0.508717 -1.199621 1
1.458641 0.528999 -1.181673 1
1.513639 0.515586 -1.260641 1
1.525552 0.508680 -1.156058 1
1.448003 0.514728 -1.225511 1
1.551024 0.510663 -1.231434 1
1.478641 0.532300 -1.158392 1
1.482047 0.509204 -1.262821 1
1.551818 0.503865 -1.175677 1
1.441266 0.520884 -1.193605 1
1.534220 0.512631 -1.259903 1
1.509716 0.520604 -1.144635 1
1.450392 0.508219 -1.246523 1
1.563628 0.509029 -1.212336 1
1.456074 0.531118 -1.162825 1
1.502969 0.514044 -1.274635 1
1.543871 0.503119 -1.151001 1
1.431627 0.514684 -1.214495 1
1.554812 0.509850 -1.249287 1
1.487429 0.531019 -1.140897 1
1.463536 0.504675 -1.266922 1
1.568381 0.506772 -1.186297 1
1.434807 0.524655 -1.175991 1
1.527029 0.512204 -1.276367 1
1.526332 0.510989 -1.132890 1
1.430442 0.502724 -1.238257 1
1.571576 0.510584 -1.230085 1
1.460982 0.532133 -1.143730 1
1.486906 0.511771 -1.283448 1
1.562903 0.502669 -1.156194 1
1.418952 0.513216 -1.196881 1
1.551708 0.508695 -1.267653 1
1.502205 0.527904 -1.126992 1
1.442180 0.497889 -1.263690 1
1.580902 0.508308 -1.202388 1
1.434988 0.528121 -1.156091 1
1.514739 0.518330 -1.290797 1
1.546265 0.502530 -1.128797 1
1.412875 0.500262 -1.223821 1
1.573487 0.509287 -1.249530 1
1.473435 0.536838 -1.128590 1
1.466148 0.504472 -1.285963 1
1.580106 0.504177 -1.169078 1
1.413029 0.516890 -1.176654 1
1.542731 0.511949 -1.285616 1
1.521014 0.519285 -1.116023 1
1.420041 0.491107 -1.253591 1
1.588433 0.510714 -1.222762 1
1.441527 0.530096 -1.135425 1
1.497462 0.519213 -1.300153 1
1.567368 0.504403 -1.136641 1
1.399840 0.501715 -1.204633 1
1.569395 0.508889 -1.269850 1
1.489457 0.530268 -1.111844 1
1.442585 0.496366 -1.282316 1
1.593725 0.505511 -1.187419 1
1.413693 0.521870 -1.154639 1
1.528838 0.518330 -1.301176 1
1.542796 0.506350 -1.109515 1
1.400982 0.491126 -1.238342 1
1.590463 0.510055 -1.244566 1
1.454186 0.530225 -1.115697 1
1.474716 0.508798 -1.303079 1
1.586578 0.509853 -1.152582 1
1.392599 0.505788 -1.181883 1
1.559581 0.510900 -1.289549 1
1.511099 0.528689 -1.102977 1
1.417970 0.488830 -1.272194 1
1.602439 0.508850 -1.210377 1
1.421137 0.527206 -1.132539 1
1.510221 0.519323 -1.312028 1
1.566497 0.508749 -1.117754 1
1.586681 0.507960 -1.266829 1
1.472398 0.528049 -1.098438 1
1.449151 0.499475 -1.300469 1
1.602491 0.506949 -1.170646 1
1.391860 0.510912 -1.156857 1
1.544660 0.514651 -1.306881 1
1.500727 0.517325 -1.195216 1
1.492935 0.521889 -1.188897 1
1.502940 0.519149 -1.211884 1
1.511564 0.514797 -1.178384 1
1.480545 0.525702 -1.201844 1
1.521732 0.516055 -1.208615 1
1.493178 0.521536 -1.168988 1
1.489178 0.522050 -1.223257 1
1.528674 0.505330 -1.179949 1
1.471246 0.528160 -1.185496 1
1.516187 0.514920 -1.226996 1
1.510404 0.516364 -1.157648 1
1.469437 0.522371 -1.216522 1
1.538950 0.509330 -1.201719 1
1.477234 0.529537 -1.163678 1
1.496983 0.517377 -1.238523 1
1.532859 0.505676 -1.160828 1
1.456312 0.525284 -1.195659 1
1.534093 0.513575 -1.228007 1
1.497549 0.524460 -1.146451 1
1.470776 0.516490 -1.233929 1
1.549784 0.505215 -1.184306 1
1.458649 0.530380 -1.168275 1
1.513649 0.514604 -1.246922 1
1.525664 0.509278 -1.141735 1
1.448659 0.517980 -1.212760 1
1.551367 0.513228 -1.218359 1
1.478350 0.532332 -1.144215 1
1.482559 0.511675 -1.249811 1
1.551969 0.501754 -1.160425 1
1.441553 0.523139 -1.180516 1
1.534314 0.511363 -1.246061 1
1.509537 0.519987 -1.129797 1
1.451407 0.512661 -1.233988 1
1.563941 0.510431 -1.198783 1
1.455645 0.530958 -1.148632 1
1.503244 0.515112 -1.261420 1
1.543944 0.501184 -1.135431 1
1.432191 0.517540 -1.201610 1
1.555071 0.509920 -1.235628 1
1.487296 0.531907 -1.126871 1
1.464168 0.507348 -1.253897 1
1.568703 0.507172 -1.172145 1
1.434644 0.525541 -1.162313 1
1.527384 0.514050 -1.263271 1
1.526486 0.512410 -1.118708 1
1.432185 0.509461 -1.226267 1
1.571899 0.512530 -1.216813 1
1.460085 0.530080 -1.128406 1
1.487073 0.512000 -1.270078 1
1.563193 0.502130 -1.141269 1
1.418900 0.514122 -1.183241 1
1.551999 0.509482 -1.254249 1
1.502243 0.529660 -1.113170 1
1.443454 0.502843 -1.251059 1
1.581311 0.505931 -1.187464 1
1.434441 0.527956 -1.141801 1
1.514500 0.514811 -1.276906 1
1.546416 0.501852 -1.113435 1
1.414296 0.505508 -1.211444 1
1.573812 0.509129 -1.235797 1
1.471279 0.528330 -1.109757 1
1.466406 0.505075 -1.272568 1
1.580480 0.506030 -1.155275 1
1.413059 0.518429 -1.163155 1
1.542933 0.511412 -1.272101 1
1.521030 0.520083 -1.101441 1
1.421108 0.494820 -1.240608 1
1.588842 0.510153 -1.208693 1
1.439776 0.525571 -1.118761 1
1.497249 0.516747 -1.286544 1
1.567706 0.505642 -1.122273 1
1.400186 0.503652 -1.191240 1
1.569701 0.508399 -1.256186 1
1.489193 0.530717 -1.097203 1
1.442652 0.496104 -1.268640 1
1.594143 0.506660 -1.173509 1
1.412752 0.520694 -1.139834 1
1.528691 0.514340 -1.287326 1
1.542942 0.506552 -1.094346 1
1.401867 0.494155 -1.225203 1
1.590827 0.510811 -1.231030 1
1.452980 0.527507 -1.099502 1
1.475103 0.509928 -1.289870 1
1.587039 0.508540 -1.137329 1
1.392430 0.506574 -1.168000 1
1.559813 0.509195 -1.275836 1
1.510958 0.529144 -1.088153 1
1.418258 0.489491 -1.258546 1
1.602930 0.508600 -1.196242 1
1.418978 0.522263 -1.115611 1
1.510058 0.516482 -1.298468 1
1.566786 0.507839 -1.102142 1
1.587023 0.508955 -1.253439 1
1.471041 0.523698 -1.080923 1
1.449126 0.498571 -1.286822 1
1.602908 0.508906 -1.156911 1
1.390533 0.508816 -1.141586 1
1.544827 0.513293 -1.293406 1
1.502019 0.517155 -1.181868 1
1.493794 0.519286 -1.174666 1
1.504292 0.519313 -1.198813 1
1.513006 0.515508 -1.165174 1
1.482066 0.527371 -1.189276 1
1.522670 0.511255 -1.193905 1
1.494652 0.523009 -1.156081 1
1.490641 0.523136 -1.210574 1
1.530105 0.504912 -1.166221 1
1.472701 0.529682 -1.172811 1
1.517749 0.516442 -1.214370 1
1.512034 0.518814 -1.144995 1
1.471263 0.525394 -1.204392 1
1.540276 0.506671 -1.187527 1
1.478811 0.531867 -1.151190 1
1.498529 0.518793 -1.225941 1
1.534099 0.502396 -1.145737 1
1.458182 0.528546 -1.183602 1
1.535468 0.512437 -1.214633 1
1.499152 0.526960 -1.133855 1
1.472965 0.521172 -1.222183 1
1.551033 0.497859 -1.168141 1
1.459648 0.530119 -1.154769 1
1.515155 0.515561 -1.234230 1
1.527210 0.510514 -1.128340 1
1.450518 0.520881 -1.200513 1
1.552688 0.508117 -1.203709 1
1.479734 0.533826 -1.131251 1
1.484991 0.518050 -1.238353 1
1.553374 0.496741 -1.144598 1
1.443350 0.526070 -1.168257 1
1.535866 0.512577 -1.233393 1
1.511135 0.522380 -1.116968 1
1.453329 0.515627 -1.221715 1
1.565522 0.509210 -1.185049 1
1.457128 0.533023 -1.135946 1
1.504797 0.516411 -1.248859 1
1.545372 0.498574 -1.120150 1
1.434167 0.520804 -1.189446 1
1.556650 0.511197 -1.222923 1
1.488697 0.533505 -1.113788 1
1.465960 0.509666 -1.241414 1
1.570333 0.502773 -1.156837 1
1.436639 0.529345 -1.150373 1
1.528887 0.514806 -1.250602 1
1.527960 0.512934 -1.104769 1
1.434760 0.514667 -1.214559 1
1.573506 0.508558 -1.202479 1
1.461125 0.530322 -1.114656 1
1.488475 0.512220 -1.257274 1
1.564889 0.503544 -1.127859 1
1.420902 0.517488 -1.171017 1
1.553552 0.510435 -1.241538 1
