ply
format ascii 1.0
element vertex 1595
property float x
property float y
property float z
property uchar label
end_header
-1.164292 0.066602 1.390988 0
-1.168915 0.846327 1.898241 0
-0.773957 0.499983 1.438454 0
-1.430977 0.069322 1.238409 0
-1.014708 0.595488 2.038906 0
-0.904111 0.261693 1.348790 0
-1.931955 0.058418 1.282153 0
-0.772128 0.529893 1.636715 0
-1.205986 0.048071 1.255554 0
-0.757366 0.395413 1.395035 0
-1.573239 0.059867 1.154150 0
-0.854411 0.565406 1.931986 0
-1.012360 0.049935 1.343045 0
-1.147734 0.992877 1.874566 0
-0.691859 0.494243 1.514839 0
-1.278142 0.064216 1.129015 0
-0.799523 0.223854 1.381171 0
-1.774994 0.061815 1.104802 0
-0.731642 0.517264 1.806029 0
-1.057385 0.047527 1.198992 0
-0.692450 0.329366 1.514065 0
-1.424374 0.050840 1.045491 0
-0.887690 0.549416 2.247030 0
-0.873316 0.062916 1.329809 0
-1.153038 1.116267 1.822979 0
-2.069796 0.058346 1.106661 0
-0.631652 0.503854 1.613739 0
-1.150523 0.037601 1.081324 0
-0.732551 0.122368 1.506969 0
-1.622925 0.047346 0.987724 0
-0.711229 0.532058 1.991759 0
-0.934581 0.030164 1.194301 0
-0.637749 0.265740 1.678539 0
-1.279036 0.042064 0.980812 0
-0.962712 0.562167 2.623973 0
-0.760744 0.060290 1.363587 0
-1.407885 0.416204 1.642485 0
-1.615419 0.364945 1.753287 0
-1.397437 0.265078 1.645216 0
-1.366879 0.532542 1.738697 0
-1.910616 0.087739 1.827316 0
-1.108556 0.474044 1.536514 0
-1.685035 0.500512 1.843967 0
-1.580281 0.067941 1.633301 0
-1.200030 0.545377 1.751335 0
-1.104296 0.353763 1.469850 0
-1.597805 0.564590 1.997872 0
-1.802771 0.068466 1.578342 0
-0.993455 0.542181 1.579046 0
-1.359490 0.072518 1.515547 0
-1.207392 0.672266 1.805415 0
-0.926638 0.461265 1.431509 0
-1.584793 0.057023 1.414171 0
-1.032413 0.562857 1.774277 0
-1.162962 0.098034 1.508964 0
-1.228724 0.828674 1.736197 0
-1.987126 0.063964 1.476353 0
-0.859028 0.520163 1.517205 0
-1.358368 0.049309 1.348689 0
-1.221215 0.560714 2.114919 0
-0.873888 0.385017 1.366924 0
-1.703471 0.050448 1.300043 0
-0.888552 0.544428 1.722396 0
-1.153395 0.055685 1.367437 0
-1.181678 0.819675 1.895681 0
-0.768630 0.493878 1.417221 0
-1.421312 0.051868 1.216279 0
-1.007375 0.587060 1.998295 0
-0.940661 0.167853 1.392706 0
-1.899004 0.053540 1.245306 0
-0.763031 0.532649 1.599216 0
-1.189700 0.043661 1.229180 0
-0.764328 0.360155 1.401461 0
-1.554652 0.049772 1.127087 0
-0.851023 0.556781 1.900225 0
-1.000539 0.043654 1.319349 0
-1.176880 0.960908 1.897943 0
-2.188780 0.057037 1.255399 0
-0.694825 0.472069 1.512302 0
-1.270720 0.045400 1.110165 0
-1.162777 0.506306 2.547729 0
-0.801922 0.192991 1.379206 0
-1.757309 0.047167 1.077731 0
-0.719742 0.529850 1.748875 0
-1.052692 0.026065 1.184155 0
-0.704618 0.274320 1.540528 0
-1.410878 0.037518 1.022777 0
-0.866529 0.566646 2.150120 0
-0.862506 0.058505 1.307226 0
-1.164826 1.093203 1.817179 0
-2.045794 0.043827 1.075703 0
-0.629754 0.496584 1.593466 0
-1.134148 0.033877 1.057755 0
-0.716861 0.142954 1.464357 0
-1.602049 0.038506 0.961489 0
-0.716373 0.511262 1.984394 0
-0.921637 0.026792 1.171934 0
-0.655480 0.182324 1.737988 0
-1.262403 0.035263 0.958017 0
-0.919564 0.601956 2.437995 0
-0.751648 0.055283 1.342627 0
-1.396434 0.401037 1.603918 0
-1.750710 0.231183 1.851098 0
-1.477102 0.156795 1.700560 0
-1.383321 0.494669 1.730180 0
-1.895504 0.066494 1.780784 0
-1.109550 0.451952 1.514504 0
-1.820523 0.384627 1.943384 0
-1.541048 0.078984 1.569315 0
-1.206437 0.516863 1.733082 0
-1.093221 0.346182 1.433906 0
-1.552103 0.564236 1.912987 0
-1.735118 0.096823 1.499196 0
-0.986729 0.531450 1.544914 0
-1.347772 0.059541 1.477943 0
-1.248396 0.617431 1.836372 0
-0.916361 0.457889 1.395474 0
-1.527378 0.087808 1.345649 0
-1.035189 0.539791 1.751411 0
-1.165882 0.067527 1.488331 0
-1.941357 0.067620 1.417589 0
-0.848817 0.519196 1.476211 0
-1.325377 0.063745 1.296991 0
-1.186777 0.567247 2.019003 0
-0.873689 0.365766 1.347633 0
-1.647984 0.074059 1.239850 0
-0.872968 0.549858 1.662170 0
-1.143530 0.044412 1.334409 0
-1.171629 0.802883 1.849068 0
-0.772018 0.470758 1.404716 0
-1.389626 0.062180 1.170497 0
-0.986720 0.590649 1.919679 0
-0.954152 0.117256 1.391805 0
-1.857232 0.057950 1.195040 0
-0.751490 0.539686 1.546322 0
-1.167585 0.050225 1.188200 0
-0.780954 0.302752 1.416737 0
-1.511783 0.067666 1.078868 0
-0.854406 0.535445 1.875710 0
-0.991894 0.033339 1.288674 0
-1.180056 0.935481 1.872060 0
-2.158512 0.045723 1.209206 0
-0.699269 0.446424 1.502768 0
-1.254541 0.040569 1.076139 0
-1.075592 0.571171 2.290090 0
-0.828001 0.104543 1.408719 0
-1.736391 0.037504 1.039835 0
-0.716572 0.523672 1.708638 0
-1.036651 0.027589 1.148636 0
-0.739121 0.154903 1.614123 0
-1.377944 0.050265 0.981871 0
-0.860480 0.559183 2.089074 0
-0.858538 0.040390 1.283548 0
-1.176834 1.065241 1.806416 0
-2.018532 0.034156 1.034050 0
-0.632140 0.478032 1.576331 0
-1.115363 0.036915 1.023157 0
-0.726331 0.088624 1.470416 0
-1.572334 0.041504 0.923095 0
-0.705115 0.524581 1.901444 0
-0.912451 0.018225 1.143291 0
-0.663151 0.136980 1.742016 0
-1.249076 0.026495 0.927533 0
-0.939509 0.558009 2.447175 0
-0.744198 0.049519 1.312638 0
-1.611526 0.206112 1.804904 0
-1.845147 0.150111 1.918844 0
-1.506501 0.121284 1.712833 0
-1.389687 0.484793 1.719311 0
-1.879980 0.071173 1.748364 0
-1.114129 0.444321 1.505073 0
-1.847019 0.359771 1.947282 0
-1.512992 0.102350 1.528446 0
-1.213074 0.507552 1.723667 0
-1.105090 0.328236 1.434039 0
-1.590697 0.533300 1.936051 0
-1.739446 0.085562 1.485176 0
-0.993080 0.522673 1.538471 0
-1.326931 0.081011 1.443293 0
-1.256088 0.607545 1.827025 0
-2.105237 0.110558 1.611790 0
-0.925528 0.443572 1.395292 0
-1.981920 0.506785 2.159387 0
-1.530524 0.077984 1.332917 0
-1.041981 0.531165 1.743111 0
-1.157874 0.076578 1.464405 0
-1.800612 0.460079 2.444035 0
-1.878750 0.108579 1.365395 0
-0.854955 0.510482 1.471437 0
-1.327360 0.055696 1.285020 0
-1.158314 0.590454 1.945178 0
-0.876327 0.360883 1.338615 0
-1.649902 0.064705 1.225892 0
-0.893163 0.521965 1.684237 0
-1.131091 0.060288 1.309011 0
-1.186679 0.789044 1.851252 0
-2.219805 0.057610 1.399605 0
-0.772819 0.471394 1.391107 0
-1.391539 0.053448 1.158568 0
-0.995529 0.580738 1.913300 0
-0.961531 0.101339 1.388907 0
-1.809542 0.089558 1.158068 0
-0.760757 0.525816 1.549224 0
-1.168925 0.043028 1.177356 0
-1.401742 0.508548 2.549081 0
-0.786376 0.292475 1.412780 0
-1.513821 0.058154 1.066362 0
-0.857744 0.533623 1.857498 0
-0.986620 0.040698 1.270611 0
-1.188863 0.925863 1.863858 0
-2.080673 0.091122 1.162144 0
-0.696639 0.458215 1.476588 0
-1.241745 0.052376 1.056657 0
-1.079967 0.566493 2.267017 0
-0.836599 0.083788 1.410460 0
-1.724826 0.039810 1.020711 0
-0.712532 0.538713 1.670130 0
-1.032453 0.030711 1.133993 0
-2.494833 0.076472 1.250930 0
-0.726178 0.198467 1.559883 0
-1.378738 0.042094 0.969924 0
-0.859473 0.564791 2.052068 0
-0.857901 0.040274 1.271106 0
-1.190176 1.054372 1.805552 0
-2.005477 0.034695 1.013342 0
-0.636672 0.474361 1.567323 0
-1.114951 0.031572 1.012216 0
-1.240373 0.569376 2.720469 0
-0.726819 0.090997 1.455945 0
-1.567418 0.038545 0.907995 0
-0.706640 0.530244 1.872288 0
-0.909212 0.021603 1.129632 0
-2.354245 0.057965 1.054850 0
-0.667187 0.134186 1.730266 0
-1.240340 0.031906 0.912374 0
-0.910605 0.598602 2.312914 0
-0.745137 0.047137 1.302431 0
-1.694551 0.131629 1.865195 0
-1.905669 0.100315 1.949764 0
-1.498559 0.129122 1.684168 0
-1.402003 0.474126 1.712004 0
-1.876637 0.070794 1.723340 0
-1.129372 0.428176 1.506583 0
-1.906570 0.318268 1.977755 0
-1.543314 0.068985 1.535930 0
-1.211222 0.510346 1.699406 0
-2.191064 0.095368 1.859455 0
-1.148371 0.273024 1.468861 0
-1.606836 0.520997 1.929152 0
-1.757367 0.066067 1.478450 0
-0.991146 0.527835 1.516440 0
-1.346377 0.055830 1.444844 0
-1.297330 0.575386 1.860861 0
-2.154010 0.071530 1.619199 0
-0.937608 0.428491 1.396977 0
-2.024079 0.481324 2.172192 0
-1.545396 0.059260 1.326694 0
-1.047474 0.528443 1.728753 0
-1.166937 0.064190 1.458493 0
-1.715619 0.509072 2.299966 0
-1.940622 0.054323 1.380042 0
-0.858006 0.510577 1.458125 0
-1.330440 0.049743 1.272813 0
-1.165688 0.586164 1.929935 0
-0.892518 0.335548 1.348023 0
-1.653159 0.057071 1.211435 0
-0.884603 0.540453 1.642069 0
-1.134724 0.054521 1.298694 0
-1.165070 0.802383 1.792287 0
-2.198157 0.065790 1.368202 0
-0.782614 0.458498 1.392709 0
-1.389224 0.052764 1.143313 0
-0.995977 0.585338 1.884356 0
-0.979143 0.070140 1.398172 0
-1.805107 0.087678 1.139230 0
-0.765065 0.526095 1.536016 0
-1.166632 0.044784 1.162995 0
-1.425801 0.492667 2.553196 0
-2.537746 0.096159 1.441125 0
-0.788495 0.294871 1.399567 0
-1.509190 0.058339 1.050051 0
-0.865744 0.530257 1.845759 0
-0.988172 0.038890 1.259511 0
-1.185182 0.925665 1.831835 0
-2.118566 0.057199 1.156737 0
-0.713543 0.428228 1.498139 0
-1.247444 0.040765 1.047933 0
-1.158403 0.492309 2.407958 0
-0.843544 0.072979 1.406744 0
-1.692987 0.063493 0.993760 0
-0.719376 0.536425 1.659941 0
-1.028800 0.036350 1.119470 0
-2.484980 0.074008 1.224894 0
-0.749228 0.145218 1.597239 0
-1.380295 0.035137 0.957929 0
-0.878581 0.547334 2.066521 0
-0.862098 0.033249 1.264340 0
-1.202444 1.046782 1.798607 0
-1.962315 0.061215 0.982922 0
-0.643515 0.470624 1.560665 0
-1.117831 0.023389 1.003194 0
-1.300653 0.524110 2.812795 0
-0.729123 0.094867 1.442567 0
-1.559925 0.040239 0.891684 0
-0.711550 0.535307 1.848405 0
-0.906644 0.027454 1.116281 0
-2.341963 0.057462 1.030749 0
-0.674893 0.128356 1.724577 0
-1.244967 0.020183 0.903070 0
-0.977695 0.524316 2.467476 0
-0.750495 0.037159 1.298654 0
-1.684816 0.119816 1.828282 0
-1.877581 0.099940 1.894869 0
-1.536826 0.070274 1.697808 0
-1.406058 0.454469 1.692750 0
-1.859892 0.062428 1.682983 0
-1.137405 0.405523 1.496717 0
-1.993855 0.238349 2.028052 0
-1.516211 0.078243 1.490092 0
-1.194935 0.511872 1.654635 0
-2.185914 0.073691 1.824938 0
-1.122980 0.291870 1.420176 0
-1.601909 0.505133 1.896252 0
-1.741240 0.059545 1.442906 0
-1.006275 0.497851 1.519544 0
-1.316928 0.075197 1.397263 0
-1.309662 0.550203 1.851771 0
-2.130526 0.063784 1.576238 0
-0.945454 0.405101 1.391027 0
-1.973866 0.483033 2.091416 0
-1.534948 0.050688 1.297669 0
-1.040723 0.524514 1.693546 0
-1.166950 0.047136 1.439110 0
-1.662557 0.520031 2.198654 0
-1.893825 0.069857 1.329373 0
-0.851433 0.511581 1.427903 0
-1.318625 0.046428 1.244164 0
-1.151325 0.585770 1.877800 0
-2.459486 0.086740 1.625985 0
-0.911332 0.289221 1.359707 0
-2.123051 0.514740 2.454659 0
-1.643395 0.046279 1.183578 0
-0.888417 0.525903 1.626932 0
-1.126288 0.050400 1.272693 0
-1.193985 0.769451 1.810516 0
-2.183305 0.052044 1.333272 0
-0.781287 0.452011 1.373228 0
-1.357131 0.073048 1.104621 0
-0.992046 0.579257 1.847863 0
-0.981342 0.049500 1.384192 0
-1.814833 0.058401 1.119225 0
-0.768064 0.513337 1.522003 0
-1.161834 0.033600 1.141674 0
-1.412036 0.485357 2.486981 0
-2.498249 0.092249 1.393595 0
-0.791124 0.277520 1.388546 0
-1.505951 0.042142 1.027471 0
-0.866337 0.521637 1.818197 0
-0.986662 0.023891 1.241906 0
-1.194436 0.905942 1.819235 0
-2.102260 0.046034 1.123918 0
-0.705764 0.439997 1.458622 0
-1.227991 0.049355 1.018442 0
-1.041026 0.600804 2.101895 0
-0.846075 0.051031 1.395574 0
-1.691479 0.044474 0.970282 0
-0.723166 0.523808 1.644969 0
-1.025872 0.022719 1.101101 0
-1.548507 0.582025 2.774848 0
-2.451416 0.068541 1.183699 0
-0.723314 0.209872 1.511109 0
-1.353805 0.048651 0.927142 0
-0.865608 0.559077 1.993317 0
-0.859597 0.021203 1.246630 0
-1.223035 1.023514 1.802510 0
-1.972808 0.031136 0.960211 0
-0.647451 0.455963 1.550372 0
-1.101515 0.031116 0.976309 0
-1.265868 0.537303 2.680156 0
-0.725022 0.093833 1.418000 0
-1.546075 0.034819 0.865724 0
-0.717737 0.519504 1.835632 0
-0.901850 0.018589 1.097180 0
-2.307618 0.055635 0.993198 0
-0.670220 0.138403 1.684855 0
-1.222744 0.032465 0.875284 0
-0.927332 0.579589 2.268426 0
-0.747751 0.027538 1.280818 0
-1.709431 0.091138 1.823725 0
-1.876686 0.092625 1.864203 0
-1.532381 0.069588 1.667805 0
-1.434475 0.426057 1.698538 0
-1.860179 0.053848 1.656040 0
-1.136480 0.404272 1.474292 0
-2.108826 0.152710 2.099144 0
-1.520819 0.067182 1.471010 0
-1.183145 0.520322 1.614740 0
-2.171618 0.072902 1.784262 0
-1.188133 0.203130 1.474145 0
-1.607660 0.494410 1.873631 0
-1.694759 0.093755 1.388920 0
-1.011202 0.491177 1.504576 0
-1.320124 0.066248 1.379551 0
-1.289129 0.562730 1.795553 0
-2.081043 0.088509 1.519624 0
-0.976992 0.356994 1.416304 0
-1.990066 0.464436 2.074047 0
-1.526049 0.053008 1.270913 0
-1.032611 0.533507 1.653675 0
-1.171022 0.037908 1.423144 0
-1.637334 0.528135 2.132383 0
-1.886047 0.066759 1.301258 0
-0.859878 0.499941 1.421429 0
-1.310837 0.050691 1.219553 0
-1.154599 0.580816 1.852683 0
-2.423138 0.095697 1.576557 0
-0.916049 0.281013 1.347799 0
-2.149300 0.490792 2.443447 0
-1.625557 0.055485 1.153535 0
-0.893821 0.520579 1.610841 0
-1.127927 0.043691 1.256332 0
-1.196614 0.763272 1.785937 0
-2.150680 0.063672 1.292524 0
-0.789925 0.438222 1.369280 0
-1.359436 0.063122 1.087854 0
-1.000360 0.570755 1.832230 0
-0.988073 0.035184 1.374131 0
-1.813105 0.050335 1.096273 0
-0.768165 0.518342 1.496327 0
-1.159733 0.031224 1.123300 0
-1.329396 0.547045 2.293631 0
-2.450347 0.107152 1.345070 0
-0.795701 0.270485 1.377053 0
-1.498582 0.041882 1.005244 0
-0.866731 0.525896 1.784715 0
-0.986696 0.020820 1.225216 0
-1.200587 0.896972 1.799537 0
-2.085815 0.047066 1.093486 0
-0.717415 0.419309 1.462926 0
-1.229297 0.040364 1.002706 0
-1.052169 0.590138 2.086218 0
-0.847042 0.050502 1.377864 0
-1.679025 0.046874 0.945637 0
-0.729102 0.520060 1.629017 0
-1.022045 0.024797 1.082541 0
-1.579908 0.556084 2.780630 0
-2.434573 0.066039 1.150282 0
-0.708687 0.260528 1.448888 0
-1.348928 0.046514 0.907979 0
-0.865747 0.564723 1.951328 0
-0.858288 0.023275 1.228568 0
-1.226808 1.014665 1.779620 0
-1.968906 0.023467 0.935906 0
-0.654128 0.449413 1.540094 0
-1.101660 0.023829 0.961298 0
-1.284854 0.519952 2.668030 0
-0.729190 0.086787 1.406329 0
-1.523254 0.050017 0.840369 0
-0.723009 0.519974 1.810223 0
-0.902457 0.012830 1.083452 0
-2.294024 0.052392 0.963635 0
-0.683564 0.107333 1.695963 0
-1.227774 0.016640 0.861394 0
-0.939299 0.569775 2.250560 0
-0.749503 0.023771 1.267127 0
-1.716062 0.096229 1.796443 0
-1.854837 0.119825 1.811057 0
-1.537525 0.076266 1.642369 0
-1.409519 0.455183 1.641915 0
-1.813979 0.101352 1.591510 0
-1.158070 0.390845 1.473629 0
-2.171388 0.120043 2.114879 0
-1.511316 0.087792 1.437184 0
-1.195293 0.518703 1.600903 0
-2.167386 0.083386 1.747452 0
-1.285991 0.088320 1.556043 0
-1.647048 0.475877 1.881351 0
-1.726909 0.072760 1.383688 0
-1.019005 0.494145 1.487599 0
-1.320907 0.077398 1.355981 0
-1.343024 0.528678 1.833240 0
-2.113709 0.072030 1.508448 0
-0.990399 0.351762 1.408583 0
-2.078460 0.424220 2.118208 0
-1.517383 0.071170 1.242553 0
-1.066090 0.508382 1.674490 0
-1.169147 0.056462 1.395517 0
-1.648867 0.528595 2.106479 0
-1.856071 0.097692 1.260847 0
-0.880576 0.483127 1.428220 0
-1.314443 0.056679 1.200885 0
-1.148647 0.597138 1.805766 0
-2.481465 0.066818 1.572932 0
-0.946021 0.244591 1.364931 0
-2.120068 0.509817 2.367435 0
-1.629925 0.058347 1.133681 0
-0.900441 0.527474 1.588413 0
-1.130391 0.053894 1.236845 0
-1.210698 0.760599 1.772626 0
-2.150539 0.069207 1.264989 0
-0.801066 0.435678 1.361279 0
-1.366056 0.063575 1.072128 0
-1.017249 0.566021 1.824143 0
-1.002386 0.026926 1.366910 0
-1.792509 0.073894 1.065591 0
-0.778805 0.518791 1.484705 0
-1.162416 0.038893 1.106135 0
-1.354889 0.538699 2.288410 0
-2.482864 0.092898 1.327127 0
-0.816273 0.246887 1.385637 0
-1.496055 0.051525 0.984847 0
-0.872254 0.537109 1.752813 0
-0.987564 0.036561 1.204595 0
-1.214971 0.893946 1.786822 0
-2.085477 0.052065 1.068245 0
-0.724337 0.428751 1.442911 0
-1.240161 0.033965 0.991063 0
-1.058164 0.598671 2.048733 0
-0.857840 0.049509 1.367310 0
-1.666985 0.063684 0.921614 0
-0.738249 0.526309 1.608799 0
-1.028018 0.027465 1.069289 0
-1.579447 0.566499 2.717555 0
-2.446095 0.063135 1.124955 0
-0.718155 0.265129 1.434888 0
-1.361766 0.037222 0.895700 0
-0.879522 0.565577 1.933672 0
-0.866379 0.025498 1.216517 0
-1.266100 1.002680 1.802132 0
-1.925793 0.062237 0.902298 0
-0.677362 0.418680 1.565655 0
-1.109717 0.020655 0.949719 0
-1.320925 0.504812 2.679957 0
-0.740550 0.085264 1.397317 0
-1.532897 0.044822 0.824896 0
-0.724414 0.545540 1.756431 0
-0.909905 0.013091 1.072444 0
-2.293212 0.056519 0.937307 0
-0.700541 0.096402 1.695480 0
-1.235005 0.013656 0.848378 0
-0.945654 0.582296 2.202051 0
-0.760128 0.020416 1.259192 0
-1.708925 0.105819 1.753757 0
-1.918834 0.070645 1.827951 0
-1.518170 0.100977 1.591607 0
-1.504291 0.380088 1.708503 0
-1.829680 0.089812 1.569885 0
-1.106965 0.454338 1.386765 0
-2.165128 0.124280 2.066363 0
-1.537581 0.063553 1.428406 0
-1.230109 0.489654 1.613385 0
-2.191604 0.066614 1.726197 0
-1.308888 0.065754 1.549598 0
-1.639962 0.480717 1.837796 0
-1.714843 0.085181 1.346910 0
-1.042277 0.472202 1.490972 0
-1.350684 0.044739 1.354003 0
-1.342869 0.531363 1.796869 0
-2.039373 0.124269 1.434186 0
-1.016807 0.320866 1.416352 0
-2.078152 0.422268 2.076266 0
-1.542293 0.046993 1.231422 0
-1.075462 0.504457 1.654452 0
-1.185567 0.039528 1.384853 0
-1.599560 0.558612 2.006181 0
-1.913668 0.051047 1.259625 0
-0.884779 0.486162 1.405622 0
-1.325132 0.046857 1.183843 0
-1.178591 0.574441 1.815084 0
-2.477701 0.067068 1.533782 0
-1.018334 0.126985 1.436821 0
-2.039201 0.543851 2.238427 0
-1.646116 0.043439 1.115470 0
-0.901831 0.535266 1.555865 0
-1.143167 0.040399 1.223914 0
-1.269892 0.722620 1.821613 0
-2.114573 0.093112 1.219100 0
-0.811268 0.428513 1.350528 0
-1.383749 0.044279 1.058528 0
-1.023375 0.566800 1.794400 0
-1.007299 0.029263 1.345290 0
-1.835655 0.036415 1.054915 0
-0.785179 0.520549 1.463502 0
-1.168346 0.034732 1.088086 0
-1.215643 0.650157 1.999797 0
-2.491260 0.085725 1.295296 0
-0.817191 0.260472 1.356962 0
-1.495239 0.053406 0.961340 0
-0.897876 0.511732 1.767104 0
-0.995479 0.030507 1.189132 0
-1.227257 0.886221 1.769697 0
-2.095523 0.043427 1.041923 0
-0.738790 0.413298 1.441099 0
-1.247679 0.026186 0.973745 0
-1.101239 0.562558 2.088758 0
-0.862198 0.055633 1.344848 0
-1.687188 0.044152 0.903305 0
-0.742968 0.534134 1.577597 0
-1.030535 0.029506 1.050210 0
-1.578196 0.568090 2.653430 0
-2.381618 0.099601 1.073835 0
-0.732390 0.247941 1.432359 0
-1.375597 0.020939 0.879395 0
-0.886242 0.569139 1.898049 0
-0.870574 0.028820 1.197351 0
-1.959437 0.034077 0.883382 0
-0.684920 0.422982 1.542059 0
-1.115525 0.014779 0.933133 0
-1.324229 0.508310 2.618407 0
-0.753762 0.068539 1.391765 0
-1.521639 0.056726 0.799707 0
-0.736352 0.541557 1.739383 0
-0.913413 0.014533 1.054862 0
-1.164564 0.958047 1.888612 0
-2.290082 0.056382 0.905978 0
-0.711726 0.094734 1.677157 0
-1.226558 0.027716 0.825519 0
-0.992547 0.537519 2.264935 0
-0.764424 0.026972 1.238972 0
-1.756215 0.056917 1.757511 0
-1.898381 0.078662 1.770562 0
-1.559447 0.052982 1.594438 0
-1.545530 0.340683 1.714512 0
-1.856741 0.059010 1.552689 0
-1.321953 0.206932 1.599584 0
-2.203712 0.087799 2.052166 0
-1.532426 0.063242 1.392967 0
-1.231618 0.485332 1.582426 0
-2.186508 0.059134 1.681717 0
-1.317903 0.051919 1.526539 0
-1.652574 0.464620 1.812136 0
-1.734944 0.059095 1.326793 0
-1.058600 0.452288 1.483070 0
-1.340088 0.054088 1.316294 0
-1.340801 0.528513 1.756888 0
-2.110648 0.063202 1.435731 0
-1.033306 0.297258 1.409488 0
-2.283356 0.302132 2.211781 0
-1.535194 0.047738 1.198157 0
-1.056351 0.525918 1.590323 0
-1.174898 0.054224 1.345417 0
-1.578469 0.563588 1.939520 0
-1.892978 0.058444 1.216843 0
-0.901051 0.463971 1.402887 0
-1.321775 0.045989 1.155157 0
-1.187809 0.563945 1.789796 0
-2.436098 0.078784 1.472819 0
-1.050970 0.071244 1.450932 0
-2.097529 0.503729 2.248544 0
-1.640719 0.040584 1.083889 0
-0.912129 0.524170 1.540305 0
-1.137260 0.047081 1.193311 0
-1.282793 0.708551 1.801132 0
-2.128900 0.072215 1.189631 0
-0.826354 0.404819 1.348831 0
-1.380025 0.042159 1.030870 0
-1.034962 0.555189 1.774303 0
-1.003212 0.038391 1.312997 0
-1.990819 0.567594 2.418787 0
-1.823315 0.037574 1.019650 0
-0.793326 0.512555 1.447161 0
-1.169263 0.028578 1.064865 0
-1.238442 0.628918 1.992168 0
-2.464126 0.088518 1.246018 0
-0.844816 0.204886 1.376657 0
-1.508405 0.030739 0.939928 0
-0.881940 0.540855 1.688250 0
-0.995215 0.029873 1.164933 0
-0.813410 1.088054 1.159122 0
-2.090232 0.036354 1.006453 0
-0.741910 0.416121 1.414466 0
-1.240904 0.029367 0.946779 0
-1.081168 0.583531 1.996102 0
-0.869171 0.043601 1.328220 0
-1.688423 0.033650 0.875234 0
-0.752795 0.525209 1.561755 0
-1.035281 0.016683 1.031766 0
-2.408141 0.045717 3.988710 0
-2.392992 0.080360 1.039636 0
-0.733053 0.257960 1.400656 0
-1.370073 0.019820 0.852885 0
-0.899970 0.556705 1.880351 0
-0.874296 0.021129 1.178491 0
-1.951664 0.029719 0.849973 0
-0.692187 0.419609 1.520893 0
-1.109598 0.018585 0.908168 0
-1.279140 0.543974 2.455022 0
-0.762459 0.052766 1.379292 0
-1.540188 0.027550 0.777956 0
-0.747813 0.532166 1.722002 0
-0.909795 0.020421 1.030417 0
-1.185206 0.940816 1.880420 0
-2.272636 0.055889 0.866997 0
-0.724464 0.075078 1.668539 0
-1.229453 0.015446 0.803952 0
-0.971934 0.568164 2.144650 0
-0.768634 0.019728 1.221190 0
-1.715848 0.096900 1.686448 0
-1.923302 0.061036 1.753192 0
-1.561523 0.055767 1.563923 0
-1.797777 0.138008 1.927104 0
-1.818148 0.092901 1.493680 0
-1.298027 0.241062 1.541749 0
-1.529659 0.069689 1.362568 0
-1.274023 0.450471 1.601355 0
-2.202464 0.047938 1.654117 0
-1.330816 0.042916 1.509307 0
-1.800636 0.368756 1.919723 0
-1.701705 0.090542 1.278946 0
-1.073372 0.442151 1.473321 0
-1.353128 0.042611 1.300574 0
-1.365630 0.512694 1.751768 0
-2.042501 0.111144 1.367575 0
-1.050795 0.280889 1.404172 0
-1.546956 0.037063 1.179198 0
-1.079821 0.507563 1.592108 0
-1.187904 0.042487 1.332112 0
-1.652516 0.519358 1.983855 0
-1.906727 0.046682 1.193848 0
-0.909540 0.461654 1.387489 0
-1.331368 0.037041 1.138069 0
-1.219121 0.541919 1.798064 0
-2.417032 0.087691 1.427354 0
-1.069981 0.050146 1.446478 0
-2.122346 0.490282 2.225966 0
-1.639380 0.042148 1.058051 0
-0.930018 0.510329 1.538013 0
-1.149514 0.033998 1.180832 0
-1.516761 0.557726 2.078068 0
-2.113149 0.081356 1.152696 0
-0.844322 0.384397 1.351123 0
-1.388048 0.033895 1.012623 0
-1.048401 0.549738 1.757675 0
-1.014840 0.027413 1.301345 0
-2.006096 0.559042 2.385128 0
-1.807777 0.049883 0.987880 0
-0.809198 0.498810 1.445902 0
-1.176805 0.021064 1.048979 0
-1.205588 0.659416 1.894555 0
-2.426799 0.107086 1.198438 0
-0.848458 0.213197 1.353750 0
-1.513341 0.025140 0.919038 0
-0.907174 0.518285 1.700043 0
-1.004248 0.020994 1.151995 0
-2.209295 0.383016 3.024789 0
-2.094331 0.030837 0.978036 0
-0.751741 0.412758 1.402189 0
-1.246674 0.022942 0.929553 0
-1.090390 0.583727 1.965069 0
-0.880926 0.031646 1.319030 0
-1.687755 0.032734 0.850874 0
-0.763939 0.522175 1.547856 0
-1.041227 0.011223 1.016731 0
-1.181610 0.808277 1.877994 0
-2.428425 0.055207 1.015320 0
-0.743439 0.252343 1.390056 0
-1.375896 0.012261 0.834230 0
-0.910954 0.556623 1.855252 0
-0.881545 0.016200 1.165105 0
-1.943831 0.033307 0.821301 0
-0.696188 0.434195 1.488741 0
-1.115077 0.011877 0.892631 0
-1.394594 0.457039 2.624135 0
-0.771275 0.049901 1.365581 0
-1.539539 0.026544 0.755820 0
-0.758407 0.533230 1.700303 0
-0.915363 0.015822 1.016678 0
-1.173448 0.945821 1.820832 0
-2.234763 0.077175 0.829634 0
-0.738545 0.065705 1.659637 0
-1.225611 0.021235 0.784106 0
-0.982665 0.569916 2.109245 0
-0.773645 0.023117 1.204619 0
-1.751211 0.066149 1.687018 0
-1.926284 0.058436 1.724543 0
-1.553551 0.066144 1.530012 0
-1.819863 0.120449 1.915190 0
-1.879104 0.041699 1.506543 0
-1.428633 0.096309 1.654753 0
-2.185505 0.098941 1.958633 0
-1.552203 0.047294 1.354330 0
-1.290818 0.436540 1.594599 0
-2.190176 0.054581 1.615627 0
-1.320310 0.060888 1.472854 0
-1.786137 0.376859 1.874038 0
-1.755782 0.041295 1.284908 0
-1.099966 0.414135 1.483503 0
-1.347833 0.052178 1.273782 0
-1.382903 0.499547 1.743676 0
-2.108133 0.062546 1.373017 0
-1.172602 0.107429 1.532035 0
-1.536131 0.049390 1.151019 0
-1.086484 0.503944 1.574716 0
-1.189729 0.044742 1.311000 0
-1.666628 0.508926 1.966903 0
-1.842262 0.098394 1.141553 0
-0.936029 0.427814 1.404200 0
-1.325866 0.046299 1.114043 0
-1.236107 0.528755 1.791799 0
-2.459284 0.059513 1.415416 0
-1.075647 0.048288 1.428277 0
-2.052539 0.518760 2.122934 0
-1.641221 0.040080 1.036958 0
-0.936842 0.507227 1.522110 0
-1.151999 0.034338 1.162462 0
-1.516022 0.557201 2.041941 0
-2.164711 0.043058 1.144943 0
-0.856451 0.370540 1.347247 0
-1.394299 0.027104 0.995831 0
-1.061707 0.539606 1.748635 0
-1.022160 0.021154 1.287276 0
-2.026376 0.544990 2.367999 0
-1.834477 0.025446 0.973655 0
-0.813081 0.501123 1.426149 0
-1.181168 0.017158 1.032902 0
-1.189081 0.672943 1.835285 0
-2.499678 0.061408 1.193202 0
-0.869538 0.178092 1.363784 0
-1.510632 0.027975 0.898107 0
-0.912988 0.517953 1.678251 0
-1.010245 0.015499 1.137980 0
-1.828622 0.571471 2.467291 0
-2.087224 0.034093 0.951162 0
-0.765453 0.394830 1.403710 0
-1.250410 0.018919 0.913152 0
-1.072100 0.605709 1.892108 0
-0.887917 0.026509 1.305517 0
-1.688745 0.030678 0.830073 0
-0.770248 0.521813 1.530003 0
-1.042899 0.012276 1.000079 0
-1.160475 0.820231 1.811555 0
-2.426048 0.053811 0.986865 0
-0.755693 0.235324 1.388274 0
-1.373071 0.015876 0.814896 0
-0.921341 0.550808 1.839566 0
-0.886167 0.014261 1.150434 0
-1.938900 0.035427 0.797282 0
-0.703436 0.432468 1.474193 0
-1.117667 0.009556 0.876965 0
-1.367454 0.481970 2.516971 0
-2.687329 0.179090 1.059669 0
-0.776189 0.052215 1.348071 0
-1.533026 0.032627 0.735130 0
-0.770897 0.522985 1.694636 0
-0.920041 0.011301 1.003336 0
-1.184564 0.937670 1.807658 0
-2.199173 0.098196 0.798538 0
-0.744738 0.071309 1.636101 0
-1.235546 0.006913 0.770144 0
-0.955118 0.609432 1.994339 0
-0.780013 0.017652 1.192649 0
-1.732517 0.073168 1.641658 0
-1.860627 0.100094 1.643330 0
-1.534579 0.077437 1.487744 0
-1.845495 0.089527 1.905440 0
-1.835991 0.066451 1.450174 0
-1.416512 0.103657 1.614499 0
-2.147382 0.111302 1.892691 0
-1.539982 0.050739 1.321417 0
-1.279280 0.441965 1.555378 0
-2.083395 0.115037 1.520343 0
-1.324654 0.048718 1.452915 0
-1.819664 0.344326 1.872481 0
-1.717426 0.065022 1.238449 0
-1.107565 0.401666 1.469444 0
-1.354662 0.035065 1.257026 0
-1.363952 0.508294 1.692104 0
-2.071691 0.075294 1.325743 0
-1.178015 0.095482 1.514131 0
-1.519700 0.056534 1.119676 0
-1.095533 0.491145 1.561439 0
-1.177365 0.056954 1.278459 0
-1.604290 0.538310 1.865142 0
-1.850422 0.079327 1.119260 0
-0.951573 0.403136 1.405225 0
-1.317519 0.047725 1.088717 0
-1.223988 0.535288 1.743623 0
-2.358986 0.104327 1.340017 0
-1.081030 0.035006 1.412815 0
-2.055037 0.504092 2.087293 0
-1.601864 0.067586 0.998160 0
-0.940060 0.502588 1.501823 0
-1.144034 0.039188 1.137160 0
-1.487552 0.568088 1.969179 0
-2.143074 0.044029 1.108390 0
-0.872007 0.341490 1.351517 0
-1.369556 0.046999 0.964230 0
-1.069775 0.529271 1.730955 0
-1.011544 0.036475 1.255817 0
-2.043109 0.523533 2.343430 0
-1.787026 0.054072 0.934218 0
-0.819897 0.491144 1.415094 0
-1.170242 0.024640 1.007917 0
-1.213715 0.649182 1.840333 0
-2.402867 0.102574 1.130702 0
-0.891812 0.128767 1.378938 0
-1.485315 0.044303 0.868528 0
-0.917675 0.513051 1.656315 0
-0.999125 0.030134 1.110266 0
-1.858994 0.544113 2.461097 0
-2.028317 0.063768 0.909032 0
-0.766331 0.396345 1.381900 0
-1.248260 0.010836 0.893687 0
-1.077685 0.598604 1.866182 0
-0.883103 0.035087 1.279536 0
-1.650040 0.055228 0.797948 0
-0.778530 0.510960 1.520258 0
-1.041079 0.006078 0.982299 0
-1.187622 0.797512 1.821150 0
-2.379635 0.066470 0.945218 0
-0.767154 0.208251 1.390132 0
-1.362600 0.016949 0.792090 0
-0.929332 0.542686 1.819801 0
-0.886456 0.007380 1.134444 0
-1.895728 0.056580 0.763898 0
-0.709715 0.424192 1.462412 0
-1.104254 0.021125 0.853827 0
-1.392627 0.457291 2.512921 0
-2.670221 0.170520 1.021915 0
-0.778453 0.046074 1.332427 0
-1.517592 0.036475 0.710780 0
-0.775465 0.521412 1.670187 0
-0.914698 0.014344 0.983699 0
-1.198831 0.923479 1.796453 0
-2.200632 0.082322 0.770117 0
-0.713659 0.177745 1.518960 0
-1.228517 0.004676 0.749912 0
-0.959854 0.605807 1.961718 0
-2.823912 0.367278 1.135478 0
-0.775046 0.028699 1.168708 0
-1.736731 0.061471 1.617535 0
-1.903175 0.056585 1.646561 0
-1.531638 0.074005 1.460703 0
-1.845533 0.080878 1.874103 0
-1.786950 0.099305 1.393545 0
-1.408160 0.108153 1.580236 0
-2.198657 0.065442 1.898984 0
-1.512955 0.072694 1.280248 0
-1.289096 0.427995 1.542571 0
-2.063575 0.118559 1.480712 0
-1.326550 0.041515 1.431416 0
-1.967773 0.235762 1.977525 0
-1.711739 0.061967 1.211806 0
-1.122494 0.380919 1.465779 0
-1.341508 0.046028 1.226133 0
-1.355030 0.509745 1.655902 0
-2.107008 0.039310 1.315112 0
-1.194585 0.068269 1.510192 0
-1.530201 0.037673 1.103658 0
-1.096521 0.487522 1.538751 0
-2.462725 0.127336 1.581241 0
-1.185904 0.039646 1.265904 0
-1.683114 0.480290 1.919989 0
-1.845718 0.074137 1.093399 0
-0.962524 0.385961 1.399847 0
-1.320076 0.037900 1.070632 0
-1.244213 0.512815 1.744277 0
-2.347529 0.099611 1.306175 0
-1.077568 0.039007 1.386632 0
-2.147796 0.446832 2.138390 0
-1.613828 0.047408 0.981307 0
-0.944763 0.495896 1.485827 0
-1.146464 0.030244 1.120352 0
-1.544577 0.522483 2.010035 0
-2.072308 0.084281 1.058839 0
-0.879284 0.328704 1.342382 0
-1.377611 0.029594 0.948397 0
-1.071074 0.525984 1.704704 0
-1.017318 0.022610 1.242884 0
-2.068520 0.498549 2.333013 0
-1.779042 0.052105 0.909051 0
-0.823470 0.486898 1.398964 0
-1.171481 0.016464 0.990700 0
-1.216485 0.642088 1.814843 0
-2.396929 0.094501 1.100325 0
-0.903300 0.104486 1.375710 0
-1.495156 0.025065 0.851469 0
-0.913418 0.520181 1.619313 0
-1.002237 0.019838 1.095628 0
-1.877981 0.522500 2.445096 0
-2.007691 0.069369 0.879397 0
-0.774341 0.382454 1.375647 0
-1.239750 0.015911 0.871975 0
-1.082398 0.591605 1.842602 0
-0.886785 0.025783 1.265345 0
-1.670320 0.026594 0.780864 0
-0.775612 0.520524 1.486258 0
-1.036357 0.009199 0.962353 0
-1.183394 0.794149 1.785328 0
-2.352911 0.071790 0.911621 0
-0.779078 0.181099 1.392081 0
-1.363812 0.007165 0.773455 0
-0.932871 0.539320 1.793707 0
-0.882688 0.013830 1.112975 0
-1.921760 0.025577 0.744348 0
-0.717442 0.412047 1.455321 0
-1.105190 0.012302 0.837585 0
-1.398337 0.447241 2.477290 0
-2.610868 0.187799 0.979119 0
-0.780085 0.044120 1.314644 0
-1.524769 0.019794 0.691709 0
-0.770740 0.535741 1.624256 0
-0.911557 0.016488 0.965413 0
-1.207464 0.911884 1.780877 0
-2.196786 0.074455 0.743426 0
-0.720274 0.166354 1.508543 0
-1.218680 0.011171 0.729585 0
-0.972722 0.591129 1.953220 0
-2.724743 0.392761 1.080516 0
-0.777400 0.021214 1.155011 0
-1.734026 0.061980 1.596150 0
-1.898379 0.057763 1.623044 0
-1.538249 0.065852 1.448815 0
-1.848953 0.075821 1.855171 0
-1.837696 0.053452 1.406976 0
-1.460854 0.047738 1.614983 0
-2.099369 0.129149 1.801942 0
-1.532411 0.050229 1.277443 0
-1.372824 0.347757 1.617037 0
-2.139818 0.061248 1.504210 0
-1.332189 0.034351 1.420221 0
-2.072964 0.161613 2.049096 0
-1.728739 0.043633 1.204404 0
-1.137835 0.363111 1.468449 0
-1.340513 0.046531 1.210851 0
-1.408427 0.465223 1.698115 0
-2.034256 0.088693 1.263402 0
-1.194476 0.070151 1.492749 0
-1.524661 0.041574 1.086264 0
-1.102708 0.481338 1.530002 0
-1.189724 0.034336 1.254867 0
-1.696362 0.468808 1.912389 0
-1.874939 0.046477 1.088504 0
-0.968864 0.378711 1.393255 0
-1.314643 0.043767 1.054124 0
-1.254757 0.502885 1.738826 0
-2.387972 0.070215 1.302287 0
-1.082220 0.033251 1.376375 0
-1.611035 0.047471 0.965792 0
-0.949883 0.491168 1.476863 0
-1.149093 0.025974 1.109325 0
-1.531152 0.528971 1.970429 0
-2.079923 0.074880 1.043933 0
-0.881192 0.328811 1.330025 0
-1.379644 0.024960 0.936188 0
-1.080725 0.516599 1.700138 0
-1.020897 0.017756 1.232779 0
-2.037632 0.508105 2.273926 0
-1.784508 0.043888 0.895357 0
-0.827982 0.483037 1.390475 0
-1.172735 0.013507 0.979188 0
-1.266437 0.601910 1.868256 0
-2.447459 0.059430 1.095353 0
-0.919216 0.074430 1.384271 0
-1.489719 0.028432 0.836443 0
-0.914601 0.521804 1.601034 0
-1.004793 0.015761 1.085533 0
-1.867500 0.523419 2.403412 0
-2.012010 0.062196 0.863889 0
-0.778227 0.379803 1.366291 0
-1.239198 0.014775 0.859737 0
-1.092306 0.582625 1.837315 0
-0.888609 0.025607 1.253415 0
-1.666394 0.027066 0.765745 0
-0.781700 0.514668 1.480093 0
-1.033941 0.013434 0.949328 0
-1.198195 0.782707 1.787221 0
-2.302922 0.098472 0.883178 0
-0.783621 0.176600 1.383637 0
-1.359719 0.009693 0.759917 0
-0.935507 0.539358 1.774825 0
-0.883340 0.014812 1.101329 0
-1.922257 0.021253 0.728574 0
-0.722153 0.408767 1.446576 0
-1.104458 0.011905 0.826151 0
-1.342846 0.493198 2.341361 0
-2.564513 0.205998 0.949759 0
-0.782287 0.044842 1.302654 0
-1.520643 0.021003 0.677771 0
-0.778053 0.528746 1.619113 0
-0.913260 0.013149 0.955867 0
-1.216036 0.904503 1.773398 0
-2.196452 0.070342 0.725995 0
-0.710337 0.208348 1.459919 0
-1.218681 0.008495 0.718105 0
-0.972888 0.593757 1.925584 0
-2.696819 0.398178 1.053764 0
-0.780385 0.017194 1.146352 0
-1.735049 0.050752 1.578716 0
-1.871423 0.068650 1.584432 0
-1.538573 0.056048 1.433028 0
-1.829262 0.081740 1.816699 0
-1.820601 0.056840 1.378989 0
-1.461469 0.038593 1.598681 0
-2.156314 0.077756 1.821929 0
-1.526202 0.046886 1.258381 0
-1.349781 0.362723 1.575441 0
-2.137168 0.050342 1.482537 0
-1.312064 0.052370 1.387076 0
-2.113724 0.122013 2.061494 0
-1.710322 0.049623 1.179000 0
-1.165607 0.323724 1.487705 0
-1.334351 0.045031 1.193137 0
-1.413123 0.454174 1.685393 0
-2.075835 0.045649 1.263346 0
-1.195622 0.061496 1.479616 0
-1.513501 0.043092 1.066466 0
-1.106458 0.472392 1.519661 0
-2.473873 0.101515 1.542482 0
-1.186359 0.030851 1.239396 0
-1.711188 0.449904 1.906561 0
-1.868795 0.039620 1.069216 0
-0.970690 0.371758 1.382754 0
-1.309296 0.040704 1.038483 0
-1.227034 0.522320 1.682899 0
-2.362349 0.071985 1.271327 0
-1.075216 0.038398 1.355428 0
-1.594565 0.052884 0.945063 0
-0.953350 0.483159 1.467683 0
-1.146016 0.021383 1.095550 0
-1.483571 0.552981 1.890194 0
-2.116085 0.035792 1.036596 0
-0.891629 0.305358 1.334190 0
-1.360035 0.038760 0.915074 0
-1.086194 0.506639 1.690629 0
-1.013706 0.023479 1.213961 0
-1.996211 0.516054 2.204751 0
-1.791692 0.025363 0.881130 0
-0.830849 0.475935 1.382190 0
-1.164309 0.016300 0.963024 0
-1.248721 0.609969 1.821312 0
-2.406689 0.069773 1.063023 0
-0.916466 0.074834 1.368088 0
-1.470179 0.039132 0.816969 0
-0.913984 0.520667 1.582396 0
-1.000184 0.015274 1.071344 0
-1.835142 0.529553 2.335341 0
-2.023094 0.040952 0.848416 0
-0.798221 0.333964 1.393393 0
-1.229318 0.017936 0.843959 0
-1.082755 0.588311 1.799120 0
-0.887730 0.020200 1.241981 0
-1.637820 0.043192 0.744901 0
-0.782779 0.512204 1.466505 0
-1.030245 0.009515 0.936872 0
-1.206492 0.771314 1.779380 0
-2.366568 0.044546 0.875248 0
-0.799490 0.131403 1.403567 0
-1.351115 0.008922 0.744752 0
-0.941659 0.529665 1.766649 0
-0.881250 0.010322 1.089958 0
-1.899583 0.027242 0.708125 0
-0.725362 0.401218 1.439454 0
-1.098300 0.010733 0.812799 0
-1.357463 0.475304 2.338584 0
-2.531480 0.208417 0.921967 0
-0.782034 0.039520 1.292117 0
-1.509999 0.020605 0.661804 0
-0.782915 0.520608 1.611755 0
-0.910196 0.008914 0.944545 0
-1.232006 0.889759 1.776295 0
-2.148951 0.089351 0.701410 0
-0.713908 0.196819 1.455302 0
-1.210673 0.008239 0.704181 0
-0.980959 0.582587 1.918734 0
-2.668166 0.394953 1.025429 0
-0.775558 0.022748 1.130908 0
-1.743549 0.035884 1.572159 0
-1.879460 0.054533 1.576678 0
-1.516277 0.073663 1.403700 0
-1.838086 0.066540 1.810185 0
-1.798198 0.069230 1.353120 0
-1.448772 0.047204 1.573616 0
-2.171625 0.058293 1.817981 0
-1.498020 0.071528 1.229015 0
-1.513330 0.199757 1.738392 0
-2.129039 0.048137 1.464198 0
-1.317290 0.040062 1.380588 0
-2.123748 0.105833 2.054368 0
-1.688670 0.063590 1.156533 0
-1.166113 0.318515 1.477452 0
-1.317364 0.061679 1.170694 0
-1.422782 0.440147 1.684102 0
-2.079292 0.035718 1.251628 0
-1.197706 0.053490 1.470532 0
-1.485907 0.067718 1.042293 0
-1.106081 0.468449 1.508382 0
-1.172461 0.047311 1.216868 0
-1.691681 0.454653 1.872979 0
-1.816042 0.077778 1.037579 0
-0.987491 0.342553 1.396442 0
-1.295021 0.054454 1.020405 0
-1.241764 0.503533 1.690735 0
-2.301997 0.101614 1.234456 0
-1.062838 0.055859 1.330344 0
-1.595439 0.046216 0.934331 0
-0.951712 0.482077 1.454516 0
-1.133107 0.037455 1.076207 0
-1.514601 0.524776 1.914741 0
-2.046954 0.079351 1.002952 0
-0.908320 0.271004 1.349882 0
-1.362599 0.030077 0.905902 0
-1.076325 0.513147 1.662516 0
-1.005979 0.034109 1.195927 0
-1.997922 0.505373 2.191004 0
-1.770306 0.038575 0.863791 0
-0.829778 0.475426 1.370119 0
-1.155290 0.025566 0.948365 0
-1.276081 0.582319 1.848334 0
-2.358935 0.091399 1.036250 0
-0.921758 0.059667 1.365683 0
-1.469929 0.033922 0.806339 0
-0.900720 0.536440 1.545279 0
-0.990310 0.030343 1.053524 0
-1.843302 0.515504 2.328882 0
-1.996116 0.055308 0.830378 0
-0.793226 0.342938 1.373011 0
-1.215627 0.032932 0.828980 0
-1.086105 0.580197 1.791672 0
-0.880837 0.032976 1.222902 0
-1.644579 0.030862 0.734974 0
-0.781743 0.512355 1.452812 0
-1.024148 0.016144 0.923941 0
-1.224617 0.753547 1.793930 0
-2.285719 0.088912 0.846854 0
-0.809392 0.102892 1.412503 0
-1.324960 0.037837 0.728325 0
-0.934229 0.536256 1.736912 0
-0.874357 0.022845 1.073475 0
-1.876235 0.040882 0.692935 0
-0.728809 0.391842 1.436420 0
-1.087724 0.023935 0.799236 0
-1.175434 0.621986 1.991187 0
-2.517108 0.208533 0.905566 0
-0.778203 0.047909 1.275299 0
-1.503370 0.022594 0.650095 0
-0.774509 0.534585 1.576890 0
-0.901481 0.024290 0.929126 0
-1.232956 0.882709 1.765685 0
-2.118299 0.104281 0.685336 0
-0.716658 0.187552 1.450615 0
-1.201105 0.017422 0.692268 0
-0.956302 0.607526 1.848151 0
-2.676466 0.383901 1.013830 0
-0.770832 0.033234 1.115225 0
-1.716110 0.050012 1.546243 0
-1.873185 0.048247 1.567169 0
-1.530536 0.047884 1.410314 0
-1.832106 0.059533 1.800066 0
-1.805303 0.052384 1.352183 0
-1.436117 0.051005 1.557196 0
-2.095005 0.099004 1.757136 0
-1.509791 0.048686 1.231856 0
-1.498854 0.203067 1.718969 0
-2.106523 0.052674 1.446369 0
-1.312063 0.036532 1.371919 0
-2.057686 0.138183 1.991239 0
-1.701862 0.041156 1.157826 0
-1.139349 0.342605 1.442269 0
-1.325699 0.040927 1.172196 0
-1.432400 0.422699 1.691011 0
-2.069502 0.032056 1.241590 0
-1.183107 0.064769 1.450502 0
-1.509734 0.031813 1.048704 0
-1.088082 0.480642 1.481431 0
-2.415441 0.114045 1.493302 0
-1.175150 0.032909 1.215496 0
-1.682819 0.449731 1.859689 0
-1.842404 0.045561 1.041674 0
-0.984404 0.338678 1.389567 0
-1.305991 0.030134 1.021882 0
-1.228471 0.506948 1.669659 0
-2.300355 0.091475 1.227846 0
-1.066073 0.039424 1.331141 0
-1.589442 0.043047 0.926857 0
-0.951396 0.474647 1.451561 0
-1.130014 0.032483 1.069999 0
-1.481345 0.537563 1.870405 0
-2.084701 0.041559 1.008140 0
-0.904735 0.268541 1.342273 0
-1.335228 0.055818 0.889951 0
-1.060001 0.523039 1.633448 0
-1.007206 0.020859 1.194190 0
-1.986699 0.498507 2.174673 0
-1.762974 0.035894 0.856087 0
-0.827729 0.471311 1.364466 0
-1.156693 0.013461 0.944736 0
-1.248042 0.595727 1.803968 0
-2.318739 0.105467 1.019302 0
-0.918306 0.056020 1.358421 0
-1.464780 0.030842 0.799456 0
-0.899683 0.530198 1.540950 0
-0.987237 0.025890 1.047444 0
-1.834382 0.507910 2.313174 0
-2.009070 0.035809 0.826774 0
-0.793724 0.332786 1.372561 0
-1.223440 0.011884 0.827008 0
-1.083672 0.574151 1.784247 0
-0.870642 0.046179 1.206849 0
-1.638463 0.028088 0.727939 0
-0.777198 0.513248 1.441039 0
-1.020143 0.013538 0.917363 0
-1.225198 0.744711 1.791263 0
-2.283565 0.080340 0.840049 0
-0.806556 0.098709 1.405890 0
-1.321656 0.033317 0.722129 0
-0.918127 0.549822 1.700165 0
-0.865009 0.034449 1.060555 0
-1.884868 0.024646 0.687699 0
-0.734496 0.368824 1.449593 0
-1.084454 0.019945 0.793192 0
-1.257739 0.542385 2.136205 0
-2.511778 0.200980 0.898319 0
-0.775434 0.043434 1.269289 0
-1.497072 0.021040 0.643318 0
-0.773039 0.529576 1.571345 0
-0.895703 0.026741 0.921146 0
-0.856165 1.064021 1.222130 0
-2.125930 0.089942 0.679725 0
-0.713627 0.185308 1.442763 0
-1.195889 0.016251 0.685718 0
-0.965713 0.588113 1.866045 0
-2.644114 0.386371 1.000917 0
-0.769548 0.024194 1.111729 0
-1.703370 0.039468 1.527358 0
-1.828059 0.063468 1.525922 0
-1.491052 0.069558 1.371324 0
-1.819429 0.046043 1.779933 0
-1.753823 0.076483 1.312146 0
-1.402703 0.068231 1.517169 0
-2.104286 0.067721 1.753743 0
-1.493819 0.046097 1.212552 0
-1.343488 0.334783 1.547417 0
-2.087152 0.044028 1.425078 0
-1.275449 0.064466 1.331298 0
-2.025038 0.135284 1.953414 0
-1.647386 0.073359 1.121146 0
-1.166881 0.289485 1.469809 0
-1.306929 0.045554 1.150717 0
-1.370732 0.455045 1.616931 0
-1.976270 0.081452 1.190344 0
-1.170693 0.061588 1.430276 0
-1.478693 0.047390 1.023987 0
-1.094346 0.456233 1.485139 0
-1.163691 0.029690 1.198206 0
-1.589674 0.490217 1.757692 0
-1.830688 0.036281 1.026151 0
-0.971731 0.339988 1.367717 0
-1.288065 0.035027 1.002786 0
-1.218851 0.497654 1.651671 0
-2.245207 0.105061 1.195695 0
-1.055673 0.035585 1.313460 0
-1.565541 0.049570 0.907756 0
-0.944173 0.467822 1.436613 0
-1.123512 0.022513 1.057277 0
-1.441949 0.545026 1.816517 0
-2.015534 0.073428 0.976067 0
-0.950000 0.161138 1.407715 0
-1.344089 0.025957 0.883207 0
-1.050763 0.515934 1.614587 0
-0.996843 0.018628 1.177296 0
-1.921015 0.507300 2.099589 0
-1.729505 0.048554 0.835951 0
-0.829298 0.451192 1.364995 0
-1.146322 0.010223 0.929914 0
-1.273654 0.555946 1.835952 0
-2.314355 0.088048 1.005884 0
-0.909987 0.050387 1.342445 0
-1.452742 0.027115 0.784964 0
-0.896848 0.517282 1.532783 0
-0.980698 0.016899 1.034893 0
-1.772546 0.517370 2.230151 0
-1.953069 0.061314 0.803418 0
-0.798510 0.301510 1.380643 0
-1.205158 0.020481 0.809913 0
-1.074013 0.565969 1.763131 0
-0.868722 0.025984 1.200342 0
-1.620553 0.028987 0.712666 0
-0.774786 0.500528 1.434405 0
-1.008941 0.014112 0.901997 0
-1.233946 0.721218 1.799102 0
-2.230674 0.095770 0.818122 0
-0.804732 0.077626 1.401512 0
-1.317728 0.020901 0.709912 0
-0.915862 0.535208 1.692594 0
-0.861913 0.017529 1.051888 0
-1.837539 0.047781 0.669208 0
-0.725761 0.369858 1.428276 0
-1.076107 0.014933 0.779986 0
-1.176799 0.592041 1.985126 0
-2.508333 0.183327 0.885359 0
-0.768759 0.035723 1.256001 0
-1.473614 0.031012 0.628166 0
-0.764596 0.527869 1.549016 0
-0.891233 0.013904 0.910489 0
-1.475078 0.731639 2.102927 0
-2.092403 0.096220 0.663495 0
-0.715205 0.153617 1.448953 0
-1.183005 0.017928 0.671677 0
-0.953282 0.584833 1.835133 0
-2.613529 0.379128 0.983241 0
-0.761138 0.022247 1.096531 0
-1.621962 0.084717 1.462766 0
-1.778031 0.073843 1.488068 0
-1.491948 0.037070 1.368838 0
-1.737646 0.082139 1.707817 0
-1.707372 0.088286 1.280551 0
-1.395320 0.043342 1.509230 0
-2.084343 0.045986 1.737500 0
-1.453786 0.061782 1.182561 0
-1.468467 0.178066 1.680837 0
-1.964274 0.103768 1.354997 0
-1.255885 0.059204 1.311512 0
-1.631356 0.061228 1.107229 0
-1.166630 0.259474 1.471199 0
-1.290312 0.038086 1.134512 0
-1.347275 0.446960 1.593096 0
-1.933851 0.085515 1.166321 0
-1.154106 0.052551 1.411870 0
-1.459717 0.041846 1.008182 0
-1.065226 0.463347 1.449453 0
-2.321966 0.113372 1.433132 0
-1.142601 0.031165 1.176850 0
-1.589212 0.460484 1.759317 0
-1.743522 0.086025 0.987802 0
-0.970259 0.312320 1.368767 0
-1.270722 0.030833 0.986769 0
-1.191356 0.495970 1.618864 0
-2.223500 0.089779 1.181792 0
-1.033692 0.040356 1.288140 0
-1.543874 0.047062 0.892259 0
-0.930608 0.459695 1.419912 0
-1.103118 0.025936 1.037502 0
-1.431289 0.523045 1.807366 0
-1.976036 0.077107 0.957193 0
-0.943490 0.137643 1.402122 0
-1.317645 0.034455 0.864691 0
-1.023956 0.519225 1.577319 0
-0.976929 0.023459 1.154844 0
-1.889503 0.489117 2.070893 0
-1.705949 0.046097 0.821325 0
-0.820340 0.438154 1.355040 0
-1.125020 0.016322 0.911229 0
-1.254001 0.542950 1.812926 0
-2.265875 0.091417 0.986255 0
-0.893499 0.048209 1.321406 0
-1.422557 0.038456 0.767719 0
-0.877553 0.517575 1.503614 0
-0.958227 0.029844 1.011779 0
-1.758750 0.489448 2.218760 0
-1.928107 0.056978 0.789797 0
-0.797284 0.268095 1.386528 0
-1.186514 0.022440 0.794201 0
-1.060925 0.550838 1.747620 0
-0.845427 0.044631 1.170374 0
-1.593145 0.034005 0.698009 0
-0.762406 0.494457 1.416508 0
-0.992612 0.015310 0.885301 0
-1.235079 0.693498 1.806413 0
-2.202731 0.089347 0.805173 0
-0.791200 0.070032 1.383752 0
-1.280361 0.047412 0.691664 0
-0.902199 0.524397 1.673617 0
-0.838188 0.040161 1.024491 0
-1.831462 0.030548 0.658409 0
-0.722377 0.340869 1.432654 0
-1.050147 0.033951 0.761003 0
-1.156076 0.579720 1.956496 0
-2.434053 0.197025 0.865414 0
-0.750851 0.044659 1.230147 0
-1.459991 0.024483 0.615657 0
-0.746183 0.532431 1.514534 0
-0.870539 0.029189 0.889412 0
-1.226444 0.836455 1.752985 0
-2.069304 0.090169 0.652073 0
-0.710950 0.118054 1.453719 0
-1.162157 0.025811 0.656727 0
-0.939469 0.571589 1.815715 0
-2.640084 0.341384 0.984514 0
-0.743487 0.033457 1.073036 0
-1.610260 0.064481 1.453366 0
-1.722959 0.090684 1.448870 0
-1.442111 0.062249 1.329760 0
-1.684625 0.095932 1.662930 0
-1.695996 0.069176 1.271329 0
-1.358061 0.055819 1.474573 0
-2.016619 0.061052 1.689140 0
-1.418416 0.073442 1.157735 0
-1.448214 0.166176 1.662618 0
-1.952735 0.082053 1.346358 0
-1.234018 0.057856 1.291899 0
-1.943153 0.121351 1.884875 0
-1.592444 0.072024 1.084514 0
-1.140467 0.263661 1.443610 0
-1.270586 0.035115 1.118407 0
-1.320165 0.443665 1.566782 0
-1.890664 0.091138 1.144073 0
-1.132514 0.052169 1.390090 0
-1.432767 0.045728 0.990857 0
-1.049514 0.456045 1.433207 0
-2.310522 0.088010 1.425380 0
-1.122455 0.031677 1.158623 0
-1.543171 0.463756 1.715945 0
-1.732534 0.069569 0.978604 0
-0.964270 0.291754 1.365547 0
-1.249407 0.032323 0.970839 0
-1.163884 0.496258 1.587514 0
-2.157021 0.104613 1.153500 0
-1.016505 0.036914 1.270756 0
-1.518126 0.048980 0.877529 0
-0.918838 0.449824 1.407789 0
-1.085034 0.025684 1.021693 0
-1.410251 0.510083 1.787087 0
-1.941299 0.077559 0.941738 0
-0.941738 0.104026 1.406330 0
-1.298573 0.033313 0.851199 0
-0.999464 0.521897 1.545127 0
-0.959317 0.024031 1.137213 0
-1.819635 0.494499 2.004202 0
-1.668079 0.057188 0.805402 0
-0.814118 0.420264 1.352041 0
-1.107449 0.016256 0.896827 0
-1.225281 0.539747 1.778047 0
-2.217125 0.095545 0.968590 0
-0.877598 0.045149 1.303745 0
-1.404659 0.035137 0.755764 0
-0.863214 0.511899 1.485439 0
-0.944460 0.024626 0.998410 0
-1.668968 0.509547 2.115600 0
-1.881003 0.070427 0.774152 0
-0.791560 0.244343 1.386058 0
-1.167148 0.025395 0.780439 0
-1.045251 0.539982 1.729087 0
-0.832908 0.036188 1.157532 0
-1.565607 0.039055 0.685488 0
-0.753816 0.481611 1.408905 0
-0.974852 0.019339 0.870039 0
-1.228339 0.672224 1.803424 0
-2.148355 0.100553 0.789815 0
-0.774553 0.071711 1.362305 0
-1.278799 0.024826 0.683091 0
-0.879469 0.528468 1.636752 0
-0.826499 0.031677 1.012549 0
-1.810631 0.025424 0.647897 0
-0.745678 0.238331 1.508115 0
-1.041750 0.020572 0.750893 0
-1.110110 0.593513 1.883145 0
-2.430320 0.172912 0.859748 0
-0.736196 0.043769 1.212806 0
-1.440467 0.024256 0.604538 0
-0.732947 0.528503 1.494823 0
-0.854343 0.033559 0.874119 0
-1.224727 0.813705 1.756795 0
-2.044367 0.084957 0.642377 0
-0.704208 0.088920 1.455385 0
-1.145897 0.026074 0.644863 0
-0.930611 0.553511 1.809058 0
-2.612310 0.326081 0.975553 0
-0.730606 0.029184 1.059061 0
-1.582172 0.051613 1.431470 0
-1.733408 0.040421 1.455149 0
-1.427431 0.039255 1.316963 0
-1.637966 0.095539 1.624551 0
-1.682844 0.043712 1.260281 0
-1.334366 0.042305 1.453302 0
-1.975625 0.047637 1.660832 0
-1.391245 0.068868 1.136766 0
-1.425476 0.146807 1.643305 0
-1.936673 0.055748 1.335012 0
-1.215489 0.042878 1.274693 0
-1.940860 0.075580 1.887321 0
-1.562102 0.068335 1.064494 0
-1.199765 0.141539 1.520092 0
-2.166684 0.093726 1.583568 0
-1.240564 0.039222 1.093800 0
-1.354856 0.374665 1.611050 0
-1.838071 0.098681 1.117108 0
-1.103316 0.054480 1.359814 0
-1.402616 0.047530 0.970155 0
-1.033536 0.440374 1.418722 0
-2.293674 0.057703 1.415373 0
-1.099299 0.028840 1.136543 0
-1.603689 0.380262 1.784486 0
-1.713310 0.054558 0.964845 0
-0.954696 0.266491 1.358913 0
-1.227908 0.027559 0.952594 0
-1.136359 0.488389 1.558831 0
-2.189342 0.046466 1.160599 0
-0.994159 0.033339 1.247101 0
-1.494738 0.043140 0.861363 0
-0.881805 0.470180 1.357513 0
-1.062534 0.025582 1.000734 0
-1.370675 0.502513 1.747564 0
-1.890316 0.085977 0.920507 0
-0.928056 0.081893 1.393887 0
