ply
format ascii 1.0
element vertex 1590
property float x
property float y
property float z
property uchar label
end_header
0.010987 0.001030 0.641884 0
-0.611487 0.753519 1.045194 0
-0.731613 -0.028109 0.166209 0
-0.063232 0.002041 1.284225 0
-0.749545 0.812902 0.603368 0
-0.149120 -0.015747 0.346648 0
-0.576572 0.312085 1.566503 0
-1.225255 -0.017722 0.282062 0
0.072808 0.008186 0.860507 0
-0.662698 0.862899 0.856530 0
-0.465569 -0.025973 0.156934 0
-0.231874 -0.005190 1.599584 0
-0.707142 0.808576 0.425990 0
0.007427 -0.006780 0.498068 0
-0.580859 0.694294 1.212031 0
-0.937200 -0.039951 0.130980 0
0.061730 0.023474 1.124500 0
-0.806840 0.830243 0.732565 0
-0.227726 -0.019229 0.223757 0
-0.515667 0.033030 1.871824 0
-0.657366 0.745522 0.279916 0
0.110514 0.015396 0.700857 0
-0.728259 0.788965 1.074679 0
-0.623294 -0.028166 0.079470 0
-0.047580 0.016936 1.447698 0
-0.817676 0.818572 0.535663 0
-0.032497 -0.008250 0.355824 0
-0.628259 0.456595 1.573404 0
-1.169612 -0.028318 0.138753 0
0.145268 0.006432 0.968320 0
-0.913320 0.787945 0.938389 0
-0.347021 -0.030144 0.114128 0
-0.290688 -0.004941 1.821682 0
-0.732721 0.804071 0.344633 0
0.110216 0.003313 0.545580 0
-0.634506 0.011806 0.896714 0
-0.754244 -0.008968 0.911942 0
-0.530426 -0.017312 0.810540 0
-0.583891 0.177855 0.984031 0
-0.766398 -0.038815 0.761204 0
-0.433869 -0.018347 0.937819 0
-0.852326 0.068092 1.023122 0
-0.546447 -0.020736 0.662636 0
-0.523391 0.037643 1.135766 0
-0.958480 -0.032534 0.820379 0
-0.350114 -0.010962 0.780261 0
-0.590037 0.391096 0.983603 0
-0.716317 -0.038190 0.595785 0
-0.356151 -0.008357 1.069494 0
-1.044626 0.052445 0.989230 0
-0.400130 -0.024652 0.612297 0
-0.597716 0.096642 1.270198 0
-0.951516 -0.023202 0.649138 0
-0.242231 -0.009433 0.869719 0
-0.571847 0.609509 0.853945 0
-0.563925 -0.012913 0.492966 0
-0.383789 0.007348 1.245434 0
-0.613455 0.624315 0.586455 0
-0.253730 -0.010763 0.647211 0
-0.626418 0.340325 1.193923 0
-0.849936 -0.037524 0.495246 0
-0.196181 -0.002459 1.025408 0
-0.598297 0.705811 0.735577 0
-0.399769 -0.020629 0.469912 0
-0.518154 0.006988 1.448678 0
-1.142069 -0.001226 0.651378 0
-0.141630 -0.002177 0.754497 0
-0.639141 0.567946 1.030632 0
-0.669543 -0.032640 0.389749 0
-0.225970 0.006481 1.228192 0
-0.596882 0.762201 0.596779 0
-0.235381 -0.015324 0.515508 0
-0.608195 0.241232 1.407308 0
-1.024984 -0.030338 0.463410 0
-0.077842 0.016637 0.916461 0
-0.574226 0.788656 0.794959 0
-0.464269 -0.022842 0.354126 0
-0.353177 0.000958 1.470636 0
-0.608011 0.738584 0.475250 0
-0.097897 -0.001355 0.623918 0
-0.588144 0.588274 1.141201 0
-0.809899 -0.022283 0.324526 0
-0.086155 0.007114 1.143333 0
-0.649379 0.795945 0.681859 0
-0.267419 -0.011400 0.389242 0
-0.530214 0.114172 1.595014 0
-1.208977 0.006203 0.487543 0
-0.007594 0.004034 0.793022 0
-0.692149 0.690242 1.017701 0
-0.575354 -0.020832 0.262702 0
-0.180744 0.004776 1.408784 0
-0.652165 0.801417 0.530487 0
-0.101526 -0.009096 0.491061 0
-0.627986 0.413490 1.429469 0
-1.009798 -0.035011 0.304479 0
0.022700 0.014997 1.013026 0
-0.684802 0.816122 0.796046 0
-0.349730 -0.025640 0.277481 0
-0.382930 0.011893 1.685932 0
-0.624022 0.767434 0.389253 0
0.023664 0.001677 0.651051 0
-0.604754 0.734895 1.097844 0
-0.732515 -0.023689 0.199965 0
-0.026710 0.023517 1.280813 0
-0.734773 0.815799 0.636080 0
-0.145380 -0.012238 0.360983 0
-0.556470 0.275246 1.640167 0
-1.220015 -0.010641 0.331482 0
0.092587 0.009052 0.867417 0
-0.793123 0.745589 1.013509 0
-0.468915 -0.025838 0.182015 0
-0.182006 0.020637 1.593915 0
-0.694591 0.814066 0.456543 0
0.015617 -0.004351 0.507080 0
-0.680355 0.549032 1.427666 0
-0.935289 -0.030191 0.171604 0
0.089891 0.020519 1.134105 0
-0.810329 0.817637 0.780092 0
-0.227749 -0.015488 0.240965 0
-0.656264 0.745342 0.310581 0
0.125084 0.016144 0.706619 0
-0.637485 0.841814 1.043723 0
-0.625731 -0.021208 0.110072 0
-0.009562 0.010927 1.464573 0
-0.810975 0.817390 0.572936 0
-0.029031 -0.007085 0.366560 0
-0.595546 0.443388 1.623936 0
-1.183481 -0.037626 0.186700 0
0.168575 0.014163 0.969215 0
-1.040370 0.688910 1.086547 0
-0.350227 -0.025934 0.135531 0
-0.233524 0.018454 1.817313 0
-0.720846 0.810978 0.376124 0
0.119694 0.003833 0.551532 0
-0.590157 0.023545 0.917659 0
-0.702476 0.011442 0.932771 0
-0.491686 -0.007373 0.829729 0
-0.559676 0.147287 1.026798 0
-0.719059 -0.016222 0.784631 0
-0.389079 -0.002230 0.949050 0
-0.582997 0.393462 0.863940 0
-0.512779 -0.009935 0.683804 0
-0.486958 0.015005 1.171695 0
-0.901908 -0.006166 0.847785 0
-0.317401 -0.009232 0.796532 0
-0.617321 0.287681 1.082325 0
-0.680040 -0.022104 0.622450 0
-0.306959 0.009679 1.074750 0
-0.992376 0.061403 1.024730 0
-0.370476 -0.014638 0.628966 0
-0.581282 0.027640 1.346349 0
-0.917863 -0.019351 0.687303 0
-0.202512 0.008515 0.874348 0
-0.562739 0.576391 0.903076 0
-0.539623 -0.008573 0.518059 0
-0.337270 -0.002909 1.268376 0
-1.093798 0.046424 0.883097 0
-0.224722 -0.001976 0.658569 0
-0.599699 0.305723 1.247982 0
-0.824841 -0.036066 0.531401 0
-0.152844 0.008925 1.029432 0
-0.576247 0.695701 0.768606 0
-0.377720 -0.016467 0.489158 0
-0.465164 -0.006305 1.478935 0
-1.118075 -0.011145 0.700942 0
-0.110624 0.001838 0.762535 0
-0.612385 0.548092 1.073781 0
-0.642896 -0.018356 0.418024 0
-0.177300 0.006838 1.238248 0
-0.589024 0.744114 0.634023 0
-0.213364 -0.013423 0.528917 0
-0.574398 0.200514 1.468615 0
-0.986218 -0.011424 0.502744 0
-0.041575 0.018030 0.922380 0
-0.553674 0.775455 0.830589 0
-0.447209 -0.021185 0.376774 0
-0.297217 -0.007092 1.490730 0
-0.614941 0.710313 0.514766 0
-0.072407 0.001005 0.631669 0
-0.573777 0.546868 1.206670 0
-0.792917 -0.022627 0.360364 0
-0.038821 0.024170 1.138426 0
-0.601563 0.811429 0.698896 0
-0.249284 -0.006805 0.404060 0
-0.500279 0.040934 1.687180 0
-1.183615 0.004797 0.537604 0
0.023840 0.006456 0.796608 0
-0.647256 0.691406 1.043052 0
-0.562853 -0.022687 0.290119 0
-0.124493 0.009645 1.412559 0
-0.636359 0.793978 0.563780 0
-0.080291 -0.002554 0.498755 0
-0.587768 0.386946 1.481441 0
-0.979959 -0.019287 0.346293 0
0.062201 0.016811 1.014628 0
-0.640951 0.823085 0.817804 0
-0.329413 -0.003996 0.294966 0
-0.313844 0.018300 1.692319 0
-0.638166 0.737073 0.427835 0
0.049388 0.001875 0.654890 0
-0.587004 0.705565 1.155019 0
-0.721905 -0.025824 0.233429 0
0.023052 0.024717 1.283002 0
-0.696122 0.822743 0.662835 0
-0.128891 -0.006472 0.371320 0
-0.530801 0.201743 1.744875 0
-1.196477 -0.007389 0.382109 0
0.126614 0.018050 0.864090 0
-0.763013 0.733285 1.056636 0
-0.455472 -0.017145 0.205574 0
-0.120314 0.018039 1.602936 0
-0.669907 0.816241 0.487349 0
0.036459 0.000975 0.510611 0
-0.671238 0.489481 1.527603 0
-0.927433 -0.036061 0.212773 0
0.133969 0.031463 1.126947 0
-0.781624 0.811940 0.817541 0
-0.215684 -0.011498 0.255206 0
-0.677853 0.711150 0.348307 0
0.152595 0.017671 0.706154 0
-0.606850 0.829633 1.082777 0
-0.620077 -0.025241 0.139639 0
0.048076 0.022464 1.456326 0
-0.746900 0.842975 0.592688 0
-0.013733 -0.005720 0.373054 0
-0.553715 0.407731 1.690637 0
-1.163902 -0.031891 0.236914 0
0.205735 0.022442 0.962552 0
-0.802588 0.819164 0.977917 0
-0.342014 -0.023788 0.154844 0
-0.164264 0.011008 1.832199 0
-0.693018 0.817852 0.407434 0
0.141428 0.005343 0.551863 0
-0.537074 0.053700 0.933844 0
-0.620458 0.086397 0.929787 0
-0.458923 -0.011036 0.859470 0
-0.532757 0.119368 1.073778 0
-0.682043 -0.011016 0.818847 0
-0.349681 0.001193 0.971544 0
-0.574626 0.352935 0.919205 0
-0.484953 -0.012867 0.714165 0
-0.446011 0.001377 1.207694 0
-0.860871 -0.001164 0.887972 0
-0.284562 -0.007525 0.817993 0
-0.620299 0.213400 1.168374 0
-0.639950 0.000025 0.651474 0
-0.264602 0.009641 1.095821 0
-0.882138 0.144853 1.019619 0
-0.345450 -0.018635 0.654647 0
-0.538139 0.006239 1.392854 0
-0.874424 -0.002946 0.725388 0
-0.167661 0.009417 0.891836 0
-0.653627 0.411110 1.060356 0
-0.514888 -0.005355 0.548235 0
-0.288540 -0.005708 1.292038 0
-1.073090 0.023383 0.943358 0
-0.196872 0.001891 0.676587 0
-0.608174 0.211803 1.361211 0
-0.790443 -0.022310 0.569244 0
-0.112427 0.010264 1.044522 0
-0.579030 0.657693 0.825626 0
-0.355349 -0.013667 0.513787 0
-0.407633 -0.007188 1.505159 0
-1.088499 -0.016379 0.753525 0
-0.080821 -0.000619 0.778401 0
-0.598333 0.511645 1.137522 0
-0.622317 -0.017693 0.452918 0
-0.130868 0.000026 1.259271 0
-0.589473 0.716273 0.681105 0
-0.190553 -0.010608 0.547457 0
-0.544242 0.150008 1.546888 0
-0.971750 -0.026273 0.553072 0
-0.006299 0.013727 0.936654 0
-0.622684 0.669487 0.952584 0
-0.428298 -0.018008 0.404437 0
-0.236156 0.005044 1.500142 0
-0.609783 0.692226 0.554681 0
-0.047309 -0.000453 0.645960 0
-0.635674 0.400352 1.391051 0
-0.779142 -0.031122 0.402114 0
0.003847 0.015570 1.155586 0
-0.585974 0.798611 0.738574 0
-0.231491 -0.006305 0.424794 0
-0.453476 -0.002889 1.758143 0
-1.162218 -0.003311 0.593506 0
0.054326 -0.000286 0.809426 0
-0.607445 0.688964 1.075843 0
-0.544829 -0.016634 0.322251 0
-0.069543 0.014459 1.422824 0
-0.615419 0.790248 0.598109 0
-0.060254 -0.005280 0.513763 0
-0.562708 0.336251 1.568374 0
-0.966864 -0.028473 0.394927 0
0.101661 0.024558 1.018806 0
-0.623682 0.808365 0.862066 0
-0.314244 -0.000525 0.318754 0
-0.250091 0.014221 1.716399 0
-0.618323 0.736835 0.461434 0
0.075294 0.002643 0.664138 0
-0.580853 0.662263 1.235176 0
-0.711026 -0.031223 0.272293 0
0.071609 0.020302 1.295606 0
-0.670293 0.819765 0.698416 0
-0.112112 -0.002564 0.387379 0
-0.506055 0.116820 1.872768 0
-1.179589 -0.014363 0.438308 0
0.159776 0.010952 0.873645 0
-0.689722 0.758200 1.061811 0
-0.445654 -0.020966 0.234618 0
-0.057929 0.025967 1.609185 0
-0.659366 0.806015 0.525932 0
0.057051 0.001140 0.520800 0
-0.639337 0.454009 1.604584 0
-0.905166 -0.025592 0.258663 0
0.176751 0.017093 1.141734 0
-0.736649 0.818509 0.846651 0
-0.202351 -0.006698 0.275005 0
-0.654097 0.716899 0.382577 0
0.180036 0.016264 0.712344 0
-0.590794 0.804932 1.143224 0
-0.606475 -0.018303 0.175063 0
0.102397 0.006901 1.477827 0
-0.725659 0.838125 0.631373 0
0.002469 -0.001601 0.384906 0
-0.534674 0.333350 1.818821 0
-1.132727 -0.016284 0.290810 0
0.242755 0.015869 0.969411 0
-0.845865 0.757169 1.084915 0
-0.333965 -0.026594 0.179776 0
-0.092226 0.023687 1.833210 0
-0.684121 0.808671 0.445944 0
0.163253 0.004513 0.558429 0
-0.516321 0.019435 0.984083 0
-0.569292 0.111440 0.951736 0
-0.423894 -0.009097 0.888728 0
-0.526630 0.046897 1.152167 0
-0.643525 -0.002835 0.853454 0
-0.311556 0.002422 0.996883 0
-0.619408 0.225052 1.033870 0
-0.456214 -0.013955 0.746022 0
-0.397915 0.005307 1.233867 0
-0.812881 0.014411 0.924626 0
-0.252626 -0.007615 0.842120 0
-0.621985 0.133874 1.263389 0
-0.622690 -0.019653 0.694844 0
-0.222099 0.012166 1.117034 0
-0.766920 0.240863 1.003345 0
-0.318725 -0.017723 0.681098 0
-0.483930 0.007775 1.423306 0
-0.838764 0.002573 0.768513 0
-0.133218 0.010928 0.910887 0
-0.650406 0.358440 1.137376 0
-0.491307 -0.005105 0.581256 0
-0.237178 0.002669 1.309252 0
-1.020482 0.037627 0.987056 0
-0.170380 0.001820 0.697945 0
-0.571219 0.185164 1.418802 0
-0.759099 -0.013578 0.609829 0
-0.071678 0.017703 1.057833 0
-0.584140 0.613399 0.890822 0
-0.332051 -0.008302 0.540152 0
-0.347068 0.002665 1.523734 0
-1.045445 -0.005741 0.802026 0
-0.050942 0.000249 0.795043 0
-0.591058 0.462430 1.216765 0
-0.596727 -0.008393 0.488547 0
-0.080191 0.018568 1.264079 0
-0.606880 0.667944 0.744076 0
-0.168096 -0.008186 0.568406 0
-0.512743 0.095766 1.632654 0
-0.937434 -0.015795 0.599811 0
0.029062 0.015406 0.949824 0
-0.629998 0.620483 1.030179 0
-0.409115 -0.014817 0.434526 0
-0.177171 0.016108 1.511800 0
-0.627011 0.648570 0.608799 0
-0.022199 0.001435 0.661505 0
-0.597540 0.378553 1.448083 0
-0.755422 -0.025015 0.444394 0
0.048478 0.031251 1.158853 0
-0.579289 0.775564 0.787994 0
-0.213411 -0.004705 0.447921 0
-0.379393 0.017554 1.765358 0
-1.141681 -0.013326 0.652338 0
0.085055 0.003932 0.819860 0
-0.584454 0.667979 1.129964 0
-0.528168 -0.014506 0.357134 0
-0.016880 0.012564 1.440036 0
-0.602788 0.777462 0.638847 0
-0.040088 -0.005019 0.530655 0
-0.528605 0.294050 1.649229 0
-0.937711 -0.017478 0.443233 0
0.139376 0.021723 1.030445 0
-0.668666 0.736445 0.964068 0
-0.299289 0.001641 0.345301 0
-0.185636 0.015990 1.736274 0
-0.622882 0.711295 0.505504 0
0.100180 -0.000378 0.676769 0
-0.673469 0.499756 1.467998 0
-0.688154 -0.017521 0.312734 0
0.119303 0.014972 1.310405 0
-0.631622 0.826183 0.727751 0
-0.095843 0.000003 0.406249 0
-1.161161 -0.020767 0.496852 0
0.192237 0.023189 0.876445 0
-0.612704 0.788358 1.059486 0
-0.430463 -0.013171 0.266227 0
0.002199 0.029889 1.620624 0
-0.638550 0.802645 0.562821 0
0.076944 0.000522 0.533644 0
-0.595115 0.431313 1.667916 0
-0.892147 -0.029487 0.307330 0
0.218873 0.018805 1.148015 0
-0.651079 0.856064 0.845492 0
-0.189592 -0.004287 0.297743 0
-0.658846 0.693990 0.425174 0
0.206548 0.013073 0.721274 0
-0.565963 0.785853 1.198637 0
-0.596194 -0.019347 0.213058 0
0.157015 0.008791 1.486021 0
-0.703628 0.832578 0.671612 0
0.017847 -0.000304 0.399822 0
-0.509047 0.258315 1.953304 0
-1.129448 -0.034145 0.348850 0
0.278596 0.013775 0.975715 0
-0.764242 0.784328 1.090187 0
-0.320058 -0.013401 0.207890 0
-0.023966 0.026800 1.846182 0
-0.662547 0.807964 0.482925 0
0.184249 0.008610 0.566266 0
-0.466799 0.000538 0.994637 0
-0.521557 0.092566 0.964339 0
-0.368917 -0.004768 0.887382 0
-0.481007 0.008281 1.174399 0
-0.588380 -0.005887 0.860563 0
-0.257972 -0.000633 0.994949 0
-0.578537 0.191603 1.056915 0
-0.405453 -0.010953 0.748547 0
-0.333502 0.008325 1.225369 0
-0.739913 0.029747 0.925154 0
-0.201485 0.000359 0.836567 0
-0.590737 0.065951 1.311328 0
-0.567567 -0.012123 0.700542 0
-0.165226 0.013643 1.108837 0
-0.706982 0.235188 1.011895 0
-0.270441 -0.008056 0.679551 0
-0.409268 0.016616 1.406882 0
-0.779343 0.003647 0.779746 0
-0.086390 -0.001108 0.910741 0
-0.623987 0.302511 1.181005 0
-0.449054 -0.011420 0.589686 0
-0.173192 0.008240 1.294496 0
-0.950481 0.035946 0.998484 0
-0.127644 -0.001455 0.696921 0
-0.546188 0.096624 1.489866 0
-0.702121 -0.004533 0.620107 0
-0.019973 0.012316 1.051730 0
-0.603765 0.522668 0.962766 0
-0.291431 -0.009685 0.544026 0
-0.268934 0.024667 1.490998 0
-0.971881 0.004294 0.813393 0
-0.006336 -0.001831 0.789904 0
-0.634643 0.305891 1.360631 0
-0.551368 -0.005786 0.498771 0
-0.022110 0.015311 1.253853 0
-0.944698 0.239040 1.025635 0
-0.127378 -0.003567 0.566640 0
-0.473572 0.010471 1.702461 0
-0.880201 -0.013697 0.616281 0
0.077199 0.013935 0.941021 0
-0.614187 0.568103 1.077326 0
-0.370242 -0.015361 0.441276 0
-0.106825 0.030390 1.483507 0
-1.135711 0.041019 0.906868 0
0.018313 -0.000379 0.656986 0
-0.578209 0.294599 1.527138 0
-0.707704 -0.022309 0.459128 0
0.101321 0.017787 1.154439 0
-0.572592 0.729803 0.828751 0
-0.175920 -0.001255 0.449067 0
-0.298758 0.022221 1.740902 0
-1.081391 -0.017092 0.674164 0
0.129188 0.001920 0.811509 0
-0.583821 0.595179 1.202919 0
-0.489706 -0.014898 0.367790 0
0.045994 0.013369 1.422499 0
-0.603486 0.730611 0.676689 0
-0.002366 -0.001258 0.526480 0
-0.532280 0.142754 1.808165 0
-0.885535 -0.015053 0.462625 0
0.188730 0.018504 1.019429 0
-0.665516 0.680351 1.018603 0
-0.266950 -0.005479 0.350841 0
-0.109792 0.024250 1.706729 0
-0.641341 0.648590 0.543965 0
0.140764 0.010438 0.665490 0
-0.633865 0.452221 1.512217 0
-0.647817 -0.017444 0.328043 0
0.176793 0.018836 1.290941 0
-0.597503 0.809356 0.747528 0
-0.061520 0.001550 0.405153 0
-1.111854 -0.031646 0.523297 0
0.237110 0.016438 0.867464 0
-0.596871 0.742409 1.107363 0
-0.394216 -0.007854 0.275046 0
0.068357 0.015794 1.612877 0
-0.611639 0.784690 0.584999 0
0.112991 -0.003501 0.528225 0
-0.557402 0.366846 1.732887 0
-0.848128 -0.030566 0.328057 0
0.270768 0.020946 1.130820 0
-0.668836 0.792939 0.908888 0
-0.158599 -0.007943 0.300308 0
-0.663045 0.648631 0.455184 0
0.247128 0.010938 0.711211 0
-0.605421 0.677060 1.333287 0
-0.561827 -0.021224 0.227065 0
0.218860 0.017770 1.458126 0
-0.666357 0.818560 0.691434 0
0.050628 -0.001584 0.396190 0
-1.065102 -0.019884 0.373522 0
0.325365 0.016720 0.959378 0
-0.682927 0.791170 1.076221 0
-0.287460 -0.007842 0.214426 0
0.050855 0.032412 1.814148 0
-0.633844 0.793786 0.504656 0
0.220702 0.007088 0.557577 0
-0.445568 -0.002585 1.013106 0
-0.508712 0.073984 0.991734 0
-0.348644 -0.005626 0.903452 0
-0.456520 0.006373 1.192332 0
-0.569150 -0.009580 0.880972 0
-0.235105 0.002879 1.007096 0
-0.581011 0.146665 1.103774 0
-0.387464 -0.012620 0.765617 0
-0.308710 0.006074 1.241595 0
-0.688422 0.075594 0.923338 0
-0.182931 -0.002326 0.851095 0
-0.586961 0.021140 1.363554 0
-0.547986 -0.010215 0.718830 0
-0.142082 0.013065 1.121761 0
-0.604219 0.348211 0.959219 0
-0.252796 -0.006206 0.693638 0
-0.382293 0.012613 1.425565 0
-0.770152 -0.014601 0.808456 0
-0.066372 -0.001525 0.922650 0
-0.617273 0.274523 1.221357 0
-0.432177 -0.010329 0.606872 0
-0.147532 0.006068 1.308626 0
-0.907765 0.058710 1.009400 0
-0.112225 -0.008543 0.711767 0
-0.541833 0.046360 1.552580 0
-0.682614 -0.002170 0.640520 0
0.002350 0.014049 1.061423 0
-0.629745 0.463103 1.025821 0
-0.276809 -0.011178 0.559595 0
-0.246203 0.002543 1.523802 0
-0.949219 0.004332 0.837669 0
0.011168 -0.006184 0.802284 0
-0.607611 0.304227 1.379564 0
-0.533901 -0.001791 0.517197 0
0.003082 0.015164 1.264558 0
-0.895385 0.265896 1.030534 0
-0.112888 -0.005533 0.579865 0
-0.438105 0.015560 1.713366 0
-0.863485 -0.017151 0.640922 0
0.097546 0.015903 0.949460 0
-0.602822 0.553747 1.107309 0
-0.355853 -0.013902 0.457709 0
-0.080940 0.014845 1.508544 0
-1.113105 0.038168 0.934380 0
0.033731 -0.005056 0.668861 0
-0.564557 0.267806 1.572859 0
-0.692286 -0.022926 0.480919 0
0.124727 0.016242 1.164415 0
-0.570277 0.712055 0.859209 0
-0.162974 -0.002423 0.462947 0
-0.267966 0.014395 1.762900 0
-1.059905 -0.016976 0.700537 0
0.147349 0.001848 0.820306 0
-0.560115 0.593423 1.220562 0
-0.476933 -0.015984 0.386567 0
0.073190 0.007090 1.437325 0
-0.599121 0.717462 0.702000 0
0.011359 -0.003162 0.537845 0
-0.521662 0.096096 1.879317 0
-0.870031 -0.017047 0.487295 0
0.210038 0.015221 1.029045 0
-0.648420 0.674395 1.041283 0
-0.254388 -0.003786 0.365977 0
-0.076734 0.028092 1.714512 0
-0.613049 0.661076 0.557841 0
0.156507 0.007426 0.675091 0
-0.612702 0.440518 1.543101 0
-0.634725 -0.018145 0.349304 0
0.202343 0.011913 1.303981 0
-0.585359 0.803299 0.768687 0
-0.049310 0.001485 0.417207 0
-1.092334 -0.031531 0.550761 0
0.256036 0.015181 0.875217 0
-0.590803 0.724926 1.143311 0
-0.383497 -0.009630 0.292575 0
0.098147 0.003192 1.634259 0
-0.605304 0.775342 0.607593 0
0.126688 -0.005300 0.537854 0
-0.543732 0.336517 1.789263 0
-0.833182 -0.030206 0.352315 0
0.293917 0.018346 1.139163 0
-0.712232 0.738535 0.979337 0
-0.147617 -0.007658 0.314040 0
-0.124925 0.034465 1.944340 0
-0.633323 0.663282 0.470499 0
0.263562 0.011128 0.718273 0
-0.713214 0.534799 1.542495 0
-0.550254 -0.021108 0.247275 0
0.246952 0.020129 1.463723 0
-0.645644 0.819926 0.708041 0
0.062450 -0.001743 0.406571 0
-1.048470 -0.020188 0.400951 0
0.345565 0.017687 0.964866 0
-0.633746 0.811483 1.067314 0
-0.277443 -0.007949 0.230380 0
0.084757 0.034176 1.822067 0
-0.626564 0.786372 0.526199 0
0.234821 0.004658 0.565746 0
-0.422487 0.003826 1.028193 0
-0.501950 0.046719 1.026277 0
-0.327691 0.002129 0.916706 0
-0.434254 0.002903 1.213150 0
-0.547947 -0.003411 0.899185 0
-0.217430 -0.005258 1.025974 0
-0.580311 0.108545 1.149712 0
-0.369489 -0.006566 0.781089 0
-0.283256 0.009052 1.255305 0
-0.608240 0.174790 0.896542 0
-0.164000 0.005584 0.861509 0
-0.570868 -0.000161 1.400981 0
-0.529298 -0.002770 0.737068 0
-0.122018 0.004233 1.139871 0
-0.644056 0.261686 1.036612 0
-0.237312 -0.001539 0.707387 0
-0.363424 -0.011630 1.462313 0
-0.748156 -0.006878 0.830190 0
-0.047516 0.002542 0.932251 0
-0.611769 0.245347 1.266578 0
-0.416874 -0.004181 0.623972 0
-0.119672 0.016606 1.313652 0
-0.847008 0.110915 1.007266 0
-0.097022 -0.003820 0.722795 0
-0.526125 0.016220 1.600220 0
-0.678108 -0.018119 0.668480 0
0.024068 0.022303 1.066848 0
-0.632835 0.432464 1.071215 0
-0.262959 -0.004043 0.573810 0
-0.214232 0.010551 1.531238 0
-0.947220 -0.016656 0.874680 0
0.027812 0.000896 0.809717 0
-0.592782 0.285005 1.419118 0
-0.524723 -0.006042 0.538795 0
0.028637 0.023596 1.268573 0
-0.815767 0.332090 1.012705 0
-0.100907 -0.004460 0.592333 0
-0.409909 0.002718 1.744214 0
-0.849000 -0.016681 0.667564 0
0.116148 0.018021 0.956826 0
-0.580911 0.552972 1.128513 0
-0.343015 -0.005675 0.473845 0
-0.051471 0.016198 1.518742 0
-1.077573 0.055479 0.956680 0
0.047416 -0.000945 0.677511 0
-0.547271 0.244986 1.617966 0
-0.677102 -0.015507 0.503369 0
0.147190 0.014952 1.172978 0
-0.583419 0.679711 0.905762 0
-0.153227 -0.001927 0.476673 0
-0.239084 -0.003600 1.796367 0
-1.032901 -0.003231 0.726389 0
0.163327 0.001825 0.827907 0
-0.617337 0.493688 1.351144 0
-0.465994 -0.010965 0.405833 0
0.101151 0.010211 1.443350 0
-0.588995 0.712370 0.725969 0
0.022303 -0.001973 0.548026 0
-0.497856 0.069989 1.929561 0
-0.874391 -0.039344 0.518577 0
0.229921 0.014013 1.035945 0
-0.615816 0.685278 1.051428 0
-0.246492 -0.003944 0.381653 0
-0.045667 0.016090 1.737912 0
-0.622297 0.638438 0.588691 0
0.169584 0.002000 0.684281 0
-0.592936 0.426015 1.581789 0
-0.624025 -0.013760 0.371781 0
0.227429 0.012314 1.309920 0
-0.579125 0.793976 0.796323 0
-0.040726 0.001387 0.428934 0
-1.072426 -0.023250 0.580088 0
0.272841 0.017261 0.879806 0
-0.579995 0.712361 1.178196 0
-0.379769 -0.017516 0.311198 0
0.129698 0.005138 1.640462 0
-0.595408 0.771909 0.630465 0
0.137203 -0.008301 0.546742 0
-0.528969 0.303628 1.853133 0
-0.820958 -0.025026 0.378455 0
0.315481 0.022591 1.141156 0
-0.710374 0.722537 1.017774 0
-0.140556 -0.006540 0.327681 0
-0.088556 0.028885 1.962944 0
-0.636353 0.649115 0.496956 0
0.277737 0.005574 0.725605 0
-0.710811 0.503985 1.607148 0
-0.541983 -0.016974 0.268616 0
0.274813 0.024928 1.465034 0
-0.631600 0.818516 0.730455 0
0.070078 -0.008587 0.417032 0
-1.041587 -0.024096 0.432089 0
0.364080 0.017682 0.968626 0
-0.599381 0.821627 1.075055 0
-0.271541 -0.006476 0.246655 0
0.119630 0.032013 1.832639 0
-0.624510 0.777487 0.551720 0
0.245837 0.005968 0.571633 0
-0.409408 -0.002560 1.043127 0
-0.487184 0.044298 1.039455 0
-0.314367 -0.001617 0.929642 0
-0.408555 0.023568 1.210743 0
-0.532088 -0.002431 0.911232 0
-0.201176 -0.000916 1.034107 0
-0.565018 0.105515 1.163542 0
-0.358258 -0.013606 0.795413 0
-0.269390 -0.000031 1.271979 0
-0.599210 0.164397 0.914256 0
-0.152862 -0.005232 0.876478 0
-0.546307 0.011125 1.403661 0
-0.512901 0.001750 0.748298 0
-0.108761 -0.006655 1.156282 0
-0.637787 0.246818 1.058358 0
-0.225814 -0.006470 0.720049 0
-0.342566 -0.005194 1.467577 0
-0.731759 -0.006038 0.843661 0
-0.034221 -0.001600 0.943830 0
-0.653721 0.152581 1.354856 0
-0.405796 -0.008858 0.637571 0
-0.104136 0.010989 1.327308 0
-0.834920 0.103753 1.024854 0
-0.083209 0.002069 0.731077 0
-0.509243 0.009933 1.616985 0
-0.661757 -0.014854 0.681398 0
0.037134 0.008212 1.083911 0
-0.625256 0.421091 1.091495 0
-0.251478 -0.006075 0.585788 0
-0.199241 -0.002163 1.552130 0
-0.929395 -0.015931 0.889198 0
0.040455 -0.002029 0.820208 0
-0.587400 0.264659 1.449791 0
-0.511785 -0.005900 0.552020 0
0.042331 0.002206 1.292518 0
-0.567018 0.599193 0.845074 0
-0.089878 -0.008148 0.603683 0
-0.388408 0.005190 1.752023 0
-0.833073 -0.015862 0.682240 0
0.128930 -0.000733 0.974721 0
-0.585351 0.527554 1.163091 0
-0.336690 -0.020590 0.488540 0
-0.036830 -0.004205 1.545566 0
-1.061515 0.052566 0.973255 0
0.059466 -0.000664 0.686835 0
-0.530024 0.240824 1.632819 0
-0.657297 -0.004371 0.515664 0
0.161883 -0.003518 1.193089 0
-0.631926 0.612965 0.971712 0
-0.143675 -0.008516 0.488762 0
-0.216962 0.002471 1.799671 0
-1.016737 -0.004071 0.742471 0
0.176109 -0.002678 0.838258 0
-0.636993 0.446921 1.413510 0
-0.454853 -0.012318 0.419226 0
0.117312 -0.007553 1.466297 0
-0.574918 0.712326 0.737336 0
0.033067 -0.005418 0.558503 0
-0.856297 -0.034268 0.533201 0
0.244143 0.014914 1.043476 0
-0.594709 0.690053 1.056671 0
-0.236746 -0.007290 0.393810 0
-0.027891 0.005213 1.757909 0
-0.585505 0.662935 0.590817 0
0.181340 -0.003619 0.694640 0
-0.581745 0.414693 1.605762 0
-0.610016 -0.010491 0.385853 0
0.243724 0.007554 1.321301 0
-0.569806 0.789105 0.810796 0
-0.031609 -0.007023 0.440402 0
-1.057227 -0.024418 0.596977 0
0.286451 0.007058 0.892149 0
-0.564753 0.710695 1.189469 0
-0.368011 -0.014932 0.323954 0
0.148117 0.000106 1.653505 0
-0.591924 0.762523 0.647313 0
0.148400 -0.003020 0.554652 0
-0.509991 0.300149 1.867375 0
-0.806656 -0.023564 0.394010 0
0.331768 0.005578 1.159176 0
-0.734518 0.687255 1.064100 0
-0.131086 -0.009114 0.339065 0
-0.070562 0.012432 1.991330 0
-0.594232 0.678745 0.500467 0
0.289687 0.007059 0.733074 0
-0.691060 0.503291 1.617599 0
-0.528260 -0.011745 0.282605 0
0.292900 0.009256 1.485838 0
-0.636537 0.802254 0.753511 0
0.079843 -0.013429 0.427271 0
-1.020727 -0.016917 0.448076 0
0.378717 0.009132 0.980208 0
-0.587902 0.817180 1.089595 0
-0.262129 -0.008062 0.258976 0
0.138329 0.007175 1.868074 0
-0.621884 0.767915 0.568262 0
0.256948 0.001303 0.580989 0
-0.390184 -0.004839 1.052331 0
-0.475409 0.025931 1.059131 0
-0.297624 -0.004308 0.937774 0
-0.387313 0.018184 1.221293 0
-0.515145 -0.004462 0.923003 0
-0.180110 0.005755 1.034892 0
-0.564650 0.063459 1.201886 0
-0.337388 0.001754 0.797976 0
-0.245175 0.000535 1.275641 0
-0.578030 0.168865 0.924471 0
-0.136741 -0.005515 0.880857 0
-0.524594 -0.001078 1.421301 0
-0.497397 0.003499 0.758939 0
-0.083931 0.011107 1.147422 0
-0.630914 0.224422 1.085663 0
-0.209321 0.004283 0.722822 0
-0.311490 0.003327 1.464508 0
-0.712727 -0.002932 0.857105 0
-0.016419 0.003002 0.943505 0
-0.645588 0.121476 1.391262 0
-0.392938 -0.007351 0.646871 0
-0.080153 0.008766 1.329656 0
-0.787939 0.138376 1.020985 0
-0.070577 -0.001451 0.735898 0
-0.484990 -0.006205 1.637568 0
-0.645538 -0.010351 0.694138 0
0.056355 0.006356 1.084768 0
-0.631977 0.382052 1.134931 0
-0.239569 -0.002890 0.592185 0
-0.169960 -0.001155 1.551888 0
-0.909051 -0.013509 0.906129 0
0.054932 -0.003314 0.821786 0
-0.570757 0.244026 1.478542 0
-0.500301 -0.004429 0.563568 0
0.065567 0.002810 1.290445 0
-0.491703 0.666155 0.812517 0
-0.079034 -0.008691 0.608011 0
-0.347028 0.025066 1.734098 0
-0.808986 -0.001151 0.694942 0
0.146157 0.001217 0.972536 0
-0.576520 0.507717 1.193004 0
-0.319333 0.002136 0.493620 0
-0.008693 -0.004138 1.543301 0
-1.045534 0.046965 0.996284 0
0.071382 -0.003081 0.688837 0
-0.516945 0.205920 1.677167 0
-0.643782 0.001202 0.529155 0
0.182839 -0.001648 1.188793 0
-0.700140 0.517330 1.065345 0
-0.133311 -0.002266 0.493205 0
-0.181333 0.009457 1.791078 0
-0.996780 0.001187 0.760868 0
0.190646 -0.004147 0.837426 0
-0.624411 0.424842 1.447684 0
-0.444446 -0.006997 0.429721 0
0.143449 -0.004091 1.459183 0
-0.571747 0.698920 0.760355 0
0.042832 -0.006345 0.560858 0
-0.823902 -0.003345 0.544943 0
0.262315 0.008844 1.043107 0
-0.602071 0.658594 1.100726 0
-0.229837 -0.008508 0.401284 0
0.005310 0.013893 1.744821 0
-1.143200 0.059792 0.867706 0
0.193369 -0.001205 0.692999 0
-0.564213 0.392248 1.640438 0
-0.600175 -0.006410 0.399411 0
0.266408 0.012420 1.312356 0
-0.557766 0.783228 0.829335 0
-0.023263 -0.003745 0.443576 0
-1.039770 -0.018614 0.616906 0
0.302224 -0.002948 0.892875 0
-0.547617 0.701261 1.210738 0
-0.355511 0.001825 0.332742 0
0.177771 0.019618 1.628746 0
-0.588213 0.752325 0.668484 0
0.157939 -0.003875 0.554961 0
-0.493538 0.263199 1.919882 0
-0.797778 -0.022290 0.411270 0
0.351887 0.000745 1.156213 0
-0.702580 0.693900 1.071554 0
-0.125425 -0.011019 0.344753 0
-0.035133 0.006058 1.992837 0
-0.590752 0.670867 0.519082 0
0.302279 0.003843 0.731166 0
-0.670259 0.487251 1.647579 0
-0.520378 -0.006819 0.295126 0
0.318589 0.006622 1.480429 0
-0.620438 0.801049 0.769826 0
0.087102 -0.015110 0.429106 0
-1.016268 -0.023065 0.470105 0
0.396582 -0.002749 0.980351 0
-0.579007 0.803174 1.118241 0
-0.257513 -0.008444 0.266988 0
0.171576 0.014444 1.851804 0
-0.613237 0.763974 0.586502 0
0.266817 -0.000237 0.579473 0
-0.356411 0.014226 1.045629 0
-0.453680 0.014242 1.070249 0
-0.274288 -0.005677 0.941495 0
-0.361849 0.008426 1.229973 0
-0.489193 -0.002404 0.928154 0
-0.157260 -0.001843 1.039877 0
-0.556657 0.021069 1.234815 0
-0.317105 -0.001797 0.803745 0
-0.218270 -0.007676 1.281347 0
-0.563254 0.151220 0.940798 0
-0.115922 -0.010733 0.884303 0
-0.492189 -0.004501 1.426040 0
-0.475756 0.003005 0.766012 0
-0.058987 0.004688 1.150343 0
-0.621524 0.194897 1.111785 0
-0.191057 -0.000481 0.727391 0
-0.281149 -0.004697 1.470256 0
-0.687113 -0.002542 0.866151 0
0.005611 -0.000155 0.944311 0
-0.623775 0.100567 1.412318 0
-0.371871 -0.002731 0.651608 0
-0.052494 0.000348 1.333453 0
-0.746773 0.155328 1.020307 0
-0.051511 -0.002422 0.737229 0
-0.442821 0.004224 1.627313 0
-0.623321 -0.009652 0.703253 0
0.081625 0.014629 1.077785 0
-0.628080 0.347592 1.168448 0
-0.222520 -0.004384 0.596532 0
-0.139090 -0.012342 1.558432 0
-0.861513 0.013058 0.905823 0
0.074969 -0.005702 0.821606 0
-0.570755 0.185723 1.537403 0
-0.480647 -0.001742 0.570932 0
0.092882 -0.003706 1.291208 0
-0.586128 0.526420 0.916175 0
-0.061434 -0.006329 0.609025 0
-0.314319 0.010507 1.745586 0
-0.786594 -0.002349 0.706974 0
0.168652 0.003127 0.968654 0
-0.596152 0.443855 1.258564 0
-0.304159 -0.000579 0.499641 0
0.024158 -0.000642 1.535429 0
-1.008954 0.052991 1.005651 0
0.089538 -0.001732 0.687608 0
-0.519078 0.131256 1.758369 0
-0.624981 0.001317 0.539379 0
0.208740 0.013870 1.174541 0
-0.638070 0.553742 1.041929 0
-0.117668 -0.001054 0.495767 0
-0.147918 -0.007819 1.803487 0
-0.971643 -0.000284 0.775219 0
0.210814 -0.009741 0.836586 0
-0.616619 0.388451 1.490135 0
-0.430909 -0.011977 0.437993 0
0.173798 -0.002385 1.451919 0
-0.580987 0.666989 0.790250 0
0.059644 0.001104 0.559254 0
-0.802589 -0.002143 0.557501 0
0.285443 0.011302 1.037023 0
-0.594259 0.636505 1.128437 0
-0.215532 -0.008076 0.405692 0
0.041521 0.019464 1.732355 0
-1.090193 0.084485 0.871854 0
0.211216 -0.004437 0.691368 0
-0.552536 0.353162 1.688153 0
-0.584473 -0.007107 0.409633 0
0.294035 0.009009 1.308502 0
-0.551115 0.767724 0.849995 0
-0.009349 -0.005814 0.445060 0
-1.013722 -0.016068 0.631710 0
0.322239 0.009332 0.882906 0
-0.688923 0.515936 1.438291 0
-0.346153 -0.009142 0.340027 0
0.210434 0.002955 1.636629 0
-0.595086 0.726852 0.693451 0
0.173710 -0.001737 0.552787 0
-0.777866 -0.019072 0.423951 0
0.376905 -0.000434 1.150434 0
-0.657856 0.707232 1.064109 0
-0.112916 -0.012692 0.347818 0
0.006559 0.018336 1.969446 0
-0.416953 0.834347 0.475055 0
0.320641 0.003109 0.727189 0
-0.645136 0.469661 1.670346 0
-0.508607 -0.010788 0.304553 0
0.349028 0.001254 1.476824 0
-0.596544 0.801892 0.778503 0
0.100650 -0.018805 0.429053 0
-0.986483 -0.011914 0.484406 0
0.417553 0.005952 0.969830 0
-0.570881 0.783920 1.145981 0
-0.246730 -0.012269 0.272241 0
0.207956 0.018598 1.837751 0
-0.603265 0.756043 0.601752 0
0.282909 -0.002973 0.576689 0
-0.347612 0.000959 1.071277 0
-0.439765 0.013862 1.090508 0
-0.262123 -0.006128 0.958558 0
-0.346200 0.005697 1.250794 0
-0.476661 -0.000985 0.947819 0
-0.143762 -0.003885 1.056131 0
-0.546466 0.008898 1.265260 0
-0.306548 -0.000537 0.820547 0
-0.200729 -0.008311 1.298618 0
-0.556883 0.141632 0.967166 0
-0.105000 -0.013779 0.899768 0
-0.469388 0.002642 1.442125 0
-0.465491 0.004900 0.785131 0
-0.043534 0.002295 1.165641 0
-0.612476 0.186610 1.140067 0
-0.181949 -0.000161 0.742384 0
-0.259792 -0.002249 1.486733 0
-0.669013 0.009780 0.884354 0
0.018505 0.001596 0.955776 0
-0.615067 0.083233 1.450802 0
-0.365729 -0.006765 0.670670 0
-0.033312 0.002551 1.346132 0
-0.568434 0.388200 0.907516 0
-0.041784 0.000084 0.749241 0
-0.423114 -0.002746 1.655561 0
-0.611618 -0.003573 0.723480 0
0.096896 0.019154 1.086577 0
-0.614595 0.345595 1.192929 0
-0.215555 -0.004315 0.611961 0
-0.114609 -0.002278 1.566133 0
-0.857291 0.003450 0.936533 0
0.085916 -0.003562 0.831707 0
-0.553025 0.180469 1.566082 0
-0.476158 -0.005878 0.591483 0
0.111754 0.003277 1.298115 0
-0.687966 0.388640 1.034411 0
-0.054862 -0.010009 0.622761 0
-0.288862 0.012427 1.763783 0
-0.781615 -0.007301 0.733334 0
0.181881 0.002693 0.978543 0
-0.594339 0.424969 1.299677 0
-0.298149 0.001226 0.516000 0
0.045360 -0.009239 1.556630 0
-0.976299 0.077020 1.021541 0
0.097969 -0.003893 0.698714 0
-0.522713 0.077700 1.841937 0
-0.618602 0.002260 0.561126 0
0.225447 0.002312 1.191325 0
-0.612489 0.568125 1.052013 0
-0.111887 0.000632 0.509110 0
-0.118898 0.005038 1.807790 0
-0.966771 -0.005700 0.805104 0
0.221919 0.001963 0.840737 0
-0.596798 0.388706 1.513918 0
-0.427068 -0.013249 0.456883 0
0.195060 0.006167 1.456034 0
-0.566828 0.672436 0.807153 0
0.066201 0.001534 0.569955 0
-0.804268 -0.013534 0.584854 0
0.299678 0.016189 1.042343 0
-0.572182 0.645360 1.141320 0
-0.212081 -0.009825 0.421063 0
0.068267 0.032608 1.733372 0
-1.075948 0.088708 0.899778 0
0.219971 0.000100 0.698514 0
-0.530982 0.351226 1.714672 0
-0.577317 -0.000992 0.430114 0
0.312382 0.019090 1.309853 0
-0.567764 0.742548 0.891510 0
-0.004479 -0.004317 0.456691 0
-0.992891 0.000947 0.655561 0
0.334905 0.000855 0.893513 0
-0.678535 0.507140 1.474275 0
-0.346223 -0.017077 0.357848 0
0.234477 0.019347 1.632466 0
-0.593889 0.720887 0.717452 0
0.180153 -0.002943 0.561964 0
-0.763841 -0.003881 0.446397 0
0.392500 0.007331 1.152492 0
-0.610827 0.738664 1.053805 0
-0.109308 -0.010207 0.361127 0
0.037963 0.036703 1.963947 0
-1.125531 0.087504 0.759844 0
0.329975 0.004450 0.733504 0
-0.626539 0.465517 1.701859 0
-0.505931 -0.010049 0.324442 0
0.370968 0.000571 1.485637 0
-0.599409 0.792145 0.806828 0
0.104982 -0.020176 0.439274 0
-0.986425 -0.017992 0.513261 0
0.431512 0.003132 0.976814 0
-0.558712 0.782512 1.169794 0
-0.244754 -0.011866 0.287877 0
0.235431 0.021458 1.846749 0
-0.597598 0.755647 0.622240 0
0.289832 -0.002838 0.583835 0
-0.313726 0.005784 1.085045 0
-0.410898 0.003709 1.115438 0
-0.231224 0.002834 0.968679 0
-0.303846 0.018030 1.257931 0
-0.443490 0.009138 0.963918 0
-0.108708 0.014691 1.056553 0
-0.508359 0.006224 1.288392 0
-0.285098 -0.007709 0.839578 0
-0.155320 0.017168 1.291731 0
-0.533159 0.131176 0.996279 0
-0.078727 -0.011530 0.908640 0
-0.420674 0.011649 1.452780 0
-0.447117 -0.006109 0.810405 0
-0.006014 0.024538 1.158986 0
-0.605861 0.139119 1.197021 0
-0.162246 -0.005062 0.756750 0
-0.209976 0.013484 1.485217 0
-0.616619 0.052894 0.892483 0
0.046095 0.004451 0.960383 0
-0.580863 0.062313 1.490831 0
-0.346126 -0.005647 0.688921 0
0.008095 0.013627 1.343739 0
-0.696610 0.161600 1.069351 0
-0.020780 0.001220 0.757313 0
-0.366262 0.010667 1.657969 0
-0.588614 -0.001392 0.748680 0
0.127775 0.014512 1.092305 0
-0.612730 0.294462 1.259364 0
-0.197840 -0.001163 0.625331 0
-0.064451 0.013321 1.559213 0
-0.800499 0.041458 0.950904 0
0.109686 0.004384 0.832966 0
-0.523428 0.144642 1.621479 0
-0.458004 -0.003223 0.613065 0
0.149960 0.011008 1.294412 0
-0.649868 0.395779 1.056483 0
-0.037371 -0.006147 0.630961 0
-0.229383 0.029243 1.756961 0
-0.753612 0.000499 0.761765 0
0.209556 0.011605 0.975200 0
-0.638424 0.307404 1.438615 0
-0.289790 -0.015299 0.535947 0
0.092063 -0.003989 1.554256 0
-0.881511 0.151564 1.015306 0
0.117204 0.000193 0.701809 0
-0.603194 0.000347 0.588251 0
0.259473 0.008834 1.186076 0
-0.601641 0.542747 1.099195 0
-0.100436 -0.007944 0.521787 0
-0.060431 0.023791 1.793406 0
-0.924651 0.014763 0.833544 0
0.245131 0.002615 0.840651 0
-0.568235 0.360745 1.566708 0
-0.412762 -0.008692 0.477252 0
0.237508 0.015495 1.446963 0
-0.428073 0.796233 0.746576 0
0.080703 -0.002872 0.576453 0
-0.783106 -0.008878 0.616051 0
0.328719 0.020595 1.037241 0
-0.566439 0.611787 1.199769 0
-0.200969 -0.008235 0.435308 0
0.120022 0.034040 1.732263 0
-1.060202 0.072599 0.946865 0
0.238677 0.004852 0.697697 0
-0.513362 0.291215 1.808688 0
-0.565340 -0.000977 0.455902 0
0.349669 0.023361 1.302566 0
-0.680908 0.603468 1.037240 0
0.006248 -0.009243 0.465296 0
-0.971543 0.000906 0.693414 0
0.359205 0.005370 0.888200 0
-0.658821 0.474810 1.537603 0
-0.336948 -0.016167 0.376475 0
0.282464 0.017930 1.630004 0
-0.579067 0.714516 0.748244 0
0.194741 0.000782 0.563264 0
-0.748932 -0.001282 0.477544 0
0.424751 0.010332 1.144715 0
-0.586552 0.730196 1.087426 0
-0.100418 -0.008577 0.372324 0
0.095790 0.021973 1.980557 0
-1.122231 0.063543 0.810626 0
0.349592 0.005831 0.730215 0
-0.578982 0.456250 1.734133 0
-0.496551 -0.007704 0.348074 0
0.412935 0.008814 1.472019 0
-0.597191 0.772256 0.849307 0
0.115777 -0.019874 0.443743 0
-0.951412 0.005539 0.546894 0
0.458179 0.006412 0.968687 0
-0.688468 0.622180 1.400572 0
-0.239107 -0.014434 0.303594 0
0.289291 0.037037 1.824791 0
-0.587445 0.748270 0.653703 0
0.304974 -0.003259 0.582557 0
-0.285069 0.002186 1.098256 0
-0.381965 -0.002016 1.132035 0
-0.205159 0.001754 0.979021 0
-0.272543 0.008609 1.274368 0
-0.414553 0.012978 0.976932 0
-0.081727 0.008854 1.066291 0
-0.469003 0.012322 1.298605 0
-0.261395 -0.006117 0.850587 0
-0.122476 0.009606 1.303527 0
-0.522159 0.098408 1.031134 0
-0.053760 -0.007610 0.913380 0
-0.383305 0.004177 1.470218 0
-0.416798 0.010514 0.819852 0
0.023330 0.016114 1.167915 0
-0.611763 0.069908 1.262660 0
-0.138988 0.006499 0.761874 0
-0.171612 0.007214 1.496987 0
-0.575507 0.079280 0.900048 0
0.071652 0.008222 0.961941 0
-0.560416 0.020673 1.541403 0
-0.325130 -0.001280 0.701340 0
0.042690 0.007573 1.350732 0
-0.638900 0.201035 1.065215 0
-0.000653 0.001854 0.762656 0
-0.323144 0.003929 1.673075 0
-0.562217 0.006354 0.765435 0
0.156553 0.023752 1.088108 0
-0.614494 0.237521 1.324035 0
-0.179786 0.002466 0.634700 0
-0.024324 0.006330 1.568287 0
-0.716719 0.121412 0.935312 0
0.131336 0.003365 0.835554 0
-0.524797 0.054003 1.725342 0
-0.439051 -0.000810 0.629204 0
0.183506 0.008442 1.295820 0
-0.635221 0.374899 1.090986 0
-0.020805 -0.007471 0.637561 0
-0.183301 0.024795 1.766598 0
-0.726852 0.005137 0.783437 0
0.234799 0.007893 0.976406 0
-0.600806 0.302248 1.459492 0
-0.271440 -0.005326 0.546849 0
0.133109 0.003623 1.547317 0
-0.821235 0.187442 1.019477 0
0.135541 0.000993 0.703900 0
-0.583769 0.002960 0.608072 0
0.289789 0.014560 1.180117 0
-0.584633 0.525530 1.131995 0
-0.086106 -0.006608 0.529640 0
-0.013525 0.020816 1.797816 0
-0.895933 0.016819 0.859717 0
0.266599 0.010472 0.836549 0
-0.542456 0.332930 1.611726 0
-0.398183 -0.007294 0.493083 0
0.275225 0.005187 1.452159 0
-0.562576 0.624418 0.884904 0
0.096322 0.003584 0.578568 0
-0.756157 0.001752 0.638121 0
0.355826 0.015303 1.036475 0
-0.619684 0.509424 1.325131 0
-0.188698 -0.007427 0.446019 0
0.164559 0.022356 1.741924 0
-1.028675 0.072509 0.976387 0
0.256666 0.005963 0.696746 0
-0.500775 0.224811 1.903835 0
-0.550500 0.000319 0.475694 0
0.384349 0.011738 1.305837 0
-0.626682 0.627835 1.035196 0
0.019143 -0.004994 0.470224 0
-0.948220 0.000478 0.722490 0
0.380924 0.015714 0.879993 0
-0.622081 0.465674 1.563442 0
-0.324611 -0.012420 0.390540 0
0.324219 0.020364 1.622867 0
-0.573466 0.698814 0.778096 0
0.209337 0.001988 0.563680 0
-0.735838 -0.005710 0.502749 0
0.452225 0.022222 1.131646 0
-0.575178 0.710719 1.125233 0
-0.090433 -0.009117 0.380734 0
0.148421 0.043714 1.952083 0
-1.101894 0.054784 0.846064 0
0.368214 0.007598 0.726274 0
-0.556409 0.419913 1.796437 0
-0.486511 -0.009516 0.366744 0
0.448402 0.023223 1.453412 0
-0.595407 0.751503 0.885683 0
0.127816 -0.013442 0.445709 0
-0.932704 0.004695 0.576324 0
0.481518 0.015159 0.958163 0
-0.729492 0.539413 1.525019 0
-0.230393 -0.014300 0.315614 0
0.336683 0.029883 1.826262 0
-0.587486 0.730532 0.684122 0
0.319823 -0.000244 0.579796 0
-0.244436 0.005185 1.115993 0
-0.339428 0.000676 1.153420 0
-0.170474 0.002406 0.995563 0
-0.224232 0.013571 1.289119 0
-0.377598 0.017135 0.999816 0
-0.043257 0.013675 1.075477 0
-0.418988 0.015182 1.322011 0
-0.232940 -0.009611 0.871472 0
-0.074879 0.010590 1.315199 0
-0.499952 0.067242 1.077601 0
-0.021896 -0.004561 0.923288 0
-0.327992 0.003959 1.491677 0
-0.386556 0.013949 0.844185 0
0.065663 0.025138 1.169819 0
-0.580777 0.038830 1.315947 0
-0.113295 0.007719 0.776501 0
-0.114631 0.013914 1.504667 0
-0.539774 0.084753 0.929036 0
0.104826 0.010969 0.966917 0
-0.501955 0.018955 1.570328 0
-0.300997 0.000192 0.723389 0
0.092015 0.014151 1.351873 0
-0.607591 0.187536 1.107001 0
0.024547 0.002724 0.771995 0
-0.260645 0.001165 1.693566 0
-0.531434 0.013220 0.794537 0
0.194557 0.035387 1.084260 0
-0.607813 0.167251 1.415145 0
-0.159296 0.002925 0.651581 0
0.032646 -0.000314 1.581528 0
-0.539975 0.337859 0.861743 0
0.159158 0.005200 0.839153 0
-0.475393 0.017354 1.787770 0
-0.416287 0.003042 0.655415 0
0.229669 0.010317 1.295382 0
-0.630742 0.324908 1.161801 0
-0.001188 -0.010722 0.649092 0
-0.116596 0.025912 1.777609 0
-0.691258 0.015909 0.817312 0
0.267801 0.014723 0.973099 0
-0.565411 0.270278 1.521126 0
-0.253157 -0.001591 0.566948 0
0.189946 0.023762 1.531757 0
-0.566031 0.469998 0.889515 0
0.157957 0.000546 0.708471 0
-0.562135 0.004318 0.640709 0
0.329962 0.029397 1.168277 0
-0.598248 0.454590 1.227558 0
-0.069392 -0.002157 0.542375 0
0.054853 0.033166 1.790771 0
-0.851748 0.031817 0.897344 0
0.294052 0.012438 0.834850 0
-0.526295 0.257189 1.726349 0
-0.382145 -0.005633 0.518810 0
0.327263 0.008412 1.446409 0
-0.687852 0.442061 1.051090 0
0.113269 -0.003249 0.586249 0
-0.727380 0.010645 0.675323 0
0.390545 0.021611 1.028362 0
-0.635861 0.426047 1.446954 0
-0.175263 -0.004731 0.463471 0
0.228629 0.030236 1.733645 0
-0.972758 0.092362 1.014386 0
0.278585 0.007004 0.696160 0
-0.534450 0.001818 0.507565 0
0.429492 0.019215 1.293899 0
-0.603091 0.611909 1.082287 0
0.032440 -0.004256 0.479605 0
-0.909404 0.014859 0.764446 0
0.409111 0.023280 0.871432 0
-0.592204 0.425450 1.643383 0
-0.313988 -0.013217 0.413948 0
0.382867 0.023145 1.614608 0
-0.560440 0.684096 0.820366 0
0.226017 0.000056 0.565856 0
-0.709025 0.009408 0.539365 0
0.490989 0.024303 1.121642 0
-0.565008 0.677652 1.192006 0
-0.080398 -0.008010 0.394647 0
0.220966 0.047971 1.946165 0
-1.084759 0.035676 0.906472 0
0.390784 0.011714 0.720315 0
-0.537447 0.342905 1.931472 0
-0.476145 -0.009889 0.396639 0
0.503628 0.006282 1.457244 0
-0.623849 0.693943 0.967917 0
0.139922 -0.012636 0.450789 0
-0.903405 0.014805 0.620765 0
0.513161 0.018147 0.947261 0
-0.705443 0.500824 1.609041 0
-0.223499 -0.016515 0.335427 0
0.402483 0.039625 1.808851 0
-0.587366 0.707819 0.730843 0
0.337192 -0.001995 0.577548 0
-0.219231 0.007321 1.132093 0
-0.314023 0.000141 1.173597 0
-0.148722 0.003843 1.010120 0
-0.190727 0.029351 1.295193 0
-0.355494 0.018484 1.019779 0
-0.019293 0.016673 1.085866 0
-0.391225 0.009746 1.348092 0
-0.214210 -0.007704 0.887503 0
-0.043071 0.021749 1.320548 0
-0.492172 0.034676 1.120300 0
-0.001082 0.004540 0.930595 0
-0.291471 0.010063 1.506774 0
-0.373867 0.001701 0.869854 0
0.091405 0.022089 1.181045 0
-0.560355 0.020928 1.355350 0
-0.100991 -0.007797 0.795470 0
-0.076749 0.029142 1.506589 0
-0.519481 0.085732 0.953257 0
0.124954 0.002954 0.978740 0
-0.475811 -0.003317 1.615039 0
-0.286305 0.001252 0.741566 0
0.123609 0.025002 1.352963 0
-0.596058 0.166752 1.147087 0
0.040254 0.004935 0.781199 0
-0.216931 0.014682 1.699518 0
-0.515096 0.013074 0.819151 0
0.218330 0.021559 1.097833 0
-0.581432 0.157517 1.450658 0
-0.146563 0.004550 0.665904 0
0.071200 0.015374 1.578874 0
-0.587931 0.235198 0.940248 0
0.176509 0.009415 0.844007 0
-0.442654 -0.003890 1.834562 0
-0.402853 0.004855 0.676462 0
0.258977 0.017551 1.295760 0
-0.624444 0.297667 1.209947 0
0.012000 -0.003578 0.657856 0
-0.077823 0.009608 1.810033 0
-0.670017 0.022588 0.843478 0
0.288752 0.012785 0.977800 0
-0.549994 0.238741 1.579911 0
-0.241965 0.001637 0.583516 0
0.225836 0.006403 1.553690 0
-0.698652 0.267912 1.040411 0
0.171829 0.004735 0.713638 0
-0.547522 0.008432 0.665011 0
0.357650 0.013093 1.180749 0
-0.616066 0.395669 1.308960 0
-0.059406 0.000996 0.554153 0
0.097827 0.038347 1.796625 0
-0.824118 0.043148 0.925188 0
0.311378 0.009676 0.838817 0
-0.521698 0.194963 1.826279 0
-0.371752 -0.002343 0.538905 0
0.360297 0.015331 1.444194 0
-0.646758 0.464214 1.062093 0
0.123977 0.000262 0.593033 0
-0.710219 0.016241 0.703419 0
0.412782 0.023119 1.028244 0
-0.610999 0.416112 1.485536 0
-0.166230 0.001576 0.477807 0
0.269499 0.041588 1.728950 0
-0.907684 0.143392 1.022111 0
0.292066 0.005760 0.699718 0
-0.523310 0.006078 0.531537 0
0.460148 0.013303 1.298202 0
-0.593470 0.597205 1.121696 0
0.039502 -0.009472 0.490030 0
-0.888660 0.020829 0.796807 0
0.428885 0.012174 0.875869 0
-0.568888 0.405864 1.695893 0
-0.304678 -0.004536 0.431960 0
0.419609 0.034587 1.606510 0
-0.556708 0.670855 0.853643 0
0.235880 0.004884 0.569431 0
-0.700270 0.007158 0.569118 0
0.515558 0.026821 1.118412 0
-0.676606 0.529586 1.387473 0
-0.074486 -0.005969 0.407169 0
0.268631 0.027419 1.977706 0
-1.061556 0.039099 0.943905 0
0.405474 0.007080 0.721966 0
-0.508926 0.316115 1.997324 0
-0.468445 -0.006325 0.419549 0
0.538211 0.004822 1.457168 0
-0.667365 0.632013 1.049289 0
0.146903 -0.010440 0.457351 0
-0.878125 0.031723 0.650783 0
0.532044 0.025066 0.941436 0
-0.678005 0.490726 1.652509 0
-0.217746 -0.010867 0.351707 0
0.444716 0.048427 1.802102 0
-0.583227 0.698028 0.761390 0
0.347043 0.002613 0.578202 0
-0.176869 -0.001800 1.144723 0
-0.265105 0.005185 1.181458 0
-0.111130 -0.001562 1.018136 0
-0.139332 0.026704 1.301709 0
-0.318014 0.010533 1.037977 0
0.022645 0.019569 1.083606 0
-0.340874 -0.005335 1.371478 0
-0.181938 -0.012304 0.898339 0
0.007802 0.011711 1.325867 0
-0.454696 0.015968 1.150424 0
0.032831 -0.000143 0.932253 0
-0.229543 0.007975 1.514896 0
-0.336706 0.011601 0.881764 0
0.136796 0.023723 1.173941 0
-0.507816 0.010417 1.382534 0
-0.071282 -0.002937 0.798403 0
-0.018294 0.013672 1.517120 0
-0.492227 0.063696 0.986145 0
0.161400 0.009895 0.969398 0
-0.400867 0.010506 1.615101 0
-0.259135 0.001668 0.754410 0
0.176188 0.016961 1.349759 0
-0.600946 0.074871 1.232546 0
0.067804 0.004484 0.780039 0
-0.148038 0.006835 1.707861 0
-0.482673 0.014251 0.841123 0
0.259293 0.025603 1.084805 0
-0.546879 0.106853 1.515046 0
-0.124150 0.002131 0.673872 0
0.133562 0.000204 1.582720 0
-0.585465 0.176909 0.997796 0
0.206394 -0.005611 0.842196 0
-0.352754 0.023849 1.813566 0
-0.376798 0.008685 0.693779 0
0.308641 0.017343 1.281728 0
-0.613731 0.236035 1.283580 0
0.033729 -0.006862 0.659107 0
0.000185 0.031881 1.780741 0
-0.630079 0.032814 0.868279 0
0.324593 0.009341 0.966368 0
-0.529030 0.153482 1.685337 0
-0.223063 -0.000431 0.595766 0
0.287031 0.006401 1.538206 0
-0.667324 0.250416 1.081130 0
0.195921 -0.004138 0.709504 0
-0.519699 0.014669 0.688025 0
0.401911 0.013092 1.163382 0
-0.625542 0.302564 1.420919 0
-0.041915 0.000412 0.558196 0
0.169749 0.015518 1.806901 0
-0.744321 0.102136 0.932366 0
0.341183 0.005345 0.827162 0
-0.353715 -0.002078 0.556482 0
0.416579 0.010995 1.427724 0
-0.638018 0.419070 1.125129 0
0.143149 0.004884 0.587852 0
-0.683925 0.014207 0.735659 0
0.451516 0.014909 1.013762 0
-0.572930 0.378219 1.548199 0
-0.152309 -0.000267 0.486920 0
0.339356 0.025116 1.725829 0
-0.805936 0.214890 1.018644 0
0.315505 0.004836 0.688116 0
-0.504544 0.007170 0.555668 0
0.509306 0.012533 1.276086 0
-0.585107 0.551343 1.190541 0
0.054300 -0.006673 0.489339 0
-0.847736 0.031243 0.831518 0
0.460410 0.007969 0.859040 0
-0.548513 0.322905 1.818957 0
-0.291198 -0.002192 0.446721 0
0.484718 0.019426 1.596079 0
-0.545436 0.645859 0.898682 0
0.253620 0.003290 0.560728 0
-0.677040 0.010899 0.600190 0
0.553542 0.040215 1.087438 0
-0.669791 0.466271 1.485266 0
-0.063857 -0.007600 0.412250 0
0.347389 0.034823 1.946395 0
-1.001324 0.060429 0.978330 0
0.430685 -0.000012 0.707159 0
-0.456172 -0.007282 0.441918 0
0.586566 0.033495 1.407607 0
-0.616949 0.637919 1.072377 0
0.159710 -0.011959 0.452573 0
-0.868128 0.009672 0.696319 0
0.564630 0.028776 0.916664 0
-0.626279 0.463100 1.709374 0
-0.208819 -0.010128 0.363000 0
0.517051 0.039909 1.783500 0
-0.568362 0.683008 0.800070 0
0.365409 -0.001227 0.565033 0
-0.156769 0.006361 1.166414 0
-0.247866 0.000861 1.213962 0
-0.095153 0.004493 1.038435 0
-0.120199 0.009769 1.340495 0
-0.301059 0.018631 1.063960 0
0.039231 0.012865 1.106754 0
-0.314924 0.001635 1.400497 0
-0.169483 -0.005901 0.920507 0
0.033168 0.018340 1.343080 0
-0.444341 0.002389 1.194549 0
0.045715 0.000363 0.950126 0
