ply
format ascii 1.0
element vertex 1601
property float x
property float y
property float z
property uchar label
end_header
-0.614723 0.119339 1.143898 0
-0.082054 0.033420 1.205250 0
-0.533252 -0.011675 1.516819 0
-0.457149 0.028756 0.890670 0
-0.101493 0.028799 1.475733 0
-0.568230 0.315944 1.395686 0
-0.135191 0.016201 0.989851 0
-0.342238 0.020855 1.621216 0
-0.597811 0.189178 1.018327 0
0.005289 0.036007 1.322690 0
-0.516177 0.308285 1.576033 0
-0.324849 0.012588 0.796500 0
-0.137921 0.026070 1.604915 0
-0.610672 0.380674 1.291838 0
0.007250 0.040752 1.089479 0
-0.492542 0.005718 1.664116 0
-0.507681 0.222374 0.892618 0
0.027659 0.030645 1.469736 0
-0.571616 0.427224 1.526549 0
-0.140855 0.021531 0.817477 0
-0.241598 0.019488 1.708852 0
-0.627245 0.387150 1.127659 0
0.100663 0.026977 1.229843 0
-0.509382 0.305454 1.689872 0
-0.440393 0.019232 0.633485 0
-0.014215 0.035577 1.620440 0
-0.638800 0.472565 1.406190 0
0.032498 0.030331 0.929455 0
-0.397945 0.022173 1.769794 0
-0.717035 0.156673 0.771478 0
0.134139 0.029423 1.407313 0
-0.567256 0.455761 1.640459 0
-0.217588 0.015155 0.631602 0
-0.118766 0.030108 1.747269 0
-0.639859 0.529297 1.261384 0
0.157679 0.024628 1.097086 0
-0.513579 0.186726 1.782081 0
-0.608470 0.035247 0.517383 0
0.102236 0.036000 1.585963 0
-0.687942 0.470283 1.507973 0
0.003884 0.025244 0.746633 0
-0.280411 0.021274 1.834930 0
-0.590880 0.553271 1.096837 0
0.217446 0.028923 1.302453 0
-0.543953 0.444879 1.745967 0
-0.355685 0.017437 0.459590 0
0.008417 0.042733 1.743021 0
-0.751538 0.499695 1.329308 0
0.174530 0.039199 0.940896 0
-0.488329 0.020968 1.866926 0
0.207143 0.024915 1.508010 0
-0.676966 0.484495 1.632131 0
-0.081003 0.025762 0.552768 0
-0.144418 0.034998 1.862237 0
-0.611594 0.665531 1.233435 0
0.273738 0.022239 1.157741 0
-0.514256 0.382942 1.840195 0
0.129998 0.038522 1.698801 0
-0.769948 0.527868 1.462621 0
0.146161 0.028615 0.741446 0
-0.350322 0.028424 1.931053 0
0.294970 0.025654 1.395700 0
-0.660115 0.452668 1.747572 0
-0.227053 0.025332 0.356230 0
-0.008697 0.029588 1.852205 0
-0.754673 0.608975 1.281406 0
0.296082 0.026027 0.984714 0
-0.503340 0.214126 1.926588 0
0.243036 0.026631 1.617152 0
-0.789201 0.505738 1.590529 0
0.065332 0.030201 0.529962 0
-0.202712 0.030083 1.959361 0
-0.589382 0.745871 1.175762 0
0.360068 0.022842 1.247419 0
-0.580460 0.453955 1.858123 0
0.125287 0.038011 1.807415 0
-0.980717 0.446620 1.320778 0
0.277342 0.036017 0.787449 0
-0.450173 0.022946 2.005388 0
0.341478 0.024446 1.502179 0
-0.766515 0.479638 1.723876 0
-0.078204 0.016863 0.293292 0
-0.051366 0.036966 1.951964 0
-0.374324 0.035523 1.287619 0
-0.381671 0.027376 1.191100 0
-0.291399 0.023520 1.381458 0
-0.546666 0.010534 1.249271 0
-0.242067 0.021164 1.182587 0
-0.404089 0.021556 1.473509 0
-0.519848 0.013232 1.063841 0
-0.157018 0.031507 1.362904 0
-0.538881 0.150179 1.428587 0
-0.297143 0.016001 1.018210 0
-0.266031 0.024751 1.538686 0
-0.615883 0.138810 1.177863 0
-0.096614 0.022087 1.214703 0
-0.526875 0.016955 1.545104 0
-0.473871 0.027384 0.911549 0
-0.110352 0.027419 1.490039 0
-0.546722 0.366177 1.437972 0
-0.149656 0.021638 1.008972 0
-0.350755 0.013470 1.638302 0
-0.623513 0.169498 1.029540 0
-0.007336 0.021453 1.330220 0
-0.524324 0.306521 1.596497 0
-0.345291 0.004994 0.810713 0
-0.144612 0.025921 1.620055 0
-0.613616 0.392139 1.320967 0
-0.008694 0.027575 1.095617 0
-0.492301 0.017458 1.686409 0
-0.540243 0.192179 0.892409 0
0.018857 0.030820 1.482391 0
-0.573546 0.436043 1.551218 0
-0.161579 0.009339 0.825103 0
-0.244840 0.025773 1.726277 0
-0.630683 0.400681 1.160746 0
0.087463 0.009839 1.233828 0
-0.519844 0.296688 1.709078 0
-0.459990 0.019822 0.656252 0
-0.022121 0.024893 1.631750 0
-0.648923 0.471539 1.429058 0
0.013962 0.012296 0.930867 0
-0.403201 0.018104 1.788532 0
-0.710870 0.191688 0.826814 0
0.124314 0.026712 1.417342 0
-0.565442 0.467676 1.664543 0
-0.235843 0.024000 0.657119 0
-0.122617 0.034158 1.762425 0
-0.653805 0.526242 1.283413 0
0.143422 0.032411 1.111871 0
-0.526364 0.169162 1.801420 0
-0.621741 0.049284 0.556096 0
0.094955 0.032854 1.596710 0
-0.698261 0.466966 1.530598 0
-0.016103 0.020409 0.756765 0
-0.280659 0.030732 1.852407 0
-0.595037 0.565706 1.130673 0
0.205957 0.035149 1.314457 0
-0.551223 0.441575 1.766399 0
-0.383887 0.002028 0.466264 0
0.002745 0.034884 1.755103 0
-0.779642 0.479385 1.344010 0
0.157776 0.021660 0.940126 0
-0.487528 0.027526 1.887237 0
0.199036 0.020733 1.516672 0
-0.679224 0.489048 1.656383 0
-0.103138 0.025680 0.568495 0
-0.148037 0.031725 1.877330 0
-0.640508 0.647482 1.243515 0
0.259996 0.027397 1.168913 0
-0.516090 0.386038 1.860551 0
0.124388 0.032940 1.709058 0
-0.767598 0.538432 1.492313 0
0.126715 0.037053 0.759180 0
-0.352308 0.027162 1.949255 0
0.285974 0.015787 1.400716 0
-0.672698 0.442190 1.768932 0
-0.258076 0.002153 0.351656 0
-0.011381 0.033745 1.865404 0
-0.782876 0.591528 1.295980 0
0.279935 0.028026 0.994248 0
-0.503306 0.217910 1.946612 0
0.236038 0.034960 1.627853 0
-0.798628 0.501912 1.614577 0
0.042279 0.025802 0.539035 0
-0.205091 0.026203 1.975545 0
-0.603973 0.744510 1.198257 0
0.347371 0.028619 1.257087 0
-0.579389 0.460251 1.879351 0
0.121530 0.042060 1.818702 0
-0.996125 0.439546 1.346633 0
0.258845 0.028611 0.790710 0
-0.452267 0.018331 2.025347 0
0.334380 0.015273 1.507370 0
-0.784459 0.464289 1.745970 0
-0.052689 0.039673 1.965588 0
-0.419023 0.037423 1.314553 0
-0.429965 0.026772 1.216888 0
-0.331205 0.031968 1.408844 0
-0.576188 0.047983 1.295018 0
-0.290115 0.019226 1.204595 0
-0.442887 0.026799 1.502478 0
-0.566759 0.024994 1.099003 0
-0.199017 0.032600 1.384597 0
-0.540776 0.226147 1.483829 0
-0.352568 0.006045 1.036246 0
-0.302711 0.029913 1.564252 0
-0.606194 0.239572 1.259945 0
-0.142743 0.021388 1.234078 0
-0.521850 0.111652 1.596954 0
-0.498043 0.097559 0.984522 0
-0.149784 0.023949 1.509557 0
-0.562167 0.406311 1.483051 0
-0.199964 0.027271 1.032873 0
-0.382437 0.026318 1.667205 0
-0.641641 0.227320 1.096191 0
-0.048942 0.029655 1.351075 0
-0.533950 0.353288 1.637643 0
-0.399253 0.015944 0.842890 0
-0.180718 0.023031 1.641103 0
-0.619407 0.446634 1.378401 0
-0.057968 0.024299 1.111465 0
-0.523997 0.027091 1.718236 0
-0.581595 0.218421 0.939767 0
-0.019208 0.034846 1.500799 0
-0.594901 0.460018 1.589222 0
-0.219273 0.004812 0.842556 0
-0.276619 0.030704 1.751191 0
-0.628145 0.470444 1.235447 0
0.043424 0.025911 1.256420 0
-0.541048 0.319081 1.742978 0
-0.526272 0.011691 0.675839 0
-0.056293 0.028963 1.650977 0
-0.684080 0.480429 1.464401 0
-0.037108 0.030085 0.959314 0
-0.436621 0.016110 1.817140 0
-0.643003 0.375791 1.003897 0
0.084023 0.021739 1.430481 0
-0.596031 0.473924 1.697034 0
-0.298905 0.017807 0.673893 0
-0.154193 0.034081 1.783745 0
-0.715435 0.507980 1.302689 0
0.095263 0.031190 1.125484 0
-0.529130 0.225809 1.836324 0
-0.547493 0.296535 0.808299 0
0.059585 0.031975 1.612079 0
-0.723001 0.485556 1.570175 0
-0.073175 0.025709 0.778425 0
-0.311469 0.028232 1.878087 0
-0.599166 0.619591 1.200959 0
0.163338 0.028872 1.324788 0
-0.574960 0.454188 1.799339 0
-0.453803 -0.004822 0.484323 0
-0.028560 0.034920 1.773180 0
-0.854554 0.449165 1.362308 0
0.105150 0.026486 0.957247 0
-0.508658 0.048925 1.918464 0
-0.830607 0.156425 0.619253 0
0.161617 0.017772 1.528891 0
-0.707303 0.499505 1.692534 0
-0.167050 0.021354 0.583925 0
-0.176640 0.032008 1.899625 0
-0.703324 0.630734 1.260016 0
0.213715 0.019426 1.176672 0
-0.527838 0.415274 1.892434 0
0.092058 0.032034 1.723847 0
-0.759746 0.589909 1.546875 0
0.068561 0.023054 0.763191 0
-0.380840 0.025660 1.977343 0
-0.603866 0.663811 1.103179 0
0.244993 0.021505 1.413529 0
-0.702137 0.447860 1.804288 0
-0.320593 0.024523 0.396406 0
-0.039693 0.034788 1.884063 0
-0.896532 0.529399 1.289622 0
0.229349 0.015269 0.997902 0
-0.515967 0.247541 1.976873 0
0.201758 0.032626 1.639475 0
-0.817493 0.523607 1.656557 0
-0.021199 0.025482 0.555288 0
-0.229347 0.034690 1.999149 0
-0.656983 0.739010 1.220158 0
0.302920 0.029216 1.266947 0
-0.599659 0.473425 1.912472 0
0.092133 0.039803 1.833655 0
-1.017273 0.465947 1.398382 0
0.202992 0.006811 0.786593 0
-0.475244 0.027570 2.055520 0
0.295921 0.021659 1.518728 0
-0.804339 0.482152 1.785530 0
-0.173624 0.018524 0.330738 0
-0.078151 0.042431 1.985396 0
-0.456160 0.024024 1.327633 0
-0.469264 0.018947 1.231577 0
-0.360562 0.026953 1.422160 0
-0.578267 0.108284 1.344657 0
-0.325563 0.022999 1.218523 0
-0.467953 0.022632 1.521277 0
-0.593779 0.053955 1.137892 0
-0.227615 0.033372 1.394172 0
-0.530431 0.290797 1.530046 0
-0.390109 0.024513 1.060461 0
-0.324846 0.025882 1.577505 0
-0.601942 0.304163 1.319631 0
-0.177476 0.023578 1.241115 0
-0.513689 0.168637 1.633099 0
-0.547532 0.092314 1.001252 0
-0.174607 0.016927 1.515256 0
-0.571658 0.430733 1.520251 0
-0.246942 0.015562 1.033060 0
-0.399220 0.024693 1.684517 0
-0.625474 0.319721 1.181299 0
-0.080056 0.022685 1.351185 0
-0.532220 0.386889 1.671798 0
-0.451022 0.018494 0.858661 0
-0.198996 0.020441 1.649767 0
-0.625866 0.479169 1.424543 0
-0.097628 0.028308 1.115199 0
-0.527529 0.049207 1.744277 0
-0.617540 0.241853 0.981137 0
-0.042756 0.036854 1.503522 0
-0.603926 0.476124 1.624100 0
-0.267020 0.021533 0.860408 0
-0.289976 0.028719 1.764200 0
-0.644296 0.498009 1.283044 0
0.008438 0.013353 1.249080 0
-0.539031 0.345409 1.773007 0
-0.515269 0.160974 0.815183 0
-0.075075 0.019225 1.653267 0
-0.708053 0.483103 1.499509 0
-0.086004 0.015191 0.949059 0
-0.445413 0.017605 1.836827 0
-0.586820 0.519302 1.143907 0
0.057525 0.023664 1.428537 0
-0.620477 0.461304 1.725263 0
-0.355959 0.026689 0.688891 0
-0.166425 0.031278 1.791680 0
-0.768888 0.485847 1.324829 0
0.055683 0.025635 1.117614 0
-0.523197 0.253861 1.862805 0
-0.653732 0.214129 0.756240 0
0.040369 0.030103 1.610825 0
-0.728673 0.503390 1.611499 0
-0.129816 0.013813 0.768290 0
-0.319647 0.024872 1.892497 0
-0.628373 0.631855 1.240273 0
0.132494 0.033671 1.320296 0
-0.584829 0.455348 1.828759 0
-0.512410 0.019039 0.518633 0
-0.041599 0.028827 1.775593 0
-0.876430 0.458057 1.407271 0
0.058613 0.020604 0.946543 0
-0.502587 0.073200 1.940680 0
-0.543382 0.620865 1.083936 0
0.139172 0.022836 1.524726 0
-0.746524 0.470891 1.722594 0
-0.231462 0.017034 0.580698 0
-0.182983 0.033420 1.908568 0
-0.768511 0.602030 1.274836 0
0.177141 0.013566 1.164064 0
-0.535115 0.414023 1.919201 0
0.077614 0.032671 1.721882 0
-0.803398 0.568175 1.577483 0
0.013037 0.010460 0.745902 0
-0.382278 0.028824 1.994182 0
-0.592250 0.725218 1.189218 0
0.217806 0.024637 1.405134 0
-0.691779 0.473091 1.840632 0
-0.395906 0.016317 0.392807 0
-0.047445 0.033869 1.887418 0
-0.995742 0.469255 1.296719 0
0.185003 0.025759 0.992471 0
-0.510488 0.262865 2.000313 0
-0.849956 0.196763 0.495130 0
0.183928 0.030089 1.632247 0
-0.820211 0.537410 1.699879 0
-0.085562 0.021743 0.545567 0
-0.232254 0.031859 2.010176 0
-0.713948 0.722759 1.239642 0
0.270247 0.027798 1.253554 0
-0.603181 0.475808 1.942549 0
0.082004 0.034827 1.831413 0
-0.996077 0.509562 1.465875 0
0.150178 0.011764 0.777165 0
-0.472211 0.031664 2.075618 0
-0.588057 0.743045 1.081868 0
0.273166 0.022756 1.507877 0
-0.798081 0.499733 1.826173 0
-0.081926 0.039196 1.990363 0
-0.455405 0.022464 1.352948 0
-0.467426 0.024045 1.260937 0
-0.359163 0.024890 1.444368 0
-0.583205 0.093258 1.367396 0
-0.325475 0.029915 1.245321 0
-0.461024 0.027407 1.547083 0
-0.594611 0.053328 1.168736 0
-0.228433 0.028630 1.412467 0
-0.522932 0.297383 1.557447 0
-0.396832 0.017539 1.083267 0
-0.321162 0.022691 1.597791 0
-0.598367 0.307890 1.350832 0
-0.181619 0.017467 1.258195 0
-0.521852 0.137659 1.651399 0
-0.574978 0.042899 1.001881 0
-0.171532 0.020347 1.534129 0
-0.564032 0.436875 1.548728 0
-0.249369 0.030338 1.064834 0
-0.391607 0.025544 1.706578 0
-0.613188 0.340339 1.225354 0
-0.080361 0.030659 1.370843 0
-0.522149 0.394082 1.697154 0
-0.459061 0.016368 0.887646 0
-0.191492 0.031706 1.669487 0
-0.628498 0.471579 1.449968 0
-0.104245 0.023829 1.131504 0
-0.526492 0.029906 1.766459 0
-0.629644 0.228040 1.005363 0
-0.042009 0.032916 1.517415 0
-0.601908 0.470667 1.648530 0
-0.278872 0.012009 0.879187 0
-0.283061 0.025416 1.783041 0
-0.658689 0.477932 1.302411 0
0.004359 0.009699 1.262632 0
-0.542124 0.325671 1.794149 0
-0.518278 0.171565 0.856744 0
-0.070860 0.017429 1.668047 0
-0.701377 0.484245 1.529796 0
-0.096624 0.004756 0.962095 0
-0.433167 0.021923 1.859025 0
-0.596956 0.508982 1.168218 0
0.056973 0.023937 1.441648 0
-0.612489 0.461442 1.750415 0
-0.368882 0.022556 0.715291 0
-0.159382 0.028986 1.807934 0
-0.785622 0.461683 1.345521 0
0.048694 0.020533 1.129628 0
-0.528444 0.223803 1.884487 0
-0.658307 0.218312 0.798101 0
0.043502 0.031971 1.623866 0
-0.704643 0.522491 1.645645 0
-0.141748 0.015337 0.791910 0
-0.308774 0.026160 1.911663 0
-0.652086 0.604467 1.252377 0
0.129422 0.034022 1.332120 0
-0.575064 0.456400 1.852176 0
-0.531056 0.005038 0.542255 0
-0.034780 0.030999 1.789671 0
-0.758333 0.574727 1.495517 0
0.048298 0.015729 0.959206 0
-0.501018 0.047399 1.963778 0
-0.601433 0.550380 1.052804 0
0.140320 0.020276 1.534822 0
-0.747922 0.456865 1.748159 0
-0.246818 0.015040 0.606287 0
-0.174264 0.028106 1.924902 0
-0.785769 0.580621 1.295773 0
0.170953 0.016248 1.176777 0
-0.524809 0.414395 1.940909 0
0.082651 0.030747 1.733137 0
-0.831197 0.530220 1.595945 0
0.001352 0.033645 0.782399 0
-0.367516 0.034530 2.013745 0
-0.609012 0.708778 1.207562 0
0.216534 0.021792 1.413488 0
-0.679846 0.474187 1.866054 0
-0.038899 0.032176 1.901057 0
-1.009567 0.447475 1.324699 0
0.175191 0.028648 1.006347 0
-0.511304 0.236734 2.023734 0
-0.864191 0.187848 0.534158 0
0.186863 0.034860 1.642567 0
-0.823139 0.522403 1.726574 0
-0.102750 0.020058 0.567451 0
-0.220902 0.028922 2.027339 0
-0.745039 0.691252 1.249286 0
0.265628 0.027718 1.262113 0
-0.592199 0.475482 1.965151 0
0.089276 0.036163 1.842628 0
-0.920098 0.567153 1.527234 0
0.136403 0.014923 0.794058 0
-0.456182 0.033949 2.096596 0
-0.586055 0.748900 1.123186 0
0.273900 0.021622 1.515302 0
-0.788982 0.495454 1.853509 0
-0.263303 0.034369 0.375231 0
-0.071052 0.039611 2.004410 0
-0.468252 0.027996 1.385170 0
-0.481427 0.030550 1.294931 0
-0.372700 0.025794 1.472071 0
-0.560986 0.165081 1.426428 0
-0.343449 0.029210 1.273222 0
-0.479249 0.010448 1.572089 0
-0.599876 0.077620 1.215489 0
-0.243359 0.029187 1.437417 0
-0.511189 0.339577 1.597615 0
-0.411263 0.034016 1.123626 0
-0.329608 0.031487 1.625281 0
-0.592854 0.339877 1.396944 0
-0.197892 0.027013 1.287301 0
-0.509901 0.182724 1.688355 0
-0.598602 0.036453 1.034160 0
-0.185279 0.016253 1.555937 0
-0.569949 0.444233 1.579553 0
-0.272869 0.023346 1.089204 0
-0.401356 0.022852 1.732957 0
-0.617396 0.358456 1.268885 0
-0.097242 0.028560 1.391901 0
-0.531816 0.392073 1.723628 0
-0.480351 0.021765 0.926348 0
-0.204505 0.018638 1.689937 0
-0.639257 0.472883 1.481054 0
-0.124852 0.027816 1.157996 0
-0.521326 0.058152 1.798290 0
-0.647607 0.230713 1.043935 0
-0.055893 0.031870 1.537145 0
-0.605378 0.478252 1.678652 0
-0.302170 0.018090 0.914490 0
-0.291120 0.024109 1.807056 0
-0.677715 0.470987 1.331230 0
-0.013074 0.029345 1.291946 0
-0.531368 0.356873 1.824184 0
-0.526273 0.202500 0.917009 0
-0.080672 0.023138 1.688958 0
-0.712817 0.482381 1.560450 0
-0.118417 0.022992 0.999590 0
-0.444318 0.007780 1.885831 0
-0.612721 0.509583 1.201761 0
0.041401 0.026415 1.460789 0
-0.624198 0.454933 1.777518 0
-0.395070 0.025929 0.753343 0
-0.166951 0.028823 1.829280 0
-0.793023 0.467012 1.383427 0
0.027026 0.028850 1.155033 0
-0.504120 0.282261 1.912593 0
-0.691947 0.200668 0.823707 0
0.032128 0.040082 1.643027 0
-0.705180 0.531481 1.678122 0
-0.168128 0.022495 0.826441 0
-0.315655 0.020293 1.936070 0
-0.674500 0.594613 1.278374 0
0.111059 0.027696 1.347138 0
-0.575966 0.463621 1.879289 0
-0.556729 0.012474 0.590588 0
-0.042711 0.033482 1.808573 0
-0.748993 0.594789 1.536398 0
0.023298 0.027027 0.989253 0
-0.483489 0.097535 1.989685 0
-0.608368 0.564409 1.100029 0
0.126217 0.034901 1.554516 0
-0.756393 0.454451 1.778804 0
-0.276712 0.017298 0.642513 0
-0.178429 0.033185 1.946270 0
-0.806746 0.571589 1.325368 0
0.148955 0.024212 1.198632 0
-0.520006 0.430010 1.966119 0
-0.558445 0.367395 0.815643 0
0.073167 0.036204 1.750130 0
-0.841965 0.527289 1.628366 0
-0.028566 0.024946 0.801956 0
-0.373877 0.024797 2.039933 0
-0.634211 0.696964 1.230123 0
0.199759 0.019212 1.427706 0
-0.689930 0.467647 1.894730 0
-0.442016 0.023112 0.474996 0
-0.045273 0.027925 1.919588 0
-1.022176 0.445435 1.364012 0
0.149706 0.025990 1.024257 0
-0.497486 0.270446 2.047247 0
-0.902844 0.169637 0.565334 0
0.174939 0.036542 1.657271 0
-0.826316 0.525564 1.759349 0
-0.134706 0.023475 0.602132 0
-0.225687 0.021593 2.050301 0
-0.785071 0.665266 1.263971 0
0.245349 0.025708 1.276313 0
-0.597987 0.472625 1.992049 0
0.081691 0.026578 1.858068 0
-0.919633 0.574730 1.565785 0
0.106649 0.020804 0.821409 0
-0.457319 0.034787 2.123789 0
-0.595333 0.755364 1.163480 0
0.259687 0.014624 1.526657 0
-0.783758 0.506482 1.885022 0
-0.304862 0.010118 0.388964 0
-0.074908 0.038855 2.023529 0
-0.495455 0.024607 1.430084 0
-0.512083 0.026388 1.340796 0
-0.392397 0.036694 1.516527 0
-0.545709 0.241043 1.500344 0
-0.372412 0.034858 1.317719 0
-0.498105 0.011073 1.617272 0
-0.617183 0.103578 1.280403 0
-0.269085 0.028206 1.473563 0
-0.522607 0.352160 1.643851 0
-0.449322 0.027466 1.166995 0
-0.350223 0.023194 1.662271 0
-0.558287 0.435157 1.484853 0
-0.230013 0.023633 1.322018 0
-0.530422 0.171174 1.730510 0
-0.621133 0.065066 1.106116 0
-0.205683 0.020861 1.590262 0
-0.580444 0.456265 1.627762 0
-0.310236 0.025895 1.132178 0
-0.415060 0.023094 1.773809 0
-0.623630 0.392165 1.337875 0
-0.124968 0.030890 1.423643 0
-0.536613 0.407600 1.768394 0
-0.510136 0.050533 0.997266 0
-0.220530 0.019691 1.723285 0
-0.663667 0.468026 1.527624 0
-0.162800 0.021196 1.189328 0
-0.518965 0.088452 1.845038 0
-0.623318 0.327913 1.163485 0
-0.079396 0.026000 1.563751 0
-0.630957 0.462886 1.720592 0
-0.349005 0.009340 0.954228 0
-0.303905 0.019647 1.842884 0
-0.709275 0.462767 1.378990 0
-0.046688 0.017899 1.315751 0
-0.529915 0.378026 1.867578 0
-0.571962 0.194296 0.964938 0
-0.098051 0.019019 1.716568 0
-0.714689 0.501658 1.616839 0
-0.162004 0.018461 1.033403 0
-0.450423 0.013069 1.927927 0
-0.631868 0.523949 1.262878 0
0.015449 0.030562 1.486780 0
-0.622636 0.473429 1.824621 0
-0.449042 0.012468 0.795150 0
-0.178770 0.025494 1.860129 0
-0.798839 0.485568 1.448164 0
-0.011192 0.026323 1.182200 0
-0.520133 0.265187 1.954530 0
-0.675266 0.292843 0.959720 0
0.012922 0.038099 1.666421 0
-0.748840 0.496126 1.719347 0
-0.218374 0.015771 0.862969 0
-0.321244 0.024196 1.972681 0
-0.731778 0.559331 1.307607 0
0.080004 0.027150 1.369850 0
-0.581516 0.467978 1.922017 0
-0.574678 0.085309 0.714589 0
-0.055619 0.028572 1.834324 0
-0.771299 0.589742 1.585836 0
-0.021602 0.021209 1.016522 0
-0.481796 0.112100 2.031111 0
-0.608089 0.606337 1.187593 0
0.103282 0.033801 1.574805 0
-0.756608 0.466802 1.830488 0
-0.326553 0.032770 0.704550 0
-0.186164 0.028136 1.977560 0
-0.957370 0.443744 1.307864 0
0.111829 0.020569 1.219865 0
-0.523718 0.433547 2.006405 0
-0.678442 0.244542 0.759293 0
0.058039 0.032493 1.771354 0
-0.839162 0.544519 1.687218 0
-0.079730 0.024614 0.837673 0
-0.377719 0.021455 2.079121 0
-0.684012 0.673283 1.262689 0
0.171614 0.016258 1.445422 0
-0.691086 0.475543 1.941751 0
-0.504294 0.013257 0.525354 0
-0.053257 0.028628 1.945510 0
-0.966332 0.515825 1.462784 0
0.105647 0.023144 1.047713 0
-0.509386 0.251760 2.090845 0
-0.610488 0.601205 1.056714 0
0.155996 0.034261 1.674840 0
-0.818113 0.544925 1.814406 0
-0.195567 0.006818 0.631850 0
-0.225236 0.035603 2.081858 0
-0.886302 0.594362 1.269897 0
0.210508 0.028683 1.295758 0
-0.608339 0.464225 2.036037 0
0.071381 0.045174 1.879709 0
-0.851333 0.649414 1.648141 0
0.055056 0.022791 0.852898 0
-0.454943 0.039853 2.165005 0
-0.629747 0.750269 1.210110 0
0.234197 0.025722 1.545068 0
-0.775757 0.523173 1.935399 0
-0.365196 0.019228 0.453762 0
-0.078744 0.040341 2.050280 0
-0.518006 0.013951 1.455013 0
-0.532693 0.026501 1.370019 0
-0.412011 0.026106 1.538588 0
-0.543543 0.275937 1.540483 0
-0.400068 0.017264 1.335676 0
-0.509188 0.015223 1.645918 0
-0.600422 0.177379 1.345432 0
-0.289771 0.016100 1.491280 0
-0.517438 0.383565 1.678466 0
-0.478594 0.018652 1.190640 0
-0.364319 0.015928 1.684282 0
-0.580302 0.426127 1.510349 0
-0.254646 0.012768 1.338373 0
-0.535100 0.181314 1.759869 0
-0.607639 0.143194 1.182571 0
-0.220076 0.020275 1.609176 0
-0.585509 0.467225 1.659677 0
-0.340767 0.015075 1.150465 0
-0.424457 0.020452 1.798495 0
-0.624029 0.421933 1.384716 0
-0.146343 0.018700 1.436664 0
-0.529148 0.434874 1.799182 0
-0.542966 0.045179 1.024693 0
-0.231675 0.016025 1.741986 0
-0.678557 0.467785 1.559494 0
-0.190963 0.010814 1.203462 0
-0.515463 0.110619 1.873679 0
-0.629210 0.358300 1.215343 0
-0.096297 0.013963 1.576152 0
-0.641801 0.461001 1.750488 0
-0.381777 0.008051 0.979514 0
-0.309369 0.024067 1.864542 0
-0.714603 0.479548 1.421432 0
-0.070108 0.011975 1.328484 0
-0.525569 0.395946 1.895229 0
-0.595249 0.208851 1.007989 0
-0.110374 0.007812 1.730543 0
-0.709373 0.522800 1.655815 0
-0.191887 0.022814 1.055899 0
-0.455344 0.010424 1.953721 0
-0.661636 0.513859 1.288705 0
-0.003205 0.018461 1.495839 0
-0.627475 0.476010 1.854451 0
-0.484589 0.014994 0.827155 0
-0.185563 0.023402 1.877691 0
-0.738580 0.571203 1.522102 0
-0.038015 0.026312 1.196771 0
-0.509970 0.291935 1.980453 0
-0.590163 0.467614 1.130311 0
-0.000584 0.022601 1.675923 0
-0.768577 0.483556 1.750812 0
-0.253321 0.018196 0.887283 0
-0.324943 0.021297 1.994584 0
-0.785185 0.522323 1.319706 0
0.058491 0.025247 1.380183 0
-0.582489 0.472685 1.950131 0
-0.537915 0.235226 0.873795 0
-0.063150 0.026894 1.848187 0
-0.818424 0.553679 1.608266 0
-0.052544 0.028683 1.036752 0
-0.489117 0.096926 2.058710 0
-0.612271 0.630878 1.239125 0
0.087859 0.026552 1.582775 0
-0.755365 0.475635 1.864745 0
-0.371690 0.015458 0.717407 0
-0.190211 0.022386 1.995510 0
-0.986808 0.433715 1.344501 0
0.085840 0.025242 1.232738 0
-0.525141 0.434263 2.032776 0
-0.714679 0.244514 0.796718 0
0.048569 0.030351 1.781757 0
-0.838816 0.554578 1.725810 0
-0.117587 0.017325 0.850875 0
-0.374385 0.030907 2.101434 0
-0.737125 0.640337 1.271517 0
0.152336 0.013513 1.452571 0
-0.686179 0.486123 1.972756 0
-0.546565 0.017237 0.562748 0
-0.057583 0.025971 1.959300 0
-0.936682 0.556823 1.521877 0
0.074502 0.025176 1.060548 0
-0.519779 0.228936 2.120744 0
-0.586681 0.664534 1.148801 0
0.143599 0.032564 1.682397 0
-0.796082 0.574411 1.852273 0
-0.235801 0.016332 0.663353 0
-0.228714 0.018975 2.102527 0
-0.951787 0.553222 1.281955 0
0.186895 0.022199 1.300331 0
-0.596272 0.483243 2.062458 0
-0.546951 0.409940 0.830005 0
0.064894 0.031877 1.889332 0
-0.807558 0.697791 1.698780 0
0.017573 0.010895 0.858618 0
-0.452588 0.038461 2.190849 0
-0.672941 0.729748 1.224186 0
0.218636 0.014121 1.547894 0
-0.769680 0.533499 1.968829 0
-0.417567 0.002825 0.467793 0
-0.080608 0.032556 2.065363 0
-0.529956 0.040275 1.504689 0
-0.548720 0.052264 1.422147 0
-0.433726 0.019667 1.573030 0
-0.542995 0.313918 1.594373 0
-0.427487 0.023904 1.374302 0
-0.519163 0.023760 1.688087 0
-0.567309 0.291727 1.439227 0
-0.312488 0.014700 1.520685 0
-0.527570 0.389094 1.720503 0
-0.515290 0.018588 1.231400 0
-0.377215 0.013850 1.717075 0
-0.587910 0.447585 1.562981 0
-0.287366 0.002797 1.362956 0
-0.532255 0.204514 1.803894 0
-0.618149 0.191943 1.255709 0
-0.239202 0.008969 1.632694 0
-0.600698 0.465276 1.703802 0
-0.378274 0.021028 1.187072 0
-0.432791 0.014392 1.833917 0
-0.630994 0.451702 1.446563 0
-0.172630 0.015015 1.457902 0
-0.544185 0.421445 1.838968 0
-0.591243 0.037637 1.065141 0
-0.242582 0.011226 1.767536 0
-0.686281 0.481581 1.613808 0
-0.229051 0.007072 1.227116 0
-0.511894 0.124162 1.914158 0
-0.628663 0.413335 1.296713 0
-0.114702 0.015899 1.596080 0
-0.643004 0.471837 1.799012 0
-0.427705 0.013480 1.019274 0
-0.315805 0.012794 1.893969 0
-0.741615 0.476775 1.472777 0
-0.100473 0.019461 1.350133 0
-0.525631 0.399884 1.935736 0
-0.629379 0.229662 1.070179 0
-0.121398 0.005893 1.750182 0
-0.731961 0.511360 1.704137 0
-0.236399 0.024268 1.082671 0
-0.453379 0.010785 1.990683 0
-0.713931 0.488080 1.323729 0
-0.026221 0.018324 1.510585 0
-0.630564 0.477031 1.900303 0
-0.495688 0.119018 0.944338 0
-0.188918 0.022232 1.901081 0
-0.756051 0.573570 1.576403 0
-0.076331 0.025101 1.213473 0
-0.501952 0.303509 2.019154 0
-0.615988 0.488730 1.193346 0
-0.014319 0.024399 1.690529 0
-0.776563 0.483310 1.804344 0
-0.305610 0.021307 0.919231 0
-0.322075 0.019766 2.024914 0
-0.876531 0.454606 1.338054 0
0.029596 0.029061 1.393360 0
-0.582309 0.471935 1.993272 0
-0.589640 0.237780 0.921460 0
-0.068513 0.023308 1.865220 0
-0.847474 0.538594 1.660927 0
-0.099947 0.019982 1.050035 0
-0.478229 0.106647 2.095938 0
-0.661344 0.614249 1.275259 0
0.069135 0.030581 1.593584 0
-0.744399 0.491651 1.917391 0
-0.432330 0.016921 0.755481 0
-0.187775 0.020067 2.019043 0
-0.932306 0.511918 1.450422 0
0.049245 0.025962 1.243686 0
-0.520695 0.434091 2.072708 0
-0.602572 0.490832 1.064489 0
0.039742 0.023636 1.792674 0
-0.804578 0.597930 1.790296 0
-0.172732 0.019209 0.874778 0
-0.367249 0.025310 2.134631 0
-0.815460 0.593715 1.293643 0
0.126897 0.013268 1.459194 0
-0.679709 0.491239 2.020582 0
-0.564126 0.123851 0.705088 0
-0.056232 0.032842 1.975875 0
-0.861867 0.640854 1.616994 0
0.029188 0.026462 1.072889 0
-0.536481 0.172671 2.169936 0
-0.609575 0.684554 1.214235 0
0.129900 0.028732 1.688560 0
-0.778751 0.595271 1.907406 0
-0.298599 0.022960 0.698559 0
-0.220273 0.018979 2.127667 0
-1.022258 0.516399 1.325462 0
0.153510 0.024309 1.306346 0
-0.572587 0.509309 2.101572 0
-0.657816 0.322601 0.792187 0
0.061768 0.032835 1.899952 0
-0.788923 0.723370 1.760591 0
-0.037157 0.019312 0.879787 0
-0.439417 0.036992 2.227283 0
-0.740216 0.698494 1.249781 0
0.198031 0.013593 1.550848 0
-0.760094 0.540906 2.020631 0
-0.488299 0.009936 0.515054 0
-0.074255 0.034967 2.082860 0
-0.535093 0.120701 1.571653 0
-0.551367 0.145810 1.499067 0
-0.475126 0.005865 1.609340 0
-0.544221 0.375309 1.656105 0
-0.481657 0.009284 1.407720 0
-0.537234 0.050355 1.736832 0
-0.550125 0.400807 1.527541 0
-0.350952 0.017487 1.553281 0
-0.549878 0.397501 1.767189 0
-0.570832 0.023917 1.277582 0
-0.403451 0.016698 1.753604 0
-0.611547 0.468101 1.617927 0
-0.332577 0.016763 1.398180 0
-0.530446 0.253342 1.853471 0
-0.607321 0.309556 1.362760 0
-0.271062 0.010161 1.660422 0
-0.633596 0.458838 1.752344 0
-0.442391 0.009966 1.217018 0
-0.453805 0.011557 1.873568 0
-0.677234 0.449701 1.496375 0
-0.217035 0.007503 1.478728 0
-0.557059 0.433030 1.886344 0
-0.609163 0.138177 1.170079 0
-0.266136 0.011976 1.795495 0
-0.699024 0.509743 1.676116 0
-0.282776 0.022212 1.260417 0
-0.509641 0.163624 1.958722 0
-0.652653 0.456663 1.370473 0
-0.148128 0.020893 1.616956 0
-0.655250 0.486513 1.853085 0
-0.495445 0.021591 1.062129 0
-0.330638 0.016949 1.926628 0
-0.741754 0.528975 1.551336 0
-0.150786 0.014279 1.366728 0
-0.528086 0.419810 1.980990 0
-0.627971 0.344250 1.194019 0
-0.145656 0.008295 1.770815 0
-0.779503 0.489799 1.757958 0
-0.304544 0.017639 1.105448 0
-0.463931 0.010005 2.032048 0
-0.783996 0.467603 1.367477 0
-0.066101 0.013536 1.523455 0
-0.642964 0.482683 1.952592 0
-0.550161 0.164178 1.017261 0
-0.205108 0.017478 1.925716 0
-0.841863 0.522058 1.617865 0
-0.134615 0.023000 1.229418 0
-0.499270 0.325917 2.061566 0
-0.645996 0.530067 1.270486 0
-0.042688 0.021919 1.703782 0
-0.775724 0.511475 1.867653 0
-0.383015 0.019358 0.948362 0
-0.330758 0.016590 2.058314 0
-0.715800 0.678206 1.518453 0
-0.017679 0.019327 1.400468 0
-0.600583 0.459615 2.044014 0
-0.643604 0.277648 0.999088 0
-0.086475 0.017780 1.882154 0
-0.827814 0.591842 1.737849 0
-0.168605 0.017376 1.066690 0
-0.493396 0.077879 2.142947 0
-0.757169 0.569643 1.295604 0
0.034823 0.024176 1.600511 0
-0.745280 0.509986 1.976376 0
-0.511527 0.037240 0.808943 0
-0.195236 0.022538 2.043648 0
-0.901074 0.585444 1.550931 0
-0.006816 0.023919 1.252067 0
-0.520901 0.442566 2.117346 0
-0.592671 0.597338 1.198955 0
0.017812 0.019405 1.802657 0
-0.780546 0.646865 1.858064 0
-0.251479 0.021613 0.898811 0
-0.367623 0.027526 2.170444 0
-0.988437 0.481114 1.281625 0
0.084400 0.020556 1.466328 0
-0.685642 0.495486 2.075898 0
-0.588382 0.249311 0.858549 0
-0.066665 0.032529 1.992397 0
-0.803251 0.725257 1.707987 0
-0.037772 0.022023 1.080682 0
-0.531621 0.181267 2.215172 0
-0.677952 0.675096 1.253796 0
0.101803 0.024127 1.692511 0
-0.755333 0.637664 1.968082 0
-0.384650 0.037198 0.739825 0
-0.218176 0.035192 2.152339 0
-1.032019 0.555582 1.420891 0
0.101558 0.023794 1.309155 0
-0.585834 0.494409 2.154010 0
-0.554901 0.594520 1.095181 0
0.046686 0.030311 1.908989 0
-0.771942 0.762109 1.828218 0
-0.115710 0.020741 0.894965 0
-0.433424 0.041001 2.267235 0
-0.858014 0.643928 1.262080 0
0.160923 0.020459 1.553132 0
-0.750031 0.563500 2.078479 0
-0.077626 0.038438 2.100232 0
-0.518763 0.245665 1.619927 0
-0.529399 0.282618 1.558266 0
-0.512740 0.014826 1.624503 0
-0.540652 0.445431 1.691087 0
-0.531826 0.007455 1.418621 0
-0.547238 0.109356 1.761560 0
-0.571308 0.436012 1.556967 0
-0.391493 0.021952 1.562898 0
-0.560602 0.433897 1.791946 0
-0.584116 0.114168 1.330721 0
-0.438734 0.014121 1.765043 0
-0.639380 0.484624 1.642919 0
-0.378252 0.024362 1.407442 0
-0.538527 0.295629 1.874752 0
-0.598037 0.408238 1.425654 0
-0.307528 0.012325 1.667195 0
-0.668776 0.457182 1.774583 0
-0.499195 0.009706 1.225025 0
-0.482841 0.014383 1.888009 0
-0.717799 0.457055 1.519763 0
-0.259217 0.014808 1.484226 0
-0.571002 0.454423 1.908220 0
-0.611824 0.244212 1.242321 0
-0.297778 0.011796 1.802423 0
-0.737555 0.509795 1.700159 0
-0.338033 0.013846 1.260074 0
-0.508873 0.221894 1.975620 0
-0.697258 0.465336 1.392559 0
-0.187021 0.014307 1.617297 0
-0.692503 0.476669 1.877015 0
-0.561374 0.016362 1.066843 0
-0.357075 0.018204 1.936619 0
-0.752227 0.568500 1.590014 0
-0.198466 0.014050 1.366787 0
-0.540923 0.436941 2.000798 0
-0.614511 0.454408 1.277882 0
-0.176660 0.013316 1.773817 0
-0.795199 0.514082 1.789920 0
-0.365508 0.012467 1.105003 0
-0.481201 0.027314 2.046438 0
-0.866938 0.434989 1.371442 0
-0.108257 0.004054 1.519115 0
-0.667010 0.484565 1.977753 0
-0.617572 0.160212 1.023247 0
-0.230900 0.018470 1.930964 0
-0.856502 0.553118 1.655553 0
-0.187208 0.024156 1.228442 0
-0.502531 0.358720 2.077312 0
-0.692906 0.540467 1.292695 0
-0.076603 0.020867 1.702102 0
-0.775940 0.547353 1.899120 0
-0.453755 0.008056 0.943602 0
-0.352259 0.016748 2.068750 0
-0.949603 0.491449 1.448348 0
-0.062863 0.021859 1.397413 0
-0.607546 0.480573 2.065900 0
-0.636367 0.394735 1.099129 0
-0.113303 0.020186 1.882923 0
-0.813049 0.644526 1.778264 0
-0.226903 0.023563 1.068202 0
-0.507236 0.089978 2.158765 0
-0.817230 0.566563 1.312346 0
-0.002742 0.022252 1.595391 0
-0.752550 0.532560 2.004785 0
-0.523958 0.175015 0.919592 0
-0.218191 0.013885 2.049399 0
-0.903265 0.628593 1.597104 0
-0.058418 0.017576 1.243639 0
-0.530540 0.454751 2.136594 0
-0.609248 0.648220 1.251829 0
-0.011820 0.022978 1.799634 0
-0.772965 0.685929 1.891274 0
-0.320727 0.013347 0.891219 0
-0.384331 0.029091 2.182467 0
-1.023582 0.507919 1.324340 0
0.041878 0.018170 1.458518 0
-0.705474 0.496744 2.103828 0
-0.662373 0.246467 0.862710 0
-0.089060 0.034536 1.992571 0
-0.780939 0.779143 1.751517 0
-0.095805 0.020672 1.073884 0
-0.515275 0.248553 2.221056 0
-0.740500 0.669547 1.264034 0
0.068023 0.027624 1.686447 0
-0.749217 0.671254 1.997157 0
-0.236257 0.029780 2.159441 0
-1.032442 0.604580 1.476806 0
0.053166 0.020468 1.299200 0
-0.610433 0.480964 2.181642 0
-0.594731 0.621932 1.128788 0
0.020903 0.025356 1.904643 0
-0.763289 0.798637 1.862886 0
-0.183125 0.011319 0.882501 0
-0.441535 0.056526 2.278970 0
-0.951352 0.617076 1.261800 0
0.121631 0.029640 1.546398 0
-0.747008 0.591280 2.105192 0
-0.535366 0.292943 0.820157 0
-0.095600 0.042188 2.100648 0
-0.523002 0.246045 1.636685 0
-0.536621 0.281642 1.575213 0
-0.515765 0.014500 1.639454 0
-0.549375 0.435421 1.707396 0
-0.539947 0.011724 1.435617 0
-0.538334 0.126294 1.780352 0
-0.574488 0.443083 1.579122 0
-0.397642 0.019773 1.573307 0
-0.559751 0.433942 1.811002 0
-0.584793 0.140701 1.360090 0
-0.435786 0.018019 1.777987 0
-0.648316 0.477808 1.663251 0
-0.389525 0.022793 1.417181 0
-0.520564 0.323008 1.893482 0
-0.594191 0.433586 1.457670 0
-0.309262 0.013743 1.675615 0
-0.664402 0.462105 1.798133 0
-0.515964 0.009394 1.238863 0
-0.477019 0.013882 1.901716 0
-0.716883 0.468746 1.549179 0
-0.268171 0.012100 1.489703 0
-0.568074 0.451113 1.927305 0
-0.617867 0.264435 1.272787 0
-0.296136 0.008635 1.809927 0
-0.757273 0.487154 1.720583 0
-0.351254 0.022794 1.272621 0
-0.492607 0.240462 1.990701 0
-0.707456 0.468749 1.418451 0
-0.190961 0.014592 1.621453 0
-0.691906 0.471005 1.900058 0
-0.582094 0.019289 1.084257 0
-0.349125 0.021234 1.946244 0
-0.788290 0.533793 1.604286 0
-0.210597 0.014945 1.371052 0
-0.534386 0.434260 2.018699 0
-0.627438 0.461006 1.302836 0
-0.175653 0.012239 1.777546 0
-0.792995 0.513781 1.817167 0
-0.381040 0.030263 1.123796 0
-0.472783 0.019331 2.060306 0
-0.844273 0.474337 1.421623 0
-0.114635 0.010704 1.522223 0
-0.657283 0.486811 1.999781 0
-0.632906 0.177312 1.053145 0
-0.224934 0.015874 1.936490 0
-0.852153 0.559652 1.687460 0
-0.204130 0.024425 1.231623 0
-0.496897 0.348160 2.094311 0
-0.719986 0.527766 1.308634 0
-0.077963 0.020567 1.702597 0
-0.762224 0.555952 1.925777 0
-0.471875 0.030519 0.969739 0
-0.339964 0.019507 2.077649 0
-0.876751 0.572202 1.519106 0
-0.073892 0.024714 1.397841 0
-0.579880 0.506646 2.082419 0
-0.625308 0.447091 1.158914 0
-0.108446 0.021964 1.884827 0
-0.801812 0.653652 1.808637 0
-0.248129 0.028658 1.074909 0
-0.497799 0.075996 2.174927 0
-0.888723 0.507834 1.303231 0
-0.007466 0.023940 1.593694 0
-0.743937 0.531043 2.029837 0
-0.545773 0.188963 0.944669 0
-0.205283 0.027181 2.053462 0
-0.852797 0.677616 1.647609 0
-0.074930 0.015630 1.241240 0
-0.522352 0.446725 2.154915 0
-0.639820 0.634636 1.262848 0
-0.010052 0.022209 1.798062 0
-0.760202 0.692906 1.918778 0
-0.344876 0.027913 0.907526 0
-0.366820 0.036029 2.191172 0
-1.036745 0.507425 1.360100 0
0.032803 0.022005 1.455746 0
-0.689719 0.500338 2.125870 0
-0.681265 0.265743 0.898658 0
-0.080623 0.037748 1.993532 0
-0.783343 0.776728 1.779730 0
-0.115233 0.040505 1.084588 0
-0.534439 0.169966 2.253178 0
-0.786945 0.641006 1.268347 0
0.066176 0.029250 1.682491 0
-0.737814 0.673365 2.022646 0
-0.220152 0.040195 2.163279 0
-1.013749 0.625428 1.523935 0
0.039086 0.031026 1.298766 0
-0.600324 0.473560 2.202506 0
-0.588953 0.660249 1.183896 0
0.026015 0.023038 1.902057 0
-0.755789 0.801247 1.890883 0
-0.209868 0.020035 0.889602 0
-0.428272 0.040059 2.294003 0
-0.990660 0.597139 1.281363 0
0.115674 0.017457 1.536554 0
-0.750875 0.571520 2.133254 0
-0.568610 0.291914 0.833903 0
-0.083794 0.044099 2.101582 0
-0.530643 0.244256 1.655638 0
-0.539414 0.293821 1.598831 0
-0.521314 0.015112 1.657930 0
-0.554091 0.436070 1.728343 0
-0.540058 0.041057 1.464732 0
-0.532095 0.144161 1.801707 0
-0.578354 0.451817 1.603869 0
-0.402839 0.029443 1.590351 0
-0.562990 0.431215 1.831609 0
-0.573750 0.194295 1.403867 0
-0.434785 0.025745 1.794540 0
-0.647862 0.487251 1.689953 0
-0.401227 0.027828 1.433330 0
-0.537352 0.286609 1.911137 0
-0.602182 0.441669 1.483769 0
-0.312437 0.021628 1.688805 0
-0.650587 0.484063 1.825392 0
-0.531901 0.016172 1.260406 0
-0.471096 0.023314 1.918761 0
-0.718781 0.478711 1.579433 0
-0.278552 0.015469 1.501151 0
-0.562032 0.457615 1.948338 0
-0.615140 0.301715 1.315304 0
-0.292887 0.025805 1.822761 0
-0.758267 0.490328 1.748841 0
-0.367808 0.027657 1.287815 0
-0.508001 0.194976 2.010159 0
-0.711635 0.481580 1.451196 0
-0.196121 0.025532 1.631856 0
-0.680457 0.483997 1.925454 0
-0.597555 0.037124 1.114941 0
-0.344110 0.026774 1.959009 0
-0.802770 0.525699 1.630643 0
-0.226315 0.011338 1.378098 0
-0.528991 0.434976 2.038226 0
-0.648051 0.457319 1.324329 0
-0.176742 0.019024 1.785818 0
-0.783608 0.524799 1.846972 0
-0.403353 0.031562 1.138316 0
-0.465653 0.018181 2.076715 0
-0.783723 0.556759 1.492908 0
-0.124006 0.017840 1.529742 0
-0.657624 0.479205 2.023799 0
-0.659963 0.173706 1.073427 0
-0.219782 0.027550 1.945521 0
-0.835151 0.581372 1.723997 0
-0.224646 0.019094 1.237095 0
-0.506483 0.312491 2.116853 0
-0.750559 0.512013 1.325756 0
-0.082975 0.017662 1.706517 0
-0.757926 0.557208 1.953087 0
-0.494551 0.043137 0.994618 0
-0.330177 0.027517 2.089185 0
-0.874638 0.583734 1.556431 0
-0.088439 0.022226 1.400936 0
-0.568820 0.512765 2.102495 0
-0.623152 0.484192 1.209462 0
-0.107201 0.023847 1.890264 0
-0.781528 0.674149 1.840928 0
-0.271008 0.035334 1.088074 0
-0.488688 0.070847 2.192679 0
-0.984705 0.426025 1.285147 0
-0.015670 0.023235 1.595631 0
-0.731200 0.538545 2.055323 0
-0.569350 0.199953 0.972468 0
-0.196549 0.039686 2.060794 0
-0.804212 0.726388 1.695707 0
-0.093343 0.022333 1.248197 0
-0.512848 0.447047 2.173604 0
-0.679690 0.610723 1.269336 0
-0.011828 0.022341 1.800364 0
-0.747614 0.702577 1.946666 0
-0.376020 0.022998 0.916180 0
-0.356792 0.031756 2.204687 0
-1.052317 0.505633 1.396733 0
0.020550 0.027741 1.458314 0
-0.685211 0.493744 2.151128 0
-0.685843 0.306961 0.957296 0
-0.076299 0.037825 1.997981 0
-0.764502 0.794417 1.812747 0
-0.141663 0.024822 1.080099 0
-0.527101 0.156043 2.274397 0
-0.837694 0.609292 1.274172 0
0.060762 0.030517 1.682574 0
-0.725053 0.680294 2.048375 0
-0.208412 0.049806 2.170371 0
-1.006436 0.638064 1.566682 0
0.021574 0.026746 1.296993 0
-0.579833 0.488047 2.219799 0
-0.599029 0.676471 1.221249 0
0.027683 0.031208 1.903528 0
-0.734003 0.818469 1.919985 0
-0.240107 0.020157 0.897085 0
-0.416151 0.032034 2.310251 0
-1.035674 0.573111 1.301172 0
0.105831 0.016387 1.534299 0
-0.739893 0.572608 2.159022 0
-0.599327 0.296016 0.857963 0
-0.075621 0.049120 2.105528 0
-0.528809 0.288404 1.709616 0
-0.530937 0.352948 1.659431 0
-0.530561 0.041169 1.708447 0
-0.569079 0.438224 1.772852 0
-0.554266 0.073110 1.521908 0
-0.538490 0.160058 1.848306 0
-0.588008 0.470566 1.654965 0
-0.427070 0.025046 1.629972 0
-0.562876 0.451680 1.877779 0
-0.533082 0.334123 1.506567 0
-0.450660 0.020054 1.835663 0
-0.675106 0.473981 1.735065 0
-0.431338 0.026263 1.474016 0
-0.515370 0.348269 1.956120 0
-0.612415 0.466554 1.541075 0
-0.330262 0.024464 1.725546 0
-0.661819 0.485580 1.873563 0
-0.561641 0.032774 1.315868 0
-0.481229 0.018984 1.961972 0
-0.711934 0.516150 1.643347 0
-0.301489 0.031374 1.541160 0
-0.564412 0.465509 1.992357 0
-0.594229 0.394292 1.411043 0
-0.304266 0.031077 1.858261 0
-0.769323 0.495776 1.802706 0
-0.402958 0.030277 1.329459 0
-0.495185 0.234581 2.051320 0
-0.740551 0.479664 1.502334 0
-0.217367 0.025357 1.662939 0
-0.688424 0.484438 1.974870 0
-0.615023 0.089976 1.195601 0
-0.350684 0.027284 1.996381 0
-0.815988 0.533471 1.687870 0
-0.258392 0.012917 1.412390 0
-0.528297 0.442199 2.080454 0
-0.671115 0.470993 1.382149 0
-0.189793 0.026820 1.816520 0
-0.769765 0.554137 1.902793 0
-0.447776 0.025513 1.178255 0
-0.461479 0.034721 2.118185 0
-0.768079 0.601886 1.567235 0
-0.149418 0.021214 1.558952 0
-0.664969 0.474774 2.072803 0
-0.635464 0.292890 1.202471 0
-0.226132 0.032176 1.977162 0
-0.814561 0.619182 1.787475 0
-0.263591 0.017675 1.270906 0
-0.436101 0.460334 2.136391 0
-0.808470 0.481692 1.362364 0
-0.101017 0.017577 1.732314 0
-0.735770 0.591299 2.004257 0
-0.544679 0.038354 1.039989 0
-0.332035 0.024263 2.126374 0
-0.859023 0.621099 1.628737 0
-0.119303 0.029278 1.430771 0
-0.574438 0.505099 2.148300 0
-0.642719 0.509440 1.276670 0
-0.116941 0.023847 1.916822 0
-0.749373 0.717322 1.897373 0
-0.317652 0.028914 1.122027 0
-0.483451 0.075964 2.235809 0
-1.028180 0.416262 1.345315 0
-0.038984 0.020727 1.618108 0
-0.726952 0.547687 2.105653 0
-0.622432 0.190776 1.017031 0
-0.198622 0.039863 2.091344 0
-0.771355 0.771169 1.761552 0
-0.132110 0.020858 1.275986 0
-0.506222 0.454853 2.214356 0
-0.739338 0.581312 1.299416 0
-0.025593 0.023934 1.822843 0
-0.721729 0.735917 1.996411 0
-0.424613 0.033485 0.967210 0
-0.350806 0.038630 2.241702 0
-0.992233 0.584257 1.503485 0
-0.008892 0.027728 1.480321 0
-0.689976 0.486103 2.203015 0
-0.595411 0.516279 1.178758 0
-0.081123 0.038290 2.022971 0
-0.748096 0.819594 1.867303 0
-0.185931 0.034296 1.117493 0
-0.507091 0.186871 2.311996 0
-0.958151 0.525429 1.273437 0
0.041548 0.036391 1.702870 0
-0.716397 0.693304 2.096682 0
-0.523475 0.178368 0.928596 0
-0.204801 0.054301 2.200872 0
-0.758369 0.855065 1.713989 0
-0.014704 0.035658 1.323816 0
-0.576978 0.486095 2.265970 0
-0.649663 0.659154 1.254564 0
0.018584 0.033896 1.923924 0
-0.713727 0.843670 1.969354 0
-0.292449 0.025098 0.938600 0
-0.403832 0.043877 2.348571 0
-1.034184 0.601417 1.386163 0
0.079550 0.024062 1.554291 0
-0.725947 0.588007 2.207275 0
-0.669013 0.266949 0.886161 0
-0.075960 0.045585 2.130896 0
-0.526855 0.322049 1.748235 0
-0.536831 0.373521 1.696733 0
-0.536412 0.062773 1.744375 0
-0.574877 0.448668 1.808201 0
-0.525446 0.188720 1.589136 0
-0.530648 0.197521 1.883559 0
-0.593919 0.487679 1.694177 0
-0.445303 0.024387 1.658137 0
-0.568688 0.454941 1.911378 0
-0.535717 0.372915 1.553395 0
-0.464499 0.007851 1.863902 0
-0.696947 0.462480 1.770896 0
-0.456678 0.023541 1.501766 0
-0.506064 0.376103 1.987329 0
-0.634432 0.465716 1.576377 0
-0.344397 0.024485 1.749802 0
-0.677757 0.474291 1.910308 0
-0.571238 0.080795 1.370231 0
-0.482962 0.026260 1.992228 0
-0.709505 0.541058 1.690224 0
-0.323710 0.029424 1.563834 0
-0.574307 0.454134 2.026324 0
-0.590352 0.444634 1.469850 0
-0.312819 0.031689 1.881391 0
-0.767814 0.510699 1.846514 0
-0.432165 0.033640 1.358452 0
-0.482895 0.264401 2.079563 0
-0.751381 0.494952 1.549608 0
-0.233777 0.027169 1.682951 0
-0.686114 0.492798 2.013090 0
-0.618682 0.153983 1.265358 0
-0.353313 0.028704 2.021272 0
-0.819553 0.546570 1.734948 0
-0.284487 0.016962 1.435432 0
-0.521981 0.452758 2.111046 0
-0.696467 0.474506 1.422183 0
-0.199685 0.030139 1.835240 0
-0.758366 0.574964 1.945299 0
-0.481311 0.033572 1.212015 0
-0.461159 0.029955 2.148195 0
-0.809133 0.579651 1.600193 0
-0.170397 0.021891 1.576090 0
-0.658631 0.483584 2.109220 0
-0.613447 0.388539 1.297069 0
-0.229569 0.034334 1.996937 0
-0.781027 0.664624 1.838443 0
-0.294034 0.027648 1.297402 0
-0.410545 0.508818 2.155829 0
-0.844901 0.472771 1.401263 0
-0.114468 0.022153 1.747833 0
-0.741794 0.587390 2.044950 0
-0.590667 0.029434 1.068295 0
-0.330032 0.023135 2.150625 0
-0.839423 0.656836 1.686308 0
-0.146253 0.025131 1.445139 0
-0.586618 0.480424 2.187142 0
-0.679264 0.503505 1.309856 0
-0.122567 0.030028 1.932347 0
-0.749090 0.724455 1.938574 0
-0.357438 0.025726 1.144597 0
-0.479963 0.067040 2.267920 0
-1.013695 0.459316 1.420798 0
-0.057748 0.020293 1.630372 0
-0.728499 0.543948 2.146382 0
-0.654260 0.210937 1.067899 0
-0.197769 0.040052 2.109943 0
-0.776137 0.778010 1.804880 0
-0.163584 0.029085 1.296296 0
-0.505118 0.445642 2.247716 0
-0.788924 0.560702 1.326367 0
-0.035948 0.023266 1.834425 0
-0.701660 0.758807 2.034352 0
-0.471459 0.028732 0.993009 0
-0.346511 0.028648 2.268523 0
-0.968525 0.624630 1.572843 0
-0.033206 0.029352 1.492107 0
-0.681001 0.490925 2.240364 0
-0.621092 0.531441 1.225572 0
-0.083033 0.039628 2.036717 0
-0.730900 0.841293 1.910136 0
-0.226404 0.027635 1.132676 0
-0.499773 0.180586 2.344948 0
-1.034237 0.484162 1.296269 0
0.026147 0.031898 1.711036 0
-0.716511 0.692045 2.136475 0
-0.559863 0.199932 0.977879 0
-0.200672 0.047611 2.220814 0
-0.764024 0.862078 1.757469 0
-0.046104 0.028104 1.332220 0
-0.577971 0.471293 2.304566 0
-0.706957 0.631267 1.269588 0
0.012427 0.034393 1.933689 0
-0.709577 0.850851 2.008309 0
-0.338350 0.027061 0.963513 0
-0.392856 0.042408 2.375999 0
-1.025904 0.630702 1.456252 0
0.058098 0.021112 1.561025 0
-0.726378 0.580846 2.249402 0
-0.675191 0.334253 0.981641 0
-0.073402 0.047307 2.144234 0
-0.535251 0.311978 1.777875 0
-0.532925 0.391696 1.732786 0
-0.526007 0.093941 1.780421 0
-0.575323 0.449687 1.841495 0
-0.543598 0.169210 1.615680 0
-0.515538 0.225446 1.915884 0
-0.609319 0.472516 1.725021 0
-0.451419 0.024927 1.686322 0
-0.560290 0.463925 1.944097 0
-0.536398 0.393417 1.593125 0
-0.461400 0.010026 1.892226 0
-0.683333 0.483529 1.812829 0
-0.468048 0.027215 1.531965 0
-0.490510 0.395505 2.016201 0
-0.629459 0.488202 1.621174 0
-0.347420 0.024457 1.773332 0
-0.674272 0.473591 1.947201 0
-0.575708 0.110013 1.416560 0
-0.477964 0.018901 2.020951 0
-0.738143 0.511074 1.722058 0
-0.333922 0.031615 1.587616 0
-0.569598 0.448761 2.058782 0
-0.601296 0.450837 1.508130 0
-0.310390 0.032483 1.903274 0
-0.756283 0.522052 1.888615 0
-0.449346 0.038193 1.388805 0
-0.495823 0.210112 2.113210 0
-0.750856 0.508161 1.596821 0
-0.240222 0.026106 1.701802 0
-0.680990 0.488489 2.050061 0
-0.609374 0.214814 1.332903 0
-0.344205 0.032108 2.044246 0
-0.808496 0.560710 1.781873 0
-0.298727 0.025054 1.460134 0
-0.514614 0.446089 2.141593 0
-0.709414 0.478412 1.464625 0
-0.199349 0.032576 1.852699 0
-0.745500 0.582822 1.985304 0
-0.506855 0.030841 1.241843 0
-0.447729 0.028507 2.175507 0
-0.849649 0.544272 1.631965 0
-0.180678 0.025269 1.593580 0
-0.647062 0.483061 2.144348 0
-0.627415 0.400788 1.341406 0
-0.221616 0.041137 2.014883 0
-0.748513 0.695624 1.883880 0
-0.316269 0.026256 1.319467 0
-0.513720 0.255986 2.230653 0
-0.770128 0.574768 1.500560 0
-0.118407 0.021875 1.761655 0
-0.719754 0.601561 2.082104 0
-0.610626 0.050805 1.117480 0
-0.312875 0.037917 2.170542 0
-0.789335 0.707830 1.746490 0
-0.162849 0.023255 1.460358 0
-0.566211 0.490129 2.216678 0
-0.710674 0.489180 1.341398 0
-0.118364 0.034362 1.946277 0
-0.725601 0.741980 1.978351 0
-0.381013 0.040175 1.178398 0
-0.462466 0.063487 2.296159 0
-0.886604 0.594969 1.540210 0
-0.066678 0.019750 1.641940 0
-0.709385 0.550344 2.182631 0
-0.639665 0.289216 1.160149 0
-0.184225 0.054264 2.125080 0
-0.753325 0.797523 1.850363 0
-0.187119 0.022333 1.310236 0
-0.494411 0.434412 2.279078 0
-0.882831 0.478014 1.319030 0
-0.036606 0.021225 1.844643 0
-0.703806 0.747541 2.072733 0
-0.502178 0.036184 1.029343 0
-0.327817 0.030019 2.290380 0
-0.914431 0.676708 1.645430 0
-0.048062 0.027146 1.502294 0
-0.660198 0.495619 2.274234 0
-0.648840 0.527261 1.260974 0
-0.075349 0.037948 2.048787 0
-0.716948 0.849366 1.949727 0
-0.256019 0.024443 1.151057 0
-0.481346 0.172879 2.375120 0
-1.055726 0.479989 1.350041 0
0.020371 0.032287 1.719100 0
-0.701222 0.694120 2.172975 0
-0.594676 0.199005 1.013137 0
-0.185488 0.044391 2.237772 0
-0.757594 0.868022 1.801095 0
-0.067729 0.023811 1.342136 0
-0.550547 0.485088 2.330747 0
-0.755200 0.602009 1.289893 0
0.015780 0.032165 1.941859 0
-0.690955 0.859908 2.044935 0
-0.373412 0.028350 0.990026 0
-0.372013 0.035339 2.401681 0
-1.010777 0.651159 1.522360 0
0.046155 0.024470 1.568812 0
-0.716820 0.570353 2.289633 0
-0.593762 0.511461 1.166976 0
-0.061251 0.046605 2.155721 0
-0.539053 0.300789 1.800576 0
-0.538433 0.380544 1.754932 0
-0.512227 0.121746 1.808636 0
-0.566871 0.458560 1.867319 0
-0.536390 0.189369 1.646626 0
-0.495698 0.258563 1.940561 0
-0.616534 0.460245 1.748653 0
-0.448903 0.032624 1.710982 0
-0.549228 0.473379 1.968114 0
-0.549887 0.373807 1.612052 0
-0.453187 0.018932 1.915389 0
-0.682662 0.479702 1.840102 0
-0.469282 0.034719 1.558530 0
-0.472980 0.417254 2.037107 0
-0.633276 0.485059 1.647783 0
-0.343494 0.033169 1.794542 0
-0.663874 0.479102 1.974066 0
-0.562126 0.153801 1.461356 0
-0.465599 0.030001 2.043261 0
-0.751422 0.492039 1.747482 0
-0.335512 0.037803 1.609628 0
-0.540292 0.484684 2.079149 0
-0.593868 0.470218 1.544055 0
-0.305678 0.032626 1.921931 0
-0.750798 0.521532 1.917760 0
-0.456702 0.039027 1.413740 0
-0.505115 0.163521 2.140872 0
-0.734105 0.530286 1.635886 0
-0.240843 0.026583 1.719329 0
-0.676995 0.481363 2.077080 0
-0.573971 0.299188 1.402739 0
-0.335787 0.032183 2.063399 0
-0.793035 0.573399 1.815423 0
-0.303099 0.034287 1.483320 0
-0.506279 0.442726 2.164053 0
-0.721161 0.468865 1.491235 0
-0.195577 0.037254 1.868919 0
-0.732949 0.588071 2.013262 0
-0.514412 0.039547 1.273172 0
-0.436120 0.026834 2.197268 0
-0.850795 0.542007 1.664839 0
