ply
format ascii 1.0
element vertex 1595
property float x
property float y
property float z
property uchar label
end_header
0.505996 0.530474 -0.284840 1
0.516131 0.527869 -0.387675 1
0.587486 0.517128 -0.299307 1
0.472130 0.531263 -0.323732 1
0.568612 0.531741 -0.382224 1
0.539778 0.522731 -0.268854 1
0.482242 0.536755 -0.376296 1
0.603393 0.520557 -0.332150 1
0.481853 0.531246 -0.289276 1
0.537052 0.527578 -0.400946 1
0.580294 0.517808 -0.274533 1
0.461197 0.533230 -0.346133 1
0.592384 0.535153 -0.372519 1
0.512861 0.529960 -0.262575 1
0.495991 0.529951 -0.398421 1
0.613982 0.509720 -0.303548 1
0.460432 0.530751 -0.305283 1
0.563885 0.531389 -0.404040 1
0.559270 0.522644 -0.254762 1
0.460692 0.537916 -0.373191 1
0.614695 0.530049 -0.350856 1
0.483478 0.533868 -0.267534 1
0.520961 0.522675 -0.415444 1
0.604735 0.517941 -0.274601 1
0.446137 0.531431 -0.330688 1
0.590837 0.540287 -0.395003 1
0.530383 0.521801 -0.243026 1
0.473349 0.533153 -0.399969 1
0.631890 0.514276 -0.318729 1
0.456926 0.532710 -0.283536 1
0.554168 0.516740 -0.423031 1
0.584190 0.520263 -0.248296 1
0.441969 0.537294 -0.361837 1
0.616494 0.542024 -0.373916 1
0.495623 0.526071 -0.244747 1
0.498541 0.523940 -0.422635 1
0.630879 0.511418 -0.282753 1
0.436920 0.533168 -0.310128 1
0.587181 0.524984 -0.417441 1
0.553431 0.519278 -0.230040 1
0.450957 0.535512 -0.393595 1
0.639775 0.528244 -0.341337 1
0.461215 0.535867 -0.260730 1
0.534757 0.511666 -0.436956 1
0.611439 0.517869 -0.250088 1
0.427315 0.535899 -0.343906 1
0.616571 0.536427 -0.398439 1
0.515557 0.518538 -0.224544 1
0.473947 0.524326 -0.422498 1
0.649734 0.515727 -0.300790 1
0.434339 0.537130 -0.286586 1
0.574973 0.510445 -0.438020 1
0.579681 0.521717 -0.225026 1
0.430849 0.535433 -0.380168 1
0.641575 0.538531 -0.367423 1
0.474750 0.527672 -0.235996 1
0.507469 0.521463 -0.443493 1
0.636931 0.519518 -0.261083 1
0.417796 0.536547 -0.321097 1
0.614134 0.514847 -0.423891 1
0.540787 0.517051 -0.210425 1
0.448935 0.526747 -0.414957 1
0.658468 0.530374 -0.326314 1
0.438898 0.541594 -0.261849 1
0.549723 0.517845 -0.452564 1
0.607861 0.524891 -0.227925 1
0.414524 0.532410 -0.360441 1
0.645280 0.524813 -0.395084 1
0.495689 0.520656 -0.213531 1
0.480061 0.521703 -0.443680 1
0.661891 0.515657 -0.279017 1
0.414302 0.542350 -0.295626 1
0.595652 0.515455 -0.446431 1
0.569400 0.520710 -0.204111 1
0.425968 0.527242 -0.400562 1
0.663487 0.536635 -0.355009 1
0.451677 0.537476 -0.235601 1
0.520113 0.526835 -0.460541 1
0.637956 0.522770 -0.237733 1
0.402887 0.535049 -0.335924 1
0.641643 0.507870 -0.424046 1
0.522055 0.520514 -0.197093 1
0.453072 0.515032 -0.437063 1
0.522699 0.533318 -0.321830 1
0.525279 0.535082 -0.308967 1
0.506278 0.537002 -0.333155 1
0.546272 0.532998 -0.324377 1
0.505163 0.534257 -0.301973 1
0.521098 0.534161 -0.351469 1
0.548039 0.527806 -0.297291 1
0.487004 0.534655 -0.324177 1
0.554034 0.526867 -0.345157 1
0.518153 0.530194 -0.281700 1
0.497628 0.536887 -0.356482 1
0.570769 0.522200 -0.309897 1
0.482950 0.530180 -0.299425 1
0.538437 0.528858 -0.367037 1
0.546997 0.524127 -0.274032 1
0.474913 0.533889 -0.342195 1
0.578774 0.519520 -0.338176 1
0.497540 0.530214 -0.273256 1
0.508217 0.531854 -0.375905 1
0.578242 0.518899 -0.286688 1
0.464343 0.530863 -0.312667 1
0.562989 0.525634 -0.369422 1
0.531424 0.520511 -0.256293 1
0.475220 0.536539 -0.365096 1
0.596435 0.516517 -0.318577 1
0.473144 0.533417 -0.278477 1
0.530499 0.525718 -0.388727 1
0.570377 0.520909 -0.262365 1
0.453777 0.532851 -0.335255 1
0.588394 0.524042 -0.359086 1
0.504275 0.528654 -0.250642 1
0.488326 0.534641 -0.386896 1
0.604416 0.511881 -0.290499 1
0.452017 0.533391 -0.294821 1
0.556249 0.533373 -0.391394 1
0.550516 0.521189 -0.242029 1
0.453718 0.537499 -0.362342 1
0.610541 0.519124 -0.336729 1
0.474605 0.535091 -0.256600 1
0.513666 0.525229 -0.403328 1
0.595660 0.517883 -0.261468 1
0.438396 0.532058 -0.320134 1
0.584658 0.536879 -0.382018 1
0.521738 0.519203 -0.230395 1
0.466016 0.537563 -0.388822 1
0.623907 0.512390 -0.304874 1
0.448055 0.536769 -0.273475 1
0.544567 0.527217 -0.409987 1
0.574854 0.520252 -0.235495 1
0.434800 0.537471 -0.351322 1
0.609872 0.539040 -0.360516 1
0.486664 0.525278 -0.233097 1
0.491433 0.527128 -0.410821 1
0.621006 0.513328 -0.269515 1
0.428708 0.536085 -0.300064 1
0.576262 0.537151 -0.404001 1
0.544504 0.517097 -0.217096 1
0.444053 0.537331 -0.382870 1
0.634954 0.519303 -0.326847 1
0.452319 0.537221 -0.250174 1
0.526938 0.516987 -0.424198 1
0.601119 0.520401 -0.237451 1
0.419983 0.534820 -0.333523 1
0.606195 0.544408 -0.385050 1
0.505129 0.523276 -0.213952 1
0.466741 0.529763 -0.411008 1
0.642052 0.512428 -0.286443 1
0.425764 0.540608 -0.276789 1
0.565869 0.518314 -0.424434 1
0.570716 0.519512 -0.211695 1
0.423886 0.536798 -0.369815 1
0.634986 0.535069 -0.353560 1
0.464462 0.535572 -0.226819 1
0.501237 0.521154 -0.431565 1
0.627068 0.520678 -0.247755 1
0.409898 0.539311 -0.311292 1
0.600934 0.531824 -0.409621 1
0.530723 0.518388 -0.198557 1
0.442020 0.531304 -0.404003 1
0.654067 0.520380 -0.311258 1
0.430167 0.542543 -0.251587 1
0.544301 0.513971 -0.440146 1
0.597739 0.526205 -0.215164 1
0.407455 0.530749 -0.350211 1
0.630620 0.541890 -0.381278 1
0.486197 0.520075 -0.201792 1
0.473823 0.522205 -0.432156 1
0.652084 0.516730 -0.265220 1
0.406062 0.545218 -0.286042 1
0.589041 0.514855 -0.432989 1
0.560242 0.518149 -0.190709 1
0.419143 0.530662 -0.390125 1
0.656536 0.533530 -0.340785 1
0.442888 0.534651 -0.224139 1
0.514721 0.523642 -0.448651 1
0.627184 0.525544 -0.224871 1
0.395348 0.536106 -0.326108 1
0.626877 0.526645 -0.409217 1
0.511817 0.522266 -0.185646 1
0.446475 0.518666 -0.425775 1
0.510218 0.536207 -0.310725 1
0.513943 0.531800 -0.297094 1
0.495105 0.535126 -0.321820 1
0.533851 0.534792 -0.312735 1
0.493410 0.532553 -0.290635 1
0.508903 0.538084 -0.340250 1
0.535927 0.526391 -0.285238 1
0.475950 0.531212 -0.312974 1
0.539874 0.536013 -0.333777 1
0.504903 0.533701 -0.271012 1
0.486438 0.537386 -0.345442 1
0.558186 0.522539 -0.297647 1
0.470322 0.533875 -0.289214 1
0.525973 0.533823 -0.355369 1
0.533197 0.527827 -0.262917 1
0.463712 0.533476 -0.331499 1
0.564474 0.526819 -0.326271 1
0.483738 0.537286 -0.263623 1
0.496006 0.538602 -0.364743 1
0.564838 0.520467 -0.274570 1
0.452472 0.531798 -0.302328 1
0.550843 0.528153 -0.357172 1
0.517432 0.524426 -0.245561 1
0.464411 0.536297 -0.354382 1
0.584236 0.515239 -0.305628 1
0.459998 0.539235 -0.268976 1
0.517860 0.533376 -0.376948 1
0.556565 0.522894 -0.250587 1
0.442436 0.533187 -0.324991 1
0.576615 0.523860 -0.346310 1
0.491608 0.526928 -0.239191 1
0.477014 0.539158 -0.375929 1
0.589033 0.518602 -0.278698 1
0.439665 0.536806 -0.285131 1
0.547278 0.525994 -0.379073 1
0.537913 0.517857 -0.229407 1
0.443024 0.536678 -0.351991 1
0.598769 0.517227 -0.323467 1
0.461043 0.541243 -0.247371 1
0.501122 0.535108 -0.391584 1
0.581923 0.518695 -0.249029 1
0.426458 0.536888 -0.310666 1
0.576100 0.528143 -0.369116 1
0.507295 0.523707 -0.220120 1
0.455426 0.539126 -0.378233 1
0.610820 0.512353 -0.291630 1
0.435259 0.541659 -0.264278 1
0.533640 0.528361 -0.397763 1
0.560596 0.522144 -0.223744 1
0.423990 0.536262 -0.341285 1
0.602602 0.526134 -0.346758 1
0.472785 0.529312 -0.223278 1
0.479925 0.534494 -0.399411 1
0.605572 0.518465 -0.257435 1
0.416734 0.538507 -0.290604 1
0.565827 0.535627 -0.391347 1
0.529896 0.520195 -0.206171 1
0.433611 0.537830 -0.372688 1
0.624457 0.513260 -0.312744 1
0.439103 0.541926 -0.241046 1
0.514652 0.525623 -0.411800 1
0.586077 0.523975 -0.225699 1
0.408724 0.535678 -0.323904 1
0.597197 0.537615 -0.371874 1
0.491837 0.521267 -0.202272 1
0.456051 0.534265 -0.400139 1
0.627415 0.515239 -0.273445 1
0.413333 0.544825 -0.267833 1
0.552685 0.527299 -0.411309 1
0.556676 0.519410 -0.199532 1
0.413708 0.530926 -0.359795 1
0.623343 0.533508 -0.339993 1
0.451711 0.532210 -0.215537 1
0.490007 0.527642 -0.419657 1
0.612238 0.523165 -0.235281 1
0.398224 0.542791 -0.302260 1
0.586265 0.542366 -0.396209 1
0.515788 0.522273 -0.188171 1
0.432023 0.530326 -0.393759 1
0.643695 0.513455 -0.296650 1
0.417775 0.539903 -0.241196 1
0.533396 0.516474 -0.427526 1
0.584840 0.522456 -0.201634 1
0.396631 0.527883 -0.340489 1
0.618035 0.544073 -0.367845 1
0.471312 0.526924 -0.192932 1
0.463843 0.523054 -0.421083 1
0.636379 0.521144 -0.252587 1
0.394095 0.547009 -0.276974 1
0.575969 0.522171 -0.419340 1
0.545058 0.521268 -0.179697 1
0.409644 0.517419 -0.380252 1
0.645266 0.530187 -0.326714 1
0.429246 0.539811 -0.215420 1
0.505583 0.520264 -0.437062 1
0.611871 0.528508 -0.212706 1
0.384117 0.533611 -0.316584 1
0.609617 0.542192 -0.395216 1
0.497070 0.525266 -0.175358 1
0.436182 0.522915 -0.415056 1
0.496169 0.534573 -0.300651 1
0.498321 0.536188 -0.287810 1
0.480946 0.535709 -0.312247 1
0.518935 0.536352 -0.302583 1
0.478300 0.534949 -0.281499 1
0.494761 0.540033 -0.330436 1
0.519139 0.533098 -0.276014 1
0.461336 0.534342 -0.304088 1
0.525645 0.536229 -0.323244 1
0.489751 0.533696 -0.261368 1
0.473219 0.535691 -0.335780 1
0.541021 0.529788 -0.287879 1
0.455336 0.536970 -0.280632 1
0.511254 0.538559 -0.345223 1
0.517849 0.526686 -0.252534 1
0.449968 0.533933 -0.322472 1
0.546600 0.538239 -0.316361 1
0.468556 0.537746 -0.254496 1
0.483013 0.537645 -0.354890 1
0.547290 0.526932 -0.264891 1
0.437683 0.536918 -0.294238 1
0.534051 0.539152 -0.346796 1
0.500019 0.531964 -0.237390 1
0.451285 0.535803 -0.345207 1
0.565418 0.526387 -0.295697 1
0.444845 0.541834 -0.260673 1
0.504230 0.535541 -0.366641 1
0.540997 0.520800 -0.239583 1
0.428473 0.535909 -0.316623 1
0.559542 0.532643 -0.335499 1
0.474887 0.532559 -0.231139 1
0.464312 0.538518 -0.366439 1
0.573002 0.518840 -0.267443 1
0.424863 0.540755 -0.277301 1
0.532635 0.530491 -0.368147 1
0.520133 0.523623 -0.220632 1
0.429727 0.538590 -0.343390 1
0.580197 0.527450 -0.312778 1
0.445935 0.540040 -0.238349 1
0.487969 0.537417 -0.381505 1
0.564045 0.523459 -0.239034 1
0.412366 0.540012 -0.302770 1
0.562611 0.526553 -0.357544 1
0.491184 0.522615 -0.210240 1
0.442739 0.539731 -0.369200 1
0.592378 0.519404 -0.280884 1
0.420147 0.545607 -0.256726 1
0.520542 0.528893 -0.386938 1
0.544360 0.520468 -0.212789 1
0.410939 0.533165 -0.332759 1
0.588479 0.524366 -0.334722 1
0.455988 0.535396 -0.215856 1
0.466828 0.538924 -0.389668 1
0.588310 0.520600 -0.246384 1
0.402116 0.545859 -0.283682 1
0.553979 0.530478 -0.379938 1
0.512028 0.525038 -0.197566 1
0.421027 0.537238 -0.364094 1
0.606960 0.517966 -0.301117 1
0.423969 0.540300 -0.232314 1
0.501433 0.528813 -0.401178 1
0.569431 0.523252 -0.214556 1
0.395168 0.535520 -0.315924 1
0.584961 0.532264 -0.359795 1
0.473891 0.529481 -0.195309 1
0.443610 0.535929 -0.390939 1
0.610176 0.517142 -0.261797 1
0.398689 0.545822 -0.260108 1
0.539731 0.527454 -0.399994 1
0.538195 0.524490 -0.190615 1
0.401001 0.526770 -0.351446 1
0.612643 0.521964 -0.326828 1
0.435289 0.536415 -0.208074 1
0.477074 0.532112 -0.409427 1
0.595227 0.523251 -0.223843 1
0.384336 0.543366 -0.294648 1
0.575286 0.534917 -0.384428 1
0.498132 0.525443 -0.179477 1
0.419612 0.531685 -0.385088 1
0.626941 0.514531 -0.284361 1
0.402429 0.542117 -0.233714 1
0.519062 0.524202 -0.416035 1
0.567551 0.522296 -0.190738 1
0.383722 0.510066 -0.331405 1
0.606658 0.536236 -0.355273 1
0.454150 0.531124 -0.185277 1
0.451069 0.528880 -0.411308 1
0.618521 0.523455 -0.241090 1
0.379708 0.550542 -0.270031 1
0.559545 0.533415 -0.406964 1
0.526476 0.526046 -0.171101 1
0.397314 0.509308 -0.371953 1
0.634097 0.519256 -0.313022 1
0.413550 0.538414 -0.206869 1
0.492459 0.525841 -0.426169 1
0.595876 0.524673 -0.200340 1
0.370460 0.520693 -0.307682 1
0.594637 0.545755 -0.382871 1
0.479989 0.525046 -0.165958 1
0.425132 0.511706 -0.406660 1
0.484028 0.534914 -0.288302 1
0.486224 0.534821 -0.275192 1
0.469487 0.534014 -0.299978 1
0.507289 0.534099 -0.289391 1
0.465598 0.536789 -0.269837 1
0.483992 0.536844 -0.317758 1
0.506438 0.532849 -0.263106 1
0.449370 0.535283 -0.292580 1
0.514232 0.534824 -0.310002 1
0.476862 0.533498 -0.249128 1
0.462364 0.533579 -0.323659 1
0.528892 0.527675 -0.274151 1
0.442795 0.538789 -0.269490 1
0.500292 0.537672 -0.332337 1
0.504878 0.525048 -0.239335 1
0.438449 0.535096 -0.311178 1
0.536652 0.530485 -0.301950 1
0.454639 0.544612 -0.244218 1
0.472473 0.536215 -0.342600 1
0.535470 0.521548 -0.250354 1
0.425607 0.538231 -0.283358 1
0.522466 0.540454 -0.333531 1
0.487961 0.524217 -0.223159 1
0.440532 0.534891 -0.333674 1
0.553854 0.522472 -0.281147 1
0.431959 0.543732 -0.249886 1
0.492920 0.538747 -0.353977 1
0.527513 0.519573 -0.225917 1
0.416797 0.539069 -0.306067 1
0.547066 0.535190 -0.321770 1
0.461430 0.531957 -0.219113 1
0.454172 0.536528 -0.354561 1
0.557818 0.524801 -0.254410 1
0.412403 0.543421 -0.267014 1
0.520263 0.536654 -0.354861 1
0.506366 0.522266 -0.207376 1
0.419095 0.536730 -0.332313 1
0.570048 0.520132 -0.297549 1
0.432748 0.539768 -0.227082 1
0.477439 0.539171 -0.369086 1
0.551774 0.517671 -0.223848 1
0.400515 0.543636 -0.292754 1
0.551146 0.526898 -0.343404 1
0.475391 0.532095 -0.200512 1
0.432530 0.539442 -0.357881 1
0.579507 0.518163 -0.266084 1
0.407397 0.546757 -0.246362 1
0.509170 0.533234 -0.373652 1
0.529997 0.520382 -0.199330 1
0.399769 0.535848 -0.322431 1
0.577849 0.519907 -0.319682 1
0.441869 0.538051 -0.205101 1
0.456647 0.540847 -0.377704 1
0.573842 0.522210 -0.232331 1
0.390004 0.548491 -0.273902 1
0.543581 0.529069 -0.365887 1
0.497729 0.523989 -0.184533 1
0.410914 0.534633 -0.353195 1
0.594725 0.515801 -0.285827 1
0.410768 0.538894 -0.221233 1
0.489940 0.536678 -0.388104 1
0.555629 0.520967 -0.200008 1
0.383757 0.537500 -0.305987 1
0.575472 0.526204 -0.344879 1
0.459210 0.531573 -0.184027 1
0.433515 0.538795 -0.379482 1
0.595423 0.519754 -0.247364 1
0.386069 0.547852 -0.250378 1
0.529134 0.528727 -0.386148 1
0.523236 0.525186 -0.177560 1
0.390500 0.523199 -0.340857 1
0.601888 0.517186 -0.311168 1
0.421260 0.537678 -0.197391 1
0.466706 0.537011 -0.396917 1
0.581649 0.520621 -0.208686 1
0.372557 0.545986 -0.285188 1
0.565966 0.530062 -0.369873 1
0.483034 0.526807 -0.167466 1
0.409709 0.532228 -0.374207 1
0.612718 0.516347 -0.269249 1
0.389179 0.543086 -0.223679 1
0.507968 0.530039 -0.402342 1
0.553059 0.520636 -0.176345 1
0.372667 0.490438 -0.319709 1
0.598741 0.525696 -0.339621 1
0.439677 0.530600 -0.173613 1
0.441227 0.532324 -0.399427 1
0.603683 0.525000 -0.226433 1
0.367457 0.551700 -0.260565 1
0.549825 0.531624 -0.392728 1
0.511006 0.527512 -0.158568 1
0.387004 0.508583 -0.361436 1
0.623196 0.513934 -0.296753 1
0.399673 0.538138 -0.196221 1
0.481928 0.532192 -0.412948 1
0.581146 0.524078 -0.185711 1
0.358849 0.525687 -0.298558 1
0.588444 0.532076 -0.367849 1
0.463914 0.531453 -0.156042 1
0.415250 0.515472 -0.395298 1
0.473514 0.535035 -0.276698 1
0.475755 0.533120 -0.263261 1
0.459395 0.533253 -0.288530 1
0.496894 0.533213 -0.277163 1
0.454608 0.538223 -0.258874 1
0.474776 0.533033 -0.305714 1
0.495944 0.529857 -0.250498 1
0.438791 0.537828 -0.282011 1
0.503862 0.535597 -0.297809 1
0.465109 0.536496 -0.238301 1
0.452563 0.534308 -0.312474 1
0.518187 0.526263 -0.261361 1
0.431407 0.545103 -0.259854 1
0.490966 0.536019 -0.320179 1
0.492826 0.527059 -0.227725 1
0.428594 0.535056 -0.300450 1
0.526034 0.530890 -0.289251 1
0.443787 0.541836 -0.232684 1
0.463275 0.535361 -0.331062 1
0.523284 0.523932 -0.238147 1
0.414839 0.543044 -0.273683 1
0.513753 0.536157 -0.320725 1
0.476003 0.524448 -0.211492 1
0.431169 0.534530 -0.322841 1
0.543139 0.521132 -0.267830 1
0.420768 0.545385 -0.239740 1
0.483725 0.538835 -0.342050 1
0.515334 0.520093 -0.213516 1
0.406867 0.539930 -0.295923 1
0.537653 0.532482 -0.308525 1
0.449103 0.535482 -0.208851 1
0.444964 0.538079 -0.343496 1
0.547051 0.521822 -0.240703 1
0.401564 0.546635 -0.257488 1
0.510976 0.536476 -0.342328 1
0.494041 0.522300 -0.195295 1
0.409803 0.535974 -0.321912 1
0.558971 0.520770 -0.284140 1
0.421034 0.541539 -0.216972 1
0.468632 0.539254 -0.357441 1
0.538903 0.520046 -0.211418 1
0.390272 0.547530 -0.283423 1
0.539462 0.533637 -0.330615 1
0.463896 0.527128 -0.187677 1
0.423746 0.538938 -0.347204 1
0.567791 0.518640 -0.252551 1
0.396566 0.542789 -0.235529 1
0.499654 0.536019 -0.361307 1
0.516642 0.523617 -0.187685 1
0.390153 0.538255 -0.312714 1
0.565108 0.527020 -0.306654 1
0.430369 0.532884 -0.192924 1
0.448450 0.538545 -0.366473 1
0.562623 0.519166 -0.218210 1
0.379492 0.552254 -0.264920 1
0.533952 0.530240 -0.352805 1
0.485146 0.523198 -0.172372 1
0.402268 0.530372 -0.342791 1
0.583131 0.516652 -0.271962 1
0.398978 0.541464 -0.211754 1
0.481130 0.538380 -0.376087 1
0.543490 0.518977 -0.186409 1
0.373890 0.540364 -0.296740 1
0.565743 0.525453 -0.331111 1
0.446739 0.530812 -0.172653 1
0.425109 0.538928 -0.368741 1
0.583116 0.520618 -0.233664 1
0.375106 0.550265 -0.241322 1
0.520802 0.526695 -0.373268 1
0.510700 0.523362 -0.164587 1
0.381381 0.519651 -0.330791 1
0.591570 0.515608 -0.296784 1
0.409352 0.534026 -0.185975 1
0.458127 0.539582 -0.385325 1
0.569046 0.520433 -0.195090 1
0.362377 0.543573 -0.275540 1
0.557034 0.528556 -0.356242 1
0.469402 0.530571 -0.157077 1
0.401681 0.524567 -0.363877 1
0.599968 0.519117 -0.255433 1
0.377580 0.546021 -0.214732 1
0.499893 0.528666 -0.389892 1
0.539626 0.521712 -0.163700 1
0.362776 0.524040 -0.312969 1
0.590685 0.519433 -0.325000 1
0.426917 0.530621 -0.162825 1
0.432809 0.535545 -0.388317 1
0.591758 0.523581 -0.212126 1
0.356790 0.550182 -0.251122 1
0.541358 0.530367 -0.379400 1
0.497678 0.527808 -0.146508 1
0.378400 0.495088 -0.351152 1
0.611568 0.514736 -0.282243 1
0.387524 0.537613 -0.186119 1
0.473635 0.533961 -0.400905 1
0.568894 0.521483 -0.171428 1
0.348881 0.529574 -0.289893 1
0.581362 0.524675 -0.353611 1
0.450501 0.533337 -0.145437 1
0.406410 0.525077 -0.384525 1
0.464150 0.535554 -0.264651 1
0.465664 0.536234 -0.251626 1
0.450063 0.535524 -0.276996 1
0.487327 0.534332 -0.264704 1
0.444293 0.543651 -0.248172 1
0.466258 0.531968 -0.293409 1
0.485974 0.530174 -0.237924 1
0.429586 0.538998 -0.270807 1
0.495640 0.532258 -0.284613 1
0.455348 0.534552 -0.225922 1
0.444038 0.534602 -0.300795 1
0.508049 0.527852 -0.248520 1
0.422094 0.543329 -0.248350 1
0.482854 0.534380 -0.307505 1
0.482714 0.525610 -0.214783 1
0.419447 0.540012 -0.289852 1
0.518045 0.525901 -0.275284 1
0.434278 0.536747 -0.220041 1
0.455518 0.532922 -0.318936 1
0.513230 0.523004 -0.224695 1
0.405650 0.543113 -0.262858 1
0.505974 0.533013 -0.307428 1
0.464254 0.530880 -0.200843 1
0.422806 0.536004 -0.311706 1
0.532618 0.523992 -0.254625 1
0.411029 0.543368 -0.228330 1
0.476530 0.534776 -0.329441 1
0.504600 0.519909 -0.200339 1
0.398025 0.542049 -0.285503 1
0.529791 0.528711 -0.294579 1
0.438483 0.535224 -0.197112 1
0.437418 0.536058 -0.331838 1
0.537630 0.518554 -0.226251 1
0.392128 0.545466 -0.246723 1
0.502705 0.537482 -0.329391 1
0.482714 0.523576 -0.182950 1
0.401305 0.540791 -0.311531 1
0.550350 0.517749 -0.269658 1
0.410673 0.540881 -0.205766 1
0.461745 0.535006 -0.345227 1
0.527762 0.521059 -0.198065 1
0.381342 0.547885 -0.273194 1
0.531952 0.530250 -0.316757 1
0.452485 0.528828 -0.176105 1
0.415981 0.540197 -0.336169 1
0.556303 0.522993 -0.239180 1
0.386508 0.544352 -0.225379 1
0.492197 0.535241 -0.348493 1
0.505329 0.523771 -0.174570 1
0.381740 0.540366 -0.302577 1
0.557642 0.521823 -0.291914 1
0.419213 0.534676 -0.182098 1
0.441105 0.538771 -0.354810 1
0.550962 0.522009 -0.204811 1
0.370210 0.552123 -0.254863 1
0.525359 0.532648 -0.339337 1
0.472909 0.527197 -0.161078 1
0.394108 0.537903 -0.332490 1
0.572356 0.519437 -0.257853 1
0.388371 0.543478 -0.201677 1
0.474429 0.535438 -0.363674 1
0.530982 0.523184 -0.173911 1
0.365202 0.543959 -0.287202 1
0.556295 0.528303 -0.317089 1
0.435090 0.532566 -0.161477 1
0.417722 0.540987 -0.357607 1
0.572273 0.521391 -0.219329 1
0.365279 0.552055 -0.231717 1
0.512703 0.529128 -0.359927 1
0.497757 0.528989 -0.153357 1
0.373186 0.526478 -0.320951 1
0.582537 0.514432 -0.281846 1
0.398094 0.536254 -0.175713 1
0.451223 0.539292 -0.373412 1
0.558029 0.519515 -0.180596 1
0.353313 0.546870 -0.266331 1
0.549882 0.525594 -0.342051 1
0.457044 0.534324 -0.146139 1
0.393787 0.535125 -0.353322 1
0.590055 0.518156 -0.240368 1
0.367172 0.544424 -0.204198 1
0.491605 0.534522 -0.376845 1
0.527109 0.524387 -0.150910 1
0.355822 0.672842 -0.317273 1
0.582405 0.517733 -0.310058 1
0.414830 0.535770 -0.153175 1
0.425724 0.538049 -0.376874 1
0.581386 0.521661 -0.196968 1
0.347181 0.549781 -0.241448 1
0.534702 0.527344 -0.365602 1
0.484059 0.535823 -0.136555 1
0.377237 0.047066 -0.324866 1
0.603040 0.511235 -0.266529 1
0.376480 0.535242 -0.174950 1
0.466269 0.537858 -0.388411 1
0.557192 0.521310 -0.157124 1
0.339631 0.518023 -0.278836 1
0.572943 0.525265 -0.338996 1
0.437895 0.538262 -0.135357 1
0.399888 0.518712 -0.373734 1
0.457011 0.538037 -0.253925 1
0.458559 0.537077 -0.240616 1
0.443510 0.535764 -0.266137 1
0.480755 0.533189 -0.252960 1
0.437504 0.542184 -0.237135 1
0.459743 0.533423 -0.282381 1
0.479449 0.526313 -0.225548 1
0.422873 0.540222 -0.260486 1
0.489133 0.532359 -0.272912 1
0.447779 0.535744 -0.215168 1
0.437935 0.534559 -0.289992 1
0.502353 0.521444 -0.235328 1
0.415161 0.543113 -0.237939 1
0.477066 0.532870 -0.295866 1
0.475028 0.525793 -0.203257 1
0.413410 0.537660 -0.279226 1
0.511459 0.525378 -0.263058 1
0.426609 0.538519 -0.209805 1
0.449680 0.533004 -0.307918 1
0.506916 0.517629 -0.211372 1
0.399094 0.541088 -0.252439 1
0.500185 0.531481 -0.295369 1
0.456640 0.529348 -0.189196 1
0.416935 0.535886 -0.301276 1
0.527088 0.517992 -0.241120 1
0.403900 0.541079 -0.217611 1
0.471207 0.532725 -0.317911 1
0.496430 0.520982 -0.188619 1
0.391674 0.543255 -0.275727 1
0.524441 0.524578 -0.281737 1
0.430726 0.534142 -0.186038 1
0.432082 0.534137 -0.321028 1
0.530069 0.518501 -0.213690 1
0.385260 0.543453 -0.236489 1
0.497863 0.533372 -0.317277 1
0.474441 0.524013 -0.171442 1
0.395353 0.542735 -0.301705 1
0.542782 0.520068 -0.257257 1
0.403209 0.537563 -0.194649 1
0.456828 0.531969 -0.333954 1
0.520145 0.519499 -0.185254 1
0.374818 0.549959 -0.263904 1
0.525779 0.530692 -0.304403 1
0.443874 0.531358 -0.165771 1
0.410442 0.541503 -0.325951 1
0.550245 0.518479 -0.225417 1
0.379068 0.547467 -0.216319 1
0.487028 0.534061 -0.336752 1
0.496644 0.525319 -0.163010 1
0.375358 0.554988 -0.294466 1
0.552969 0.515493 -0.278248 1
0.411604 0.528315 -0.169724 1
0.436318 0.535724 -0.343964 1
0.544452 0.517030 -0.190750 1
0.363402 0.556034 -0.246184 1
0.519212 0.534554 -0.327142 1
0.463688 0.531310 -0.150931 1
0.388397 0.542923 -0.322873 1
0.566013 0.516916 -0.244273 1
0.380772 0.538924 -0.190594 1
0.469728 0.533125 -0.352240 1
0.523318 0.520315 -0.160561 1
0.358965 0.555114 -0.279312 1
0.551246 0.524689 -0.303940 1
0.426359 0.534680 -0.151349 1
0.412356 0.544560 -0.347337 1
0.565741 0.517579 -0.205299 1
0.358088 0.553342 -0.222653 1
0.505974 0.535251 -0.347910 1
0.488819 0.530275 -0.141879 1
0.367389 0.533622 -0.311876 1
0.576179 0.513053 -0.268296 1
0.389778 0.537634 -0.165999 1
0.446628 0.537343 -0.362439 1
0.549353 0.520657 -0.167993 1
0.346852 0.553615 -0.258307 1
0.543029 0.529505 -0.329452 1
0.447840 0.537442 -0.136022 1
0.388526 0.538234 -0.343455 1
0.582568 0.518201 -0.226930 1
0.359448 0.547533 -0.195531 1
0.486799 0.533862 -0.365100 1
0.518010 0.525759 -0.138936 1
0.351259 0.711394 -0.312925 1
0.577115 0.514523 -0.296385 1
0.405981 0.538540 -0.143639 1
0.420602 0.541779 -0.366296 1
0.573709 0.520336 -0.183309 1
0.340125 0.548836 -0.232215 1
0.528288 0.531566 -0.353096 1
0.474494 0.539314 -0.126160 1
0.364938 0.517101 -0.331854 1
0.594775 0.514382 -0.253312 1
0.368154 0.538485 -0.166163 1
0.461758 0.536949 -0.377138 1
0.548176 0.522366 -0.144520 1
0.341279 0.727885 -0.298721 1
0.567930 0.522679 -0.325670 1
0.428620 0.541330 -0.125591 1
0.383472 0.723903 -0.362293 1
0.449966 0.534257 -0.242124 1
0.451324 0.532975 -0.228620 1
0.435710 0.539034 -0.255769 1
0.473498 0.530939 -0.240953 1
0.429748 0.541141 -0.226162 1
0.452459 0.534506 -0.271328 1
0.472159 0.521327 -0.212786 1
0.415275 0.541763 -0.250270 1
0.482191 0.530379 -0.260866 1
0.439795 0.533261 -0.203542 1
0.430964 0.534750 -0.279237 1
0.494020 0.522708 -0.223478 1
0.407452 0.541384 -0.227246 1
0.470208 0.532604 -0.284314 1
0.466504 0.525442 -0.191540 1
0.406248 0.538312 -0.269014 1
0.504036 0.524720 -0.250727 1
0.418638 0.534274 -0.198114 1
0.442944 0.533665 -0.296969 1
0.498203 0.518585 -0.199347 1
0.391479 0.541558 -0.242486 1
0.493447 0.530437 -0.283286 1
0.447870 0.529045 -0.177811 1
0.410108 0.537214 -0.291038 1
0.518813 0.519033 -0.228740 1
0.395711 0.540292 -0.207237 1
0.464831 0.531979 -0.306432 1
0.487292 0.522254 -0.176887 1
0.384288 0.548562 -0.266628 1
0.517221 0.524340 -0.269236 1
0.421796 0.534903 -0.175447 1
0.425699 0.534206 -0.310358 1
0.521376 0.519301 -0.201215 1
0.377265 0.546795 -0.227384 1
0.491448 0.532656 -0.305302 1
0.464988 0.525735 -0.160256 1
0.388640 0.543805 -0.291898 1
0.534776 0.520964 -0.244564 1
0.394484 0.538216 -0.184566 1
0.450517 0.532772 -0.322826 1
0.510661 0.521671 -0.173335 1
0.367449 0.551945 -0.254721 1
0.520179 0.525740 -0.291456 1
0.434528 0.532277 -0.154936 1
0.404208 0.541647 -0.315749 1
0.541968 0.518327 -0.212365 1
0.370729 0.551273 -0.207537 1
0.480843 0.533992 -0.325020 1
0.487251 0.525724 -0.151019 1
0.368786 0.547695 -0.284183 1
0.544895 0.517662 -0.265477 1
0.402084 0.532853 -0.160558 1
0.430476 0.534760 -0.333170 1
0.535194 0.518299 -0.178120 1
0.355756 0.557667 -0.237221 1
0.512943 0.533844 -0.314773 1
0.453780 0.533971 -0.140305 1
0.382119 0.543551 -0.313133 1
0.557165 0.519512 -0.231463 1
0.371980 0.539745 -0.180965 1
0.463502 0.535113 -0.340858 1
0.513394 0.522498 -0.148617 1
0.351949 0.554819 -0.270117 1
0.546187 0.518180 -0.290312 1
0.416637 0.537080 -0.141325 1
0.406569 0.544199 -0.337086 1
0.557037 0.517617 -0.191976 1
0.349983 0.554090 -0.213575 1
0.499812 0.535759 -0.335830 1
0.478099 0.535747 -0.131798 1
0.360886 0.535660 -0.302589 1
0.567772 0.515293 -0.255121 1
0.380501 0.538717 -0.156232 1
0.441099 0.536574 -0.351465 1
0.539396 0.523014 -0.155637 1
0.339321 0.549714 -0.248666 1
0.536825 0.528484 -0.316575 1
0.437341 0.543214 -0.126873 1
0.382576 0.539776 -0.333677 1
0.573531 0.520206 -0.213757 1
0.350805 0.549504 -0.186674 1
0.480752 0.535624 -0.353335 1
0.507806 0.527723 -0.127062 1
0.331628 0.072020 -0.235189 1
0.569119 0.516924 -0.283113 1
0.396587 0.534847 -0.131861 1
0.415095 0.541939 -0.355853 1
0.564212 0.521684 -0.170202 1
0.331823 0.539802 -0.221359 1
0.522194 0.531787 -0.340543 1
0.463787 0.543965 -0.116187 1
0.358074 0.656577 -0.329339 1
0.586436 0.515420 -0.239644 1
0.358919 0.535245 -0.155426 1
0.456437 0.536417 -0.365858 1
0.538131 0.523673 -0.131857 1
0.325808 0.518396 -0.260839 1
0.562071 0.520164 -0.312170 1
0.419055 0.537680 -0.113259 1
0.378233 0.733760 -0.353972 1
0.443565 0.538287 -0.231787 1
0.445225 0.533414 -0.217563 1
0.429925 0.540622 -0.245219 1
0.468188 0.527835 -0.228865 1
0.424320 0.535642 -0.214228 1
0.446790 0.536476 -0.260503 1
0.465285 0.524522 -0.201928 1
0.409368 0.544502 -0.240278 1
0.475825 0.534469 -0.249895 1
0.433144 0.535104 -0.192985 1
0.425278 0.538676 -0.268991 1
0.486825 0.527650 -0.212630 1
0.401318 0.542803 -0.217156 1
0.464615 0.534814 -0.273184 1
0.459272 0.529094 -0.180986 1
0.400649 0.541314 -0.259114 1
0.498167 0.525172 -0.238784 1
0.411910 0.536679 -0.188044 1
0.437869 0.534394 -0.286093 1
0.491574 0.519010 -0.187399 1
0.385453 0.546290 -0.233267 1
0.487926 0.531685 -0.271650 1
0.440789 0.530896 -0.167102 1
0.404871 0.539754 -0.280925 1
0.512341 0.520465 -0.216711 1
0.389247 0.542268 -0.197460 1
0.459756 0.533225 -0.295223 1
0.479945 0.524740 -0.165691 1
0.378963 0.547418 -0.256546 1
0.511680 0.524444 -0.257028 1
0.414863 0.535680 -0.164877 1
0.420667 0.536857 -0.299902 1
0.514451 0.520921 -0.189210 1
0.371183 0.549194 -0.218024 1
0.486645 0.532085 -0.293507 1
0.457040 0.530946 -0.150306 1
0.383663 0.543704 -0.281891 1
0.528721 0.521519 -0.232120 1
0.387761 0.538253 -0.174257 1
0.445808 0.533559 -0.311787 1
0.504122 0.520051 -0.160571 1
0.361878 0.553137 -0.245296 1
0.514168 0.528989 -0.279560 1
0.426790 0.537098 -0.145419 1
0.399447 0.543555 -0.305623 1
0.535267 0.519467 -0.199909 1
0.364509 0.545275 -0.196268 1
0.476184 0.534263 -0.313464 1
0.478902 0.531388 -0.140920 1
0.363661 0.550007 -0.274815 1
0.538893 0.518960 -0.252953 1
0.394839 0.534849 -0.150632 1
0.425844 0.536789 -0.322508 1
0.527646 0.520832 -0.166157 1
0.349894 0.551904 -0.226633 1
0.507887 0.534816 -0.302760 1
0.445461 0.540355 -0.131112 1
0.377489 0.543377 -0.303230 1
0.550864 0.520093 -0.218656 1
0.365194 0.539325 -0.170878 1
0.458998 0.536131 -0.329596 1
0.504930 0.527527 -0.137886 1
0.346539 0.544513 -0.259270 1
0.540998 0.517868 -0.277542 1
0.409184 0.537770 -0.130742 1
0.402609 0.540134 -0.326640 1
0.548754 0.522894 -0.180367 1
0.343668 0.548984 -0.202938 1
0.495100 0.536793 -0.323995 1
0.469933 0.539386 -0.121306 1
0.356068 0.534884 -0.292911 1
0.560772 0.518981 -0.242626 1
0.373397 0.536005 -0.145156 1
0.436800 0.537867 -0.340555 1
0.531946 0.524010 -0.143180 1
0.333152 0.534232 -0.236679 1
0.531790 0.529121 -0.304104 1
0.430116 0.540340 -0.114634 1
0.378358 0.537219 -0.323636 1
0.566633 0.521747 -0.200912 1
0.344046 0.545104 -0.175895 1
0.476411 0.536450 -0.341756 1
0.498595 0.534862 -0.117338 1
0.336615 0.534391 -0.276447 1
0.563178 0.518509 -0.270197 1
0.389178 0.531898 -0.120223 1
0.411282 0.539892 -0.345368 1
0.556542 0.523861 -0.157722 1
0.325358 0.532983 -0.210637 1
0.517349 0.533233 -0.328314 1
0.455851 0.545335 -0.105121 1
0.354203 0.523946 -0.313000 1
0.579076 0.519139 -0.226938 1
0.351672 0.533512 -0.144976 1
0.452075 0.539124 -0.354635 1
0.528933 0.529805 -0.121228 1
0.319961 0.512952 -0.250799 1
0.556827 0.520944 -0.299244 1
0.411585 0.533751 -0.100732 1
0.384858 0.529499 -0.343308 1
0.440090 0.539069 -0.221947 1
0.441606 0.534191 -0.207657 1
0.426499 0.542223 -0.235693 1
0.464698 0.528352 -0.218632 1
0.420756 0.535763 -0.204409 1
0.443211 0.539854 -0.251018 1
0.461296 0.526445 -0.192001 1
0.406228 0.542822 -0.230396 1
0.472192 0.536779 -0.239949 1
0.429237 0.536332 -0.183304 1
0.422255 0.538876 -0.259276 1
0.485076 0.518888 -0.200088 1
0.398321 0.535554 -0.206004 1
0.461963 0.532970 -0.262756 1
0.455517 0.528449 -0.170458 1
0.397362 0.543906 -0.250041 1
0.494398 0.527257 -0.228511 1
0.408406 0.533088 -0.177312 1
0.435055 0.534202 -0.276178 1
0.487210 0.521761 -0.177374 1
0.381987 0.548379 -0.224361 1
0.485096 0.530895 -0.261086 1
0.436532 0.532750 -0.157465 1
0.401772 0.542528 -0.271750 1
0.508521 0.521748 -0.206108 1
0.385847 0.535906 -0.186379 1
0.457257 0.531644 -0.284939 1
0.475704 0.526037 -0.155429 1
0.375730 0.550273 -0.247800 1
0.508350 0.525221 -0.246369 1
0.410961 0.534031 -0.154488 1
0.417774 0.538768 -0.290386 1
0.510703 0.520896 -0.178237 1
0.367615 0.550650 -0.209170 1
0.483689 0.532877 -0.283158 1
0.452228 0.535098 -0.141234 1
0.380682 0.546308 -0.272948 1
0.524991 0.522870 -0.221363 1
0.383729 0.539128 -0.164954 1
0.442941 0.535465 -0.301943 1
0.499362 0.523277 -0.150599 1
0.358628 0.553837 -0.236426 1
0.511343 0.528547 -0.268754 1
0.422341 0.539021 -0.135985 1
0.397090 0.539896 -0.295923 1
0.531174 0.521060 -0.189127 1
0.360736 0.545254 -0.187070 1
0.474147 0.531346 -0.302969 1
0.474384 0.532956 -0.130772 1
0.360713 0.551401 -0.266000 1
0.535398 0.520039 -0.242012 1
0.390436 0.537727 -0.141828 1
0.423637 0.534453 -0.312644 1
0.523618 0.521125 -0.155069 1
0.346421 0.549498 -0.217217 1
0.505164 0.534838 -0.292129 1
0.440737 0.543031 -0.121765 1
0.374766 0.545738 -0.294253 1
0.547109 0.520990 -0.207560 1
0.361184 0.536521 -0.160732 1
0.456387 0.537235 -0.319539 1
0.500143 0.529982 -0.127737 1
0.343395 0.541796 -0.249979 1
0.538417 0.516484 -0.266250 1
0.404838 0.537045 -0.120533 1
0.400083 0.541647 -0.317243 1
0.545308 0.521679 -0.168694 1
0.340018 0.552422 -0.194856 1
0.492407 0.537604 -0.313553 1
0.464909 0.542830 -0.111983 1
0.353314 0.536473 -0.284055 1
0.557614 0.518590 -0.231197 1
0.369096 0.535432 -0.135438 1
0.434494 0.537904 -0.330698 1
0.526465 0.528904 -0.133532 1
0.329975 0.539714 -0.228859 1
0.528056 0.532743 -0.293474 1
0.425737 0.539047 -0.103912 1
0.375952 0.536609 -0.314378 1
0.562525 0.523210 -0.189786 1
0.339925 0.539766 -0.165315 1
0.473740 0.538208 -0.331502 1
0.493232 0.539138 -0.107998 1
0.333677 0.534140 -0.267595 1
0.558935 0.522226 -0.259338 1
0.384703 0.530316 -0.109810 1
0.409013 0.540354 -0.335804 1
0.552259 0.524780 -0.146523 1
0.320565 0.509487 -0.196464 1
0.513760 0.537478 -0.317754 1
0.451130 0.546272 -0.094996 1
0.352153 1.255947 -0.351915 1
0.574276 0.523155 -0.216170 1
0.347332 0.535569 -0.136342 1
0.450132 0.537611 -0.344607 1
0.523434 0.534115 -0.111530 1
0.350084 1.130140 -0.340190 1
0.553836 0.521555 -0.288040 1
0.406954 0.532801 -0.090208 1
0.382083 0.540767 -0.334160 1
0.442319 0.532304 -0.211521 1
0.443084 0.531881 -0.198011 1
0.427958 0.541383 -0.226715 1
0.466740 0.524424 -0.208419 1
0.421955 0.534501 -0.195242 1
0.444778 0.539766 -0.242008 1
0.462581 0.525242 -0.182251 1
0.407507 0.542662 -0.221771 1
0.475854 0.525762 -0.228624 1
0.430893 0.529966 -0.172573 1
0.423671 0.540502 -0.250769 1
0.486590 0.517657 -0.190049 1
0.399017 0.540016 -0.198423 1
0.463571 0.533716 -0.253633 1
0.456639 0.526728 -0.160523 1
0.398836 0.543575 -0.241544 1
0.497373 0.520808 -0.217545 1
0.409218 0.532617 -0.168359 1
0.436672 0.535676 -0.267463 1
0.487588 0.524862 -0.168370 1
0.383261 0.545753 -0.215536 1
0.486865 0.530981 -0.251589 1
0.436780 0.535631 -0.149105 1
0.403585 0.541000 -0.263091 1
0.509414 0.523721 -0.196559 1
0.386556 0.537678 -0.178334 1
0.458842 0.533818 -0.276024 1
0.476136 0.527751 -0.146187 1
0.376992 0.552899 -0.240077 1
0.511138 0.520972 -0.235823 1
0.411301 0.536093 -0.146198 1
0.420018 0.535717 -0.281449 1
0.511936 0.520474 -0.167993 1
0.368728 0.544778 -0.199686 1
0.485316 0.534573 -0.273904 1
0.452255 0.538120 -0.132750 1
0.382186 0.549423 -0.265134 1
0.527439 0.519642 -0.210576 1
0.384568 0.533840 -0.154862 1
0.445095 0.534964 -0.292971 1
0.498849 0.529029 -0.142305 1
0.359847 0.553700 -0.228442 1
0.515441 0.520034 -0.257841 1
0.422814 0.537963 -0.126505 1
0.398814 0.542784 -0.287774 1
0.531673 0.523938 -0.179521 1
0.361500 0.543253 -0.178398 1
0.475653 0.534689 -0.293918 1
0.474363 0.535599 -0.121869 1
0.362225 0.553392 -0.258319 1
0.536541 0.522355 -0.232202 1
0.390755 0.538077 -0.133241 1
0.425654 0.535728 -0.304008 1
0.524552 0.521228 -0.144715 1
0.347448 0.550294 -0.209510 1
0.507065 0.535700 -0.282560 1
0.441050 0.542560 -0.112200 1
0.376561 0.547891 -0.286331 1
0.547597 0.524419 -0.197875 1
0.361720 0.533896 -0.151662 1
0.458919 0.535659 -0.310408 1
0.500027 0.532930 -0.118598 1
0.344872 0.547723 -0.243095 1
0.540817 0.515290 -0.255900 1
0.405154 0.535175 -0.110875 1
0.402084 0.543587 -0.308939 1
0.545911 0.523569 -0.158645 1
0.340610 0.542908 -0.184622 1
0.494482 0.538471 -0.304150 1
0.464986 0.543686 -0.102565 1
0.355052 0.549202 -0.277446 1
0.558906 0.520165 -0.220984 1
0.369317 0.536176 -0.127218 1
0.437091 0.536038 -0.321839 1
0.527678 0.527198 -0.122463 1
0.331211 0.541216 -0.221429 1
0.531840 0.527116 -0.283038 1
0.425962 0.537462 -0.093982 1
0.377753 0.544644 -0.306662 1
0.563941 0.523254 -0.179100 1
0.340315 0.533616 -0.155517 1
0.475907 0.539407 -0.322313 1
0.493060 0.541317 -0.098699 1
0.334988 0.521215 -0.258173 1
0.561489 0.520637 -0.248695 1
0.384565 0.533491 -0.102210 1
0.411472 0.539329 -0.327276 1
0.553125 0.525186 -0.135891 1
0.321611 0.511073 -0.188986 1
0.516546 0.535855 -0.307980 1
0.451873 0.541645 -0.083443 1
0.353704 0.535528 -0.296780 1
0.575804 0.523687 -0.205551 1
0.347486 0.526002 -0.124905 1
0.452444 0.538783 -0.335655 1
0.524191 0.533193 -0.100644 1
0.294994 0.057480 -0.159251 1
0.555687 0.522905 -0.277889 1
0.407081 0.529856 -0.079833 1
0.384461 0.539861 -0.325929 1
0.445469 0.535501 -0.204944 1
0.446937 0.529937 -0.190258 1
0.431212 0.544139 -0.220171 1
0.469083 0.531959 -0.202553 1
0.424974 0.538348 -0.189020 1
0.448683 0.538723 -0.234677 1
0.465100 0.531213 -0.176244 1
0.410924 0.543790 -0.215071 1
0.478805 0.530328 -0.221981 1
0.433849 0.533400 -0.166211 1
0.427134 0.542713 -0.244118 1
0.488954 0.524206 -0.183905 1
0.402401 0.540178 -0.191531 1
0.466711 0.537850 -0.246945 1
0.459336 0.531132 -0.154244 1
0.402403 0.544128 -0.234821 1
0.501370 0.520497 -0.209790 1
0.412250 0.535439 -0.162021 1
0.440155 0.538519 -0.260751 1
0.491709 0.522547 -0.159949 1
0.386636 0.546633 -0.208975 1
0.491503 0.528003 -0.243677 1
0.440022 0.535749 -0.141739 1
0.407171 0.542917 -0.256521 1
0.513523 0.522716 -0.188480 1
0.389764 0.538784 -0.171730 1
0.462545 0.535498 -0.269003 1
0.479174 0.529756 -0.139048 1
0.380799 0.546586 -0.232377 1
0.515469 0.519934 -0.227913 1
0.414100 0.539742 -0.140150 1
0.423688 0.537924 -0.274745 1
0.515142 0.522616 -0.160594 1
0.372001 0.546186 -0.193339 1
0.489062 0.536032 -0.266685 1
0.454844 0.541861 -0.126435 1
0.385817 0.550296 -0.258614 1
0.531245 0.520444 -0.202800 1
0.387497 0.537939 -0.149130 1
0.448970 0.536050 -0.285984 1
0.502578 0.528116 -0.134048 1
0.363274 0.553102 -0.221816 1
0.518458 0.524561 -0.250760 1
0.425412 0.542001 -0.120550 1
0.402540 0.544601 -0.281196 1
0.536680 0.520005 -0.170415 1
0.364825 0.537296 -0.170128 1
0.479603 0.535589 -0.286715 1
0.476325 0.542081 -0.116347 1
0.365847 0.552222 -0.251668 1
0.540936 0.521540 -0.224137 1
0.393927 0.535923 -0.125444 1
0.429472 0.537646 -0.297201 1
0.527173 0.525156 -0.137751 1
0.350763 0.548621 -0.202672 1
0.510927 0.536945 -0.275181 1
0.443831 0.544248 -0.105272 1
0.380292 0.549494 -0.279906 1
0.552841 0.520566 -0.188857 1
0.364798 0.535185 -0.145265 1
0.462944 0.536441 -0.303316 1
0.502414 0.537059 -0.112013 1
0.348402 0.547168 -0.236593 1
0.543292 0.521517 -0.248864 1
0.408106 0.535252 -0.103617 1
0.406064 0.543716 -0.302207 1
0.549059 0.525884 -0.151031 1
0.343786 0.539690 -0.177293 1
0.499235 0.536190 -0.296638 1
0.467693 0.545615 -0.095512 1
0.358787 0.548903 -0.270978 1
0.562034 0.523534 -0.213505 1
0.372423 0.531808 -0.118788 1
0.441263 0.536025 -0.314857 1
0.529996 0.531664 -0.115723 1
0.334483 0.534784 -0.213787 1
0.537296 0.523245 -0.274949 1
0.428866 0.537552 -0.086489 1
0.381639 0.545898 -0.300157 1
0.567256 0.525457 -0.171335 1
0.343400 0.532092 -0.148452 1
0.480102 0.539641 -0.315116 1
0.495415 0.544938 -0.092054 1
0.339168 0.540567 -0.254326 1
0.564832 0.523712 -0.241114 1
0.387701 0.528802 -0.093259 1
0.415582 0.539573 -0.320480 1
0.556665 0.525969 -0.127692 1
0.325812 0.529760 -0.186939 1
0.520530 0.537153 -0.300553 1
0.454726 0.542110 -0.075845 1
0.357628 0.537195 -0.290430 1
0.579894 0.524100 -0.197332 1
0.350480 0.535325 -0.121325 1
0.456629 0.539203 -0.328614 1
0.526020 0.538901 -0.094492 1
0.322482 0.525967 -0.230068 1
0.562030 0.517065 -0.269367 1
0.409560 0.533657 -0.073968 1
0.388454 0.541575 -0.319346 1
0.455731 0.529630 -0.194651 1
0.455820 0.532692 -0.181793 1
0.441172 0.538544 -0.210309 1
0.479374 0.528008 -0.192445 1
0.434370 0.535961 -0.179530 1
0.457721 0.540848 -0.226201 1
0.475293 0.527041 -0.165776 1
0.420232 0.541402 -0.205957 1
0.489438 0.525812 -0.211917 1
0.442944 0.533509 -0.157100 1
0.436442 0.542363 -0.235443 1
0.499455 0.520670 -0.173462 1
0.411937 0.534071 -0.181360 1
0.476751 0.535467 -0.237657 1
0.468465 0.531883 -0.145005 1
0.411330 0.545844 -0.226652 1
0.510421 0.524072 -0.201027 1
0.421083 0.536449 -0.153350 1
0.449113 0.541693 -0.252503 1
0.500412 0.526667 -0.151365 1
0.395907 0.541095 -0.199337 1
0.500868 0.530150 -0.234836 1
0.448308 0.540535 -0.133931 1
0.416331 0.543496 -0.248173 1
0.523130 0.523982 -0.179046 1
0.398812 0.535912 -0.162255 1
0.471594 0.538674 -0.260579 1
0.487717 0.533692 -0.130550 1
0.389722 0.547349 -0.224212 1
0.524907 0.522473 -0.218869 1
0.422710 0.541439 -0.131616 1
0.432967 0.539133 -0.266369 1
0.525369 0.521301 -0.150247 1
0.381122 0.538557 -0.183107 1
0.499213 0.534614 -0.257527 1
0.463485 0.543804 -0.117549 1
0.394969 0.548872 -0.250194 1
0.540094 0.525004 -0.194007 1
0.396186 0.538598 -0.140541 1
0.458711 0.535395 -0.277284 1
0.511038 0.532663 -0.125509 1
0.372221 0.548010 -0.212647 1
0.530538 0.517570 -0.240390 1
0.434219 0.541630 -0.111101 1
0.411903 0.543794 -0.272809 1
0.545307 0.525069 -0.161687 1
0.373535 0.538736 -0.162038 1
0.489802 0.533879 -0.277730 1
0.485224 0.543131 -0.106872 1
0.374766 0.552815 -0.243663 1
0.550874 0.522810 -0.214665 1
0.402434 0.538156 -0.117211 1
0.439222 0.536233 -0.288625 1
0.535630 0.530140 -0.129103 1
0.359519 0.545900 -0.193894 1
0.523135 0.528748 -0.265207 1
0.452790 0.543218 -0.095271 1
0.389571 0.547295 -0.271546 1
0.561593 0.525520 -0.179975 1
0.373516 0.533795 -0.136208 1
0.472965 0.535123 -0.294575 1
0.510479 0.542380 -0.103797 1
0.357271 0.551541 -0.229300 1
0.553567 0.521992 -0.239378 1
0.416598 0.537027 -0.094996 1
0.415701 0.541391 -0.293776 1
0.558768 0.527285 -0.141114 1
0.352496 0.536997 -0.168323 1
0.509095 0.536727 -0.287778 1
0.476134 0.548052 -0.086561 1
0.367782 0.551708 -0.263284 1
0.572542 0.523512 -0.203562 1
0.380975 0.533261 -0.110443 1
0.451056 0.535443 -0.306334 1
0.539208 0.533584 -0.105962 1
0.343552 0.543865 -0.207556 1
0.546924 0.525841 -0.265889 1
0.437462 0.538329 -0.077176 1
0.390887 0.546570 -0.292081 1
0.577029 0.527328 -0.161517 1
0.352070 0.531147 -0.139736 1
0.490177 0.538729 -0.306388 1
0.503949 0.547585 -0.082872 1
0.348248 0.541087 -0.246416 1
0.575735 0.522841 -0.231224 1
0.396247 0.529715 -0.084423 1
0.425515 0.536438 -0.312050 1
0.566449 0.527172 -0.117469 1
0.334823 0.535016 -0.180091 1
0.530534 0.537723 -0.291592 1
0.463663 0.541307 -0.065521 1
0.366906 0.539072 -0.282528 1
0.589982 0.525650 -0.187477 1
0.359107 0.524566 -0.108931 1
0.466833 0.536926 -0.320044 1
0.535379 0.539680 -0.084215 1
0.331622 0.525787 -0.222018 1
0.571037 0.522121 -0.260376 1
0.418240 0.532678 -0.064008 1
0.397768 0.543474 -0.311262 1
0.470292 0.524943 -0.180958 1
0.470011 0.529688 -0.168335 1
0.455332 0.534041 -0.197099 1
0.494639 0.522165 -0.178248 1
0.448283 0.532355 -0.166083 1
0.472427 0.534797 -0.212859 1
0.489022 0.528020 -0.152976 1
0.434174 0.535619 -0.192575 1
0.504865 0.520362 -0.198082 1
0.456311 0.534123 -0.144452 1
0.449558 0.543989 -0.223742 1
0.513827 0.520551 -0.160184 1
0.425314 0.532723 -0.168680 1
0.492637 0.526146 -0.223803 1
0.481708 0.534427 -0.132599 1
0.424609 0.544259 -0.214510 1
0.524696 0.524676 -0.188170 1
0.433994 0.538742 -0.141394 1
0.462559 0.542049 -0.240615 1
0.513897 0.529704 -0.138822 1
0.409263 0.537315 -0.186477 1
0.516594 0.524221 -0.221297 1
0.461243 0.543052 -0.121709 1
0.429671 0.542482 -0.236262 1
0.537698 0.524119 -0.165743 1
0.411701 0.537688 -0.150387 1
0.486069 0.535340 -0.248098 1
0.501107 0.536109 -0.117826 1
0.402877 0.544501 -0.211965 1
0.539872 0.521394 -0.205739 1
0.435664 0.542487 -0.119127 1
0.446394 0.539250 -0.254598 1
0.539117 0.524548 -0.137485 1
0.394282 0.535118 -0.170200 1
0.515514 0.526039 -0.244095 1
0.476539 0.545903 -0.104928 1
0.408285 0.545182 -0.238083 1
0.554835 0.525303 -0.180796 1
0.409148 0.538305 -0.127913 1
0.472439 0.535410 -0.265392 1
0.524167 0.536966 -0.113158 1
0.385269 0.543050 -0.199953 1
0.543872 0.522563 -0.228397 1
0.447586 0.540303 -0.097414 1
0.425401 0.541453 -0.260962 1
0.560025 0.525716 -0.148144 1
0.386347 0.539192 -0.150033 1
0.503603 0.534951 -0.265778 1
0.498561 0.544911 -0.093798 1
0.387735 0.549829 -0.231753 1
0.565581 0.523758 -0.201717 1
0.415350 0.538421 -0.104468 1
0.452895 0.535620 -0.276852 1
0.551175 0.527428 -0.114137 1
0.372363 0.541836 -0.181213 1
0.539574 0.522101 -0.251993 1
0.466804 0.539400 -0.080172 1
0.402759 0.545464 -0.259902 1
0.576933 0.525029 -0.166232 1
0.386293 0.535306 -0.124288 1
0.486895 0.534886 -0.282703 1
0.525106 0.540550 -0.089027 1
0.369992 0.551326 -0.217849 1
0.569220 0.520206 -0.226194 1
0.429775 0.535925 -0.081310 1
0.429441 0.538039 -0.281988 1
0.574424 0.525743 -0.126510 1
0.365280 0.536723 -0.156318 1
0.524161 0.533588 -0.275451 1
0.490029 0.546405 -0.071969 1
0.380725 0.549577 -0.251706 1
0.587689 0.524098 -0.190272 1
0.393943 0.531371 -0.097001 1
0.464941 0.534405 -0.294586 1
0.553334 0.535471 -0.092280 1
0.356275 0.548338 -0.197001 1
0.563063 0.521977 -0.252869 1
0.450475 0.539597 -0.064024 1
0.404314 0.542681 -0.280406 1
0.591677 0.529405 -0.148135 1
0.364811 0.534192 -0.128495 1
0.504260 0.538343 -0.294553 1
0.518936 0.543634 -0.066929 1
0.361041 0.552622 -0.236800 1
0.590605 0.524264 -0.218360 1
0.409042 0.531702 -0.072007 1
0.439143 0.535628 -0.300466 1
0.580855 0.529629 -0.103804 1
0.347642 0.538386 -0.169232 1
0.548242 0.527048 -0.278603 1
0.476700 0.543459 -0.052355 1
0.379586 0.549869 -0.272193 1
0.605043 0.527143 -0.174107 1
0.371868 0.528039 -0.097570 1
0.480528 0.537536 -0.308405 1
0.549323 0.541692 -0.070402 1
0.344947 0.542471 -0.213588 1
0.586871 0.520646 -0.247408 1
0.431351 0.532418 -0.050193 1
0.411136 0.542109 -0.299840 1
0.484993 0.524917 -0.167108 1
0.485032 0.527886 -0.153908 1
0.471029 0.526391 -0.181865 1
0.510067 0.520603 -0.163853 1
0.462893 0.530914 -0.151841 1
0.488940 0.524822 -0.197470 1
0.503648 0.529574 -0.139195 1
0.448951 0.530934 -0.178021 1
0.519398 0.522759 -0.184799 1
0.469816 0.539581 -0.132017 1
0.465246 0.534294 -0.208843 1
0.527748 0.526167 -0.147425 1
0.439134 0.534963 -0.155573 1
0.507484 0.525897 -0.210340 1
0.495152 0.540797 -0.120284 1
0.439311 0.537442 -0.200032 1
0.541015 0.521454 -0.173450 1
0.447503 0.543249 -0.128817 1
0.478287 0.533752 -0.226310 1
0.528771 0.531563 -0.124873 1
0.423354 0.535064 -0.172518 1
0.532855 0.520113 -0.207002 1
0.474784 0.547966 -0.109066 1
0.443462 0.542675 -0.223352 1
0.553923 0.522447 -0.150970 1
0.425061 0.542927 -0.138169 1
0.502559 0.526496 -0.233761 1
0.514330 0.543790 -0.105823 1
0.416948 0.539906 -0.197960 1
0.555817 0.520246 -0.191683 1
0.449587 0.544239 -0.105477 1
0.460016 0.541349 -0.242018 1
0.553871 0.528149 -0.123888 1
0.407898 0.537313 -0.157250 1
0.532608 0.518323 -0.229674 1
0.490600 0.548861 -0.091367 1
0.422139 0.542775 -0.224842 1
0.571452 0.523153 -0.166104 1
0.422611 0.542890 -0.115409 1
0.487165 0.533129 -0.252254 1
0.538660 0.540598 -0.099549 1
0.398959 0.540915 -0.186346 1
0.559807 0.521247 -0.214632 1
0.461206 0.545080 -0.084591 1
0.438735 0.544503 -0.248593 1
0.576386 0.525121 -0.133302 1
0.399977 0.540137 -0.136647 1
0.520619 0.525566 -0.251758 1
0.511989 0.551504 -0.081410 1
0.401533 0.544249 -0.217986 1
0.582472 0.521181 -0.187240 1
0.429854 0.534682 -0.088653 1
0.466959 0.535394 -0.264076 1
0.565134 0.534079 -0.101349 1
0.385964 0.539841 -0.167439 1
0.555658 0.519709 -0.238395 1
0.480502 0.544695 -0.067289 1
0.416223 0.545946 -0.247289 1
0.593186 0.525345 -0.151858 1
0.400107 0.535175 -0.110226 1
0.501650 0.533125 -0.269792 1
0.538981 0.546500 -0.076117 1
0.383355 0.549385 -0.204637 1
0.583221 0.525750 -0.213527 1
0.444397 0.533817 -0.065579 1
0.443427 0.536542 -0.269185 1
0.590517 0.526973 -0.111832 1
0.378783 0.538765 -0.143375 1
0.542597 0.521152 -0.261312 1
0.504919 0.546982 -0.056891 1
0.393973 0.550748 -0.239236 1
0.602901 0.527278 -0.176872 1
0.408213 0.527923 -0.081220 1
0.479194 0.533612 -0.281873 1
0.566907 0.543240 -0.079872 1
0.369676 0.542862 -0.182745 1
0.579193 0.520710 -0.239397 1
0.465079 0.539457 -0.048716 1
0.417688 0.544249 -0.267966 1
0.608908 0.528061 -0.132954 1
0.378552 0.531703 -0.113793 1
0.520292 0.532188 -0.281485 1
0.533094 0.548596 -0.053471 1
0.374239 0.552227 -0.224080 1
0.605756 0.527256 -0.205174 1
0.423594 0.528235 -0.055628 1
0.453247 0.533938 -0.287768 1
0.596370 0.532887 -0.089528 1
0.361103 0.535183 -0.155038 1
0.565888 0.519679 -0.264946 1
0.490820 0.547223 -0.038497 1
0.392874 0.549735 -0.259667 1
0.620994 0.529259 -0.160234 1
0.385901 0.524171 -0.081745 1
0.494730 0.537276 -0.295866 1
0.563204 0.548478 -0.057538 1
0.358237 0.548937 -0.201996 1
0.601784 0.523833 -0.234448 1
0.445668 0.533603 -0.035334 1
0.424851 0.540535 -0.287241 1
0.499936 0.526138 -0.155469 1
0.499593 0.530873 -0.142667 1
0.486293 0.524842 -0.169751 1
0.525220 0.522450 -0.152232 1
0.477131 0.534494 -0.140861 1
0.504308 0.523754 -0.185613 1
0.518229 0.533292 -0.128015 1
0.463619 0.530839 -0.166314 1
0.534552 0.524470 -0.173344 1
0.484300 0.541814 -0.120538 1
0.480483 0.531224 -0.196859 1
0.544167 0.524332 -0.134553 1
