ply
format ascii 1.0
element vertex 1578
property float x
property float y
property float z
property uchar label
end_header
-0.065879 0.081029 -0.797807 1
0.111249 0.113832 -0.777377 1
-0.095464 0.031747 -0.596674 1
0.000865 0.033117 -0.824973 1
0.091053 0.149769 -0.708439 1
-0.126410 0.029099 -0.705057 1
0.081809 0.026841 -0.787018 1
-0.020939 0.076588 -0.599679 1
-0.058626 0.037069 -0.810569 1
0.116362 0.115066 -0.740267 1
-0.119340 0.047898 -0.638939 1
0.037735 0.029341 -0.826953 1
0.075986 0.193464 -0.710330 1
-0.078770 0.108033 -0.796729 1
0.116875 0.106127 -0.798729 1
-0.084161 0.033845 -0.564493 1
-0.024010 0.031931 -0.833588 1
0.109955 0.127620 -0.705657 1
-0.139953 0.039995 -0.678774 1
0.074381 0.027499 -0.814366 1
0.002712 0.070354 -0.579137 1
-0.084511 0.045447 -0.806261 1
0.129962 0.117558 -0.766967 1
-0.127325 0.032670 -0.588142 1
0.016443 0.026937 -0.842800 1
0.096924 0.178331 -0.703717 1
-0.134055 0.047244 -0.736961 1
0.113484 0.082990 -0.814398 1
-0.045421 0.077219 -0.574923 1
-0.053966 0.030037 -0.833815 1
0.126339 0.096794 -0.706184 1
-0.148539 0.045765 -0.643302 1
0.060521 0.033817 -0.840863 1
0.079195 0.239583 -0.724692 1
-0.093075 0.089259 -0.810681 1
0.137012 0.118137 -0.795741 1
-0.111275 0.043482 -0.558889 1
-0.010332 0.026594 -0.853046 1
0.115221 0.139713 -0.687946 1
-0.161009 0.037974 -0.695733 1
0.097022 0.021881 -0.814358 1
0.032493 0.216333 -0.685780 1
-0.084965 0.033436 -0.827450 1
0.139869 0.072155 -0.719519 1
-0.158969 0.031117 -0.588196 1
0.038100 0.031059 -0.858720 1
0.100748 0.224927 -0.717083 1
-0.143772 0.045748 -0.761375 1
0.134906 0.094232 -0.813182 1
-0.068487 0.089971 -0.568666 1
-0.041504 0.027364 -0.856114 1
0.134987 0.112413 -0.691364 1
-0.176598 0.037767 -0.652429 1
0.082386 0.028164 -0.844054 1
0.000410 0.058014 -0.752316 1
-0.007675 0.075181 -0.752936 1
0.002398 0.038747 -0.764565 1
0.014519 0.073388 -0.736265 1
-0.029039 0.051968 -0.759266 1
0.027935 0.040769 -0.757995 1
0.003970 0.126744 -0.757617 1
-0.013881 0.036906 -0.782305 1
0.036921 0.065364 -0.734536 1
-0.023526 0.116192 -0.774467 1
0.024218 0.031797 -0.781716 1
0.024141 0.131808 -0.745201 1
-0.038526 0.049587 -0.783332 1
0.048848 0.035444 -0.744006 1
-0.053860 0.038774 -0.691335 1
0.002766 0.035933 -0.803884 1
0.044478 0.096674 -0.727038 1
-0.042061 0.104931 -0.785897 1
0.048222 0.029608 -0.778563 1
-0.022262 0.059041 -0.676761 1
-0.034056 0.034409 -0.802692 1
0.060022 0.041561 -0.721719 1
-0.061925 0.078540 -0.728023 1
0.026030 0.027507 -0.809086 1
0.040200 0.135407 -0.727647 1
-0.061430 0.060306 -0.789727 1
0.069321 0.033940 -0.763115 1
-0.064932 0.028694 -0.650675 1
-0.012292 0.031867 -0.822989 1
0.066366 0.088076 -0.719025 1
-0.057165 0.121636 -0.779121 1
0.053918 0.027892 -0.804402 1
-0.019917 0.029202 -0.628839 1
-0.059090 0.032998 -0.807662 1
0.081286 0.036969 -0.734637 1
-0.092160 0.037037 -0.669994 1
0.018232 0.033490 -0.834517 1
0.061529 0.137261 -0.721877 1
-0.068895 0.099776 -0.798975 1
0.078077 0.025469 -0.784133 1
-0.054375 0.038842 -0.627551 1
-0.035417 0.027111 -0.831901 1
0.093381 0.111762 -0.744557 1
-0.119729 0.025063 -0.692337 1
0.050205 0.031487 -0.831135 1
0.010489 0.055555 -0.632996 1
-0.080253 0.046760 -0.808501 1
0.104442 0.089913 -0.787605 1
-0.094886 0.033821 -0.633902 1
-0.000002 0.031524 -0.850103 1
0.083869 0.133422 -0.722664 1
-0.087065 0.106127 -0.781904 1
0.079325 0.025365 -0.811479 1
-0.039310 0.032023 -0.597490 1
-0.060339 0.031356 -0.835476 1
0.112674 0.116824 -0.765924 1
-0.128438 0.028367 -0.659614 1
0.036607 0.028702 -0.851708 1
0.048229 0.096201 -0.660113 1
-0.085222 0.092713 -0.816070 1
0.104072 0.033755 -0.784720 1
-0.084408 0.035373 -0.602527 1
-0.024466 0.030179 -0.859011 1
0.104473 0.120381 -0.726470 1
-0.141616 0.034142 -0.708426 1
0.072532 0.026829 -0.838663 1
-0.001730 0.066254 -0.609745 1
-0.088550 0.033990 -0.829116 1
0.126106 0.117166 -0.790074 1
-0.126219 0.033912 -0.625867 1
0.016109 0.027280 -0.868050 1
0.088033 0.154792 -0.711412 1
-0.099639 0.110094 -0.802384 1
0.106487 0.050524 -0.822214 1
-0.059799 0.045941 -0.583871 1
-0.052894 0.031088 -0.860983 1
0.122237 0.100808 -0.734575 1
-0.150334 0.039750 -0.674021 1
0.058381 0.029123 -0.863188 1
0.027388 0.059178 -0.598820 1
-0.111242 0.049496 -0.819434 1
0.131936 0.102620 -0.809843 1
-0.111127 0.044017 -0.597014 1
-0.009629 0.028448 -0.879156 1
0.108757 0.128487 -0.705925 1
-0.159395 0.037219 -0.728483 1
0.095737 0.027130 -0.840733 1
-0.015528 0.088762 -0.602439 1
-0.085532 0.029390 -0.853362 1
0.136435 0.084111 -0.752052 1
-0.158598 0.029260 -0.624310 1
0.037245 0.029934 -0.882552 1
0.088770 0.188192 -0.711766 1
-0.110836 0.103531 -0.821155 1
0.131761 0.093307 -0.834926 1
-0.086993 0.051297 -0.571137 1
-0.039234 0.031795 -0.883683 1
0.128257 0.096962 -0.706457 1
-0.181082 0.026185 -0.679910 1
0.080666 0.026476 -0.867109 1
-0.017658 0.044522 -0.760002 1
-0.025841 0.061725 -0.760380 1
-0.011814 0.036920 -0.778874 1
0.001243 0.074943 -0.752331 1
-0.044797 0.045965 -0.771658 1
0.011863 0.032516 -0.768517 1
-0.012075 0.118026 -0.766681 1
-0.028157 0.034188 -0.796287 1
0.017706 0.046084 -0.737909 1
-0.040230 0.106268 -0.783465 1
0.010639 0.031500 -0.796387 1
0.009478 0.127013 -0.756435 1
-0.054475 0.042431 -0.795284 1
0.035036 0.036824 -0.759652 1
-0.062154 0.054135 -0.718147 1
-0.013243 0.026533 -0.814420 1
0.034046 0.108978 -0.749628 1
-0.060936 0.090369 -0.792912 1
0.035121 0.031873 -0.794204 1
-0.026214 0.088038 -0.713238 1
-0.047221 0.034098 -0.817995 1
0.045602 0.041900 -0.736893 1
-0.094808 0.035475 -0.717548 1
0.013342 0.029072 -0.824326 1
0.026422 0.134107 -0.741149 1
-0.074255 0.060634 -0.805599 1
0.054539 0.029862 -0.775330 1
-0.079696 0.029706 -0.669199 1
-0.024302 0.034221 -0.838942 1
0.053160 0.092050 -0.736153 1
-0.076725 0.106693 -0.785620 1
0.041252 0.030496 -0.819747 1
-0.032709 0.037428 -0.652393 1
-0.071125 0.035305 -0.824495 1
0.066229 0.033702 -0.747300 1
-0.110841 0.028676 -0.682229 1
0.004934 0.031223 -0.847940 1
0.045752 0.128870 -0.730160 1
-0.084605 0.092921 -0.810715 1
0.064999 0.028744 -0.799769 1
-0.071475 0.034780 -0.642519 1
-0.046766 0.030768 -0.848678 1
0.068421 0.053043 -0.720990 1
-0.134536 0.024585 -0.710059 1
0.037404 0.031428 -0.845019 1
0.000992 0.074601 -0.664263 1
-0.095518 0.041404 -0.822002 1
0.081039 0.028095 -0.767554 1
-0.106696 0.041184 -0.657655 1
-0.012368 0.031650 -0.864676 1
0.066749 0.117960 -0.725771 1
-0.119693 0.067095 -0.775897 1
0.066910 0.029827 -0.827177 1
-0.051975 0.040740 -0.622614 1
-0.072504 0.032431 -0.851506 1
0.095458 0.092516 -0.764282 1
-0.143038 0.029020 -0.678599 1
0.023756 0.027147 -0.865081 1
0.025113 0.065577 -0.652536 1
-0.108259 0.071124 -0.821090 1
0.089434 0.027816 -0.795379 1
-0.097004 0.042195 -0.626600 1
-0.036268 0.031518 -0.874363 1
0.089369 0.113753 -0.735664 1
-0.161159 0.024426 -0.720583 1
0.060855 0.032322 -0.854403 1
-0.025351 0.042843 -0.608363 1
-0.101137 0.034212 -0.845263 1
0.114045 0.124388 -0.806523 1
-0.138856 0.039037 -0.648593 1
0.003256 0.024939 -0.881395 1
0.071952 0.144143 -0.717348 1
-0.114122 0.106090 -0.815900 1
0.089976 0.026977 -0.824693 1
-0.079294 0.037551 -0.595760 1
-0.064397 0.032959 -0.876953 1
0.110149 0.115376 -0.757321 1
-0.171741 0.027692 -0.684539 1
0.045543 0.026716 -0.875829 1
0.010507 0.056368 -0.613866 1
-0.121967 0.053410 -0.837470 1
0.118277 0.095787 -0.818563 1
-0.131400 0.034746 -0.608822 1
-0.021058 0.030166 -0.894227 1
0.095172 0.132310 -0.722617 1
-0.181539 0.023028 -0.738333 1
0.083024 0.027690 -0.854109 1
-0.039077 0.067250 -0.601823 1
-0.097852 0.029571 -0.869310 1
0.125544 0.112844 -0.782125 1
-0.169955 0.036249 -0.648859 1
0.024601 0.027216 -0.895339 1
0.071091 0.169847 -0.710765 1
-0.129391 0.091971 -0.831240 1
0.116341 0.068222 -0.835446 1
-0.111750 0.032594 -0.574620 1
-0.050843 0.032588 -0.898849 1
0.116010 0.115910 -0.733260 1
-0.195818 0.026119 -0.698877 1
0.069044 0.030246 -0.881609 1
-0.032765 0.062030 -0.778238 1
-0.031622 0.101988 -0.791591 1
-0.032621 0.038135 -0.788141 1
-0.012495 0.095286 -0.772629 1
-0.052713 0.079682 -0.798291 1
-0.009488 0.032124 -0.776903 1
-0.034338 0.111943 -0.770815 1
-0.050465 0.031259 -0.803618 1
0.004345 0.072474 -0.761912 1
-0.060190 0.106864 -0.791863 1
-0.011506 0.027443 -0.802997 1
-0.010041 0.127273 -0.764339 1
-0.077115 0.039449 -0.802623 1
0.014077 0.037334 -0.768403 1
-0.091476 0.037849 -0.716671 1
-0.034293 0.026361 -0.823074 1
0.017154 0.118694 -0.763647 1
-0.076554 0.101332 -0.807109 1
0.013520 0.028650 -0.801070 1
-0.071694 0.027308 -0.680704 1
-0.070152 0.029724 -0.824901 1
0.025711 0.047171 -0.748443 1
-0.119178 0.032530 -0.724775 1
-0.008410 0.025133 -0.831150 1
-0.019704 0.053900 -0.694342 1
-0.091109 0.070120 -0.818952 1
0.034138 0.032040 -0.784844 1
-0.102643 0.030753 -0.679000 1
-0.048820 0.023556 -0.843253 1
0.036941 0.107346 -0.753933 1
-0.123501 0.054827 -0.764494 1
0.020336 0.028459 -0.827198 1
-0.058750 0.029333 -0.655613 1
-0.093685 0.032659 -0.832346 1
0.044590 0.031485 -0.754477 1
-0.134997 0.027778 -0.690781 1
-0.017654 0.023940 -0.853600 1
0.023023 0.118259 -0.730561 1
-0.102430 0.098781 -0.822114 1
0.044764 0.030223 -0.808745 1
-0.095822 0.032944 -0.650271 1
-0.069153 0.026937 -0.856095 1
0.048520 0.058532 -0.732781 1
-0.158660 0.024042 -0.718984 1
0.016360 0.027716 -0.851856 1
-0.037933 0.025053 -0.636192 1
-0.119029 0.037617 -0.829403 1
0.060310 0.029164 -0.776429 1
-0.135886 0.030273 -0.658921 1
-0.035388 0.023555 -0.870359 1
0.047909 0.121761 -0.736226 1
-0.152479 0.047574 -0.774106 1
0.047277 0.032280 -0.836416 1
-0.078682 0.032865 -0.625670 1
-0.094468 0.030586 -0.859892 1
0.065729 0.038691 -0.740323 1
-0.164782 0.033550 -0.690802 1
0.003228 0.025273 -0.872853 1
-0.007464 0.030235 -0.634818 1
-0.125857 0.078371 -0.833329 1
0.068961 0.028151 -0.803703 1
-0.123471 0.036941 -0.631654 1
-0.057883 0.028359 -0.882136 1
0.065872 0.095015 -0.731000 1
-0.184394 0.026070 -0.730913 1
0.040785 0.031026 -0.862047 1
-0.053478 0.029957 -0.607310 1
-0.124995 0.029624 -0.852687 1
0.084153 0.053182 -0.774809 1
-0.166894 0.032336 -0.652827 1
-0.017062 0.023980 -0.889722 1
0.046189 0.118529 -0.706118 1
-0.148157 0.083254 -0.812687 1
0.069995 0.027910 -0.833163 1
-0.106264 0.031302 -0.599936 1
-0.089856 0.021823 -0.882138 1
0.086759 0.090774 -0.749485 1
-0.194944 0.030207 -0.695457 1
0.024649 0.021878 -0.882418 1
-0.015636 0.045734 -0.614379 1
-0.138036 0.064056 -0.851216 1
0.092371 0.047224 -0.801754 1
-0.158831 0.029703 -0.614052 1
-0.043638 0.022915 -0.900702 1
0.075796 0.132645 -0.730577 1
-0.203580 0.026917 -0.750016 1
0.063293 0.027846 -0.862198 1
-0.071375 0.044740 -0.591963 1
-0.122088 0.023576 -0.876524 1
0.104462 0.097461 -0.780619 1
-0.197783 0.031388 -0.654497 1
0.003534 0.021968 -0.902116 1
0.022420 0.057256 -0.629299 1
-0.149048 0.094909 -0.841364 1
0.091886 0.030940 -0.826336 1
-0.139311 0.027234 -0.579452 1
-0.074383 0.024509 -0.905352 1
0.096361 0.115524 -0.740735 1
-0.222379 0.023715 -0.706751 1
0.049300 0.028651 -0.889127 1
-0.043352 0.052189 -0.786577 1
-0.050539 0.070551 -0.787483 1
-0.040483 0.035763 -0.800636 1
-0.032267 0.058804 -0.764891 1
-0.068624 0.057168 -0.800136 1
-0.016361 0.033297 -0.791100 1
-0.042137 0.109363 -0.782502 1
-0.058019 0.029464 -0.816548 1
-0.007622 0.057193 -0.766514 1
-0.071147 0.096902 -0.799664 1
-0.018984 0.026009 -0.815723 1
-0.019953 0.118926 -0.772078 1
-0.085005 0.036798 -0.815349 1
0.007429 0.040007 -0.783209 1
-0.064267 0.115258 -0.778653 1
-0.040849 0.027047 -0.836819 1
0.003477 0.097446 -0.763347 1
-0.089529 0.087309 -0.813189 1
0.006726 0.029882 -0.814774 1
-0.066787 0.058307 -0.716402 1
-0.077281 0.028590 -0.838202 1
0.015871 0.038587 -0.757030 1
-0.104408 0.077725 -0.766660 1
-0.013995 0.029121 -0.845922 1
-0.001214 0.130891 -0.759643 1
-0.110777 0.041916 -0.819399 1
0.027346 0.034335 -0.799033 1
-0.111112 0.028845 -0.693569 1
-0.054129 0.027078 -0.858109 1
0.020877 0.074980 -0.746681 1
-0.102417 0.109458 -0.808950 1
0.014190 0.031395 -0.841247 1
-0.065110 0.033547 -0.674275 1
-0.102516 0.027528 -0.844143 1
0.038967 0.040592 -0.772721 1
-0.140719 0.031060 -0.708871 1
-0.021733 0.031795 -0.869623 1
0.018945 0.129103 -0.751006 1
-0.122896 0.071014 -0.822054 1
0.038427 0.033935 -0.823140 1
-0.102507 0.035446 -0.668200 1
-0.075247 0.027821 -0.869972 1
0.037167 0.043123 -0.736822 1
-0.151701 0.050103 -0.750202 1
0.010185 0.029606 -0.865216 1
-0.041890 0.037304 -0.660863 1
-0.125889 0.036867 -0.843277 1
0.053459 0.032707 -0.791122 1
-0.142473 0.032190 -0.676689 1
-0.040193 0.028193 -0.885101 1
0.036478 0.106316 -0.738715 1
-0.130678 0.099281 -0.816076 1
0.040554 0.033110 -0.849141 1
-0.085189 0.036592 -0.644833 1
-0.104259 0.022868 -0.870755 1
0.057275 0.035920 -0.751946 1
-0.170648 0.035987 -0.708622 1
-0.003292 0.025097 -0.885421 1
-0.011182 0.045604 -0.661550 1
-0.139443 0.064626 -0.840950 1
0.062196 0.031196 -0.817628 1
-0.129874 0.039665 -0.650368 1
-0.063724 0.029453 -0.895715 1
0.050538 0.059724 -0.721133 1
-0.188251 0.031440 -0.749989 1
0.033770 0.029428 -0.873689 1
-0.058565 0.038630 -0.630449 1
-0.133008 0.026288 -0.865558 1
0.072952 0.032017 -0.776051 1
-0.175839 0.029664 -0.667794 1
-0.022410 0.026921 -0.903427 1
0.041355 0.129614 -0.727380 1
-0.146492 0.097048 -0.833621 1
0.063404 0.030347 -0.846389 1
-0.112576 0.035152 -0.620044 1
-0.092372 0.030485 -0.898675 1
0.070886 0.044658 -0.733863 1
-0.199283 0.034803 -0.714878 1
0.019013 0.025084 -0.895853 1
-0.028684 0.032034 -0.619636 1
-0.158226 0.038211 -0.854573 1
0.083008 0.034442 -0.807705 1
-0.162957 0.036275 -0.636399 1
-0.047657 0.028867 -0.915518 1
0.063793 0.111942 -0.728782 1
-0.206917 0.032614 -0.769085 1
0.056870 0.029397 -0.874798 1
-0.082008 0.039191 -0.604304 1
-0.128224 0.023808 -0.890620 1
0.093395 0.072994 -0.778652 1
-0.200988 0.038110 -0.676283 1
-0.002339 0.023189 -0.914945 1
0.010241 0.044204 -0.634481 1
-0.190002 0.035794 -0.828630 1
0.084505 0.029660 -0.837793 1
-0.140440 0.040695 -0.608107 1
-0.079244 0.027501 -0.919537 1
0.085674 0.097961 -0.741565 1
-0.222185 0.034970 -0.730278 1
0.042768 0.028110 -0.900907 1
-0.041782 0.040383 -0.782206 1
-0.049041 0.059460 -0.783349 1
-0.035589 0.033037 -0.801086 1
-0.019456 0.079518 -0.778609 1
-0.066328 0.048237 -0.797435 1
-0.010340 0.034243 -0.793363 1
-0.034299 0.115491 -0.788034 1
-0.051587 0.030828 -0.818930 1
-0.006815 0.041280 -0.759391 1
-0.069408 0.087849 -0.796612 1
-0.012038 0.029995 -0.819260 1
-0.012392 0.125340 -0.777970 1
-0.078871 0.036960 -0.817223 1
0.013291 0.041017 -0.785512 1
-0.056229 0.120923 -0.784064 1
-0.035133 0.026808 -0.838370 1
0.004717 0.084106 -0.757080 1
-0.088980 0.075804 -0.809133 1
0.012852 0.031919 -0.817391 1
-0.068568 0.038601 -0.705848 1
-0.071199 0.028784 -0.839974 1
0.021711 0.039441 -0.759356 1
-0.085337 0.104981 -0.784683 1
-0.008026 0.030304 -0.848006 1
0.003332 0.129193 -0.760468 1
-0.103197 0.044901 -0.822610 1
0.032887 0.034502 -0.800805 1
-0.098057 0.043209 -0.705371 1
-0.048180 0.027434 -0.859838 1
0.023502 0.064452 -0.742084 1
-0.098674 0.105310 -0.808625 1
0.019899 0.032296 -0.843208 1
-0.057223 0.037709 -0.679521 1
-0.094307 0.032221 -0.847790 1
0.042968 0.033849 -0.770827 1
-0.133461 0.031998 -0.711878 1
-0.017676 0.026892 -0.869283 1
0.023425 0.127228 -0.751665 1
-0.109103 0.086269 -0.831294 1
0.043868 0.034106 -0.824820 1
-0.095709 0.035954 -0.671079 1
-0.068994 0.028676 -0.871854 1
0.042475 0.042051 -0.738043 1
-0.137592 0.064108 -0.760638 1
0.014473 0.025123 -0.864999 1
-0.035124 0.039032 -0.664468 1
-0.121961 0.031929 -0.842904 1
0.058976 0.033163 -0.793022 1
-0.134905 0.033554 -0.680215 1
-0.034738 0.027567 -0.886361 1
0.043484 0.113893 -0.745644 1
-0.123059 0.102116 -0.819472 1
0.045828 0.032797 -0.850541 1
-0.078363 0.037380 -0.648000 1
-0.096806 0.025894 -0.873458 1
0.063125 0.037879 -0.754834 1
-0.163516 0.036181 -0.711248 1
0.002264 0.025307 -0.886955 1
0.005144 0.080185 -0.688850 1
-0.137914 0.055581 -0.838668 1
0.067525 0.031085 -0.819163 1
-0.122429 0.040966 -0.654036 1
-0.057896 0.029605 -0.897220 1
0.059256 0.075752 -0.733320 1
-0.178465 0.036145 -0.754960 1
0.038760 0.027874 -0.874580 1
-0.053448 0.035335 -0.630495 1
-0.124647 0.030475 -0.868781 1
0.079554 0.039441 -0.781645 1
-0.168823 0.029306 -0.670284 1
-0.016751 0.027320 -0.904969 1
0.046736 0.131259 -0.730492 1
-0.141342 0.095208 -0.834579 1
0.068470 0.029099 -0.847384 1
-0.106114 0.034462 -0.622314 1
-0.087656 0.027579 -0.899162 1
0.080507 0.069663 -0.750823 1
-0.191845 0.035068 -0.717582 1
0.024537 0.025699 -0.897479 1
-0.019310 0.041842 -0.629724 1
-0.151645 0.038334 -0.856325 1
0.088302 0.034515 -0.809321 1
-0.154960 0.037856 -0.640484 1
-0.043035 0.025991 -0.916016 1
0.068278 0.109465 -0.728923 1
-0.195642 0.039354 -0.774944 1
0.061922 0.028333 -0.875855 1
-0.074547 0.041374 -0.608848 1
-0.121578 0.024634 -0.892407 1
0.098842 0.075892 -0.781899 1
-0.192377 0.040153 -0.680479 1
0.003282 0.023864 -0.916523 1
0.019340 0.056262 -0.646023 1
-0.159683 0.076283 -0.848595 1
0.090092 0.032045 -0.840327 1
-0.132687 0.042175 -0.612285 1
-0.073173 0.028132 -0.921096 1
0.092255 0.108086 -0.749890 1
-0.218318 0.029246 -0.729334 1
0.047936 0.027725 -0.902176 1
-0.028315 0.037845 -0.778510 1
-0.029471 0.074556 -0.789278 1
-0.020894 0.034583 -0.799438 1
-0.013070 0.056832 -0.763475 1
-0.052112 0.047986 -0.794879 1
0.002971 0.031604 -0.789700 1
-0.019590 0.119301 -0.788210 1
-0.037303 0.031072 -0.816525 1
0.006983 0.039675 -0.756255 1
-0.050620 0.099714 -0.800848 1
0.001135 0.027458 -0.815685 1
-0.001405 0.119151 -0.772136 1
-0.065254 0.034989 -0.813719 1
0.025785 0.035406 -0.780330 1
-0.042344 0.121904 -0.782585 1
-0.021774 0.024990 -0.835051 1
0.021522 0.095257 -0.761850 1
-0.074184 0.077342 -0.807508 1
0.026247 0.030570 -0.814447 1
-0.047293 0.054596 -0.714083 1
-0.056867 0.029088 -0.837443 1
0.034430 0.033569 -0.753850 1
-0.086092 0.072561 -0.763469 1
0.004290 0.025669 -0.843615 1
0.014126 0.121897 -0.753740 1
-0.090803 0.040067 -0.817702 1
0.045842 0.030901 -0.796795 1
-0.085412 0.036556 -0.698836 1
-0.036239 0.021823 -0.854956 1
0.039438 0.072788 -0.745150 1
-0.082160 0.110743 -0.809273 1
0.032620 0.029203 -0.839552 1
-0.036138 0.053628 -0.688432 1
-0.080537 0.030844 -0.844447 1
0.057299 0.035698 -0.769661 1
-0.120138 0.026463 -0.706096 1
-0.004788 0.024690 -0.865886 1
0.035667 0.124345 -0.747818 1
-0.102706 0.070333 -0.820992 1
0.056487 0.029836 -0.820645 1
-0.082193 0.030391 -0.665086 1
-0.055805 0.026722 -0.868339 1
0.057000 0.043895 -0.737032 1
-0.140896 0.027607 -0.736857 1
0.028620 0.028295 -0.863815 1
-0.021050 0.035183 -0.659644 1
-0.106899 0.032729 -0.840403 1
0.072322 0.031116 -0.789832 1
-0.120617 0.029508 -0.675312 1
-0.022522 0.023538 -0.882249 1
0.053459 0.100064 -0.734485 1
-0.109668 0.100628 -0.816262 1
0.058653 0.030652 -0.847399 1
-0.064734 0.031691 -0.641773 1
-0.081818 0.027746 -0.871249 1
0.079726 0.053512 -0.761657 1
-0.149488 0.031879 -0.706227 1
0.015216 0.024139 -0.884026 1
0.017579 0.073503 -0.682027 1
-0.127530 0.047040 -0.832030 1
0.080934 0.030764 -0.816864 1
-0.107583 0.038005 -0.649871 1
-0.045072 0.027479 -0.893681 1
0.075168 0.087754 -0.739039 1
-0.167137 0.027415 -0.747462 1
0.052499 0.030861 -0.873377 1
-0.038298 0.033452 -0.627057 1
-0.111554 0.027382 -0.864601 1
0.095691 0.056839 -0.788783 1
-0.150216 0.032784 -0.670603 1
-0.005086 0.022051 -0.900598 1
0.059850 0.131620 -0.728878 1
-0.126911 0.095351 -0.832055 1
0.081356 0.026953 -0.844316 1
-0.088106 0.038213 -0.623317 1
-0.075796 0.022559 -0.894500 1
0.099257 0.104784 -0.770187 1
-0.177215 0.031541 -0.713034 1
0.037087 0.023611 -0.894341 1
-0.000285 0.053694 -0.636921 1
-0.137839 0.036228 -0.852462 1
0.106148 0.068883 -0.823807 1
-0.141127 0.032144 -0.634255 1
-0.031129 0.021702 -0.911871 1
0.085046 0.128868 -0.740413 1
-0.173754 0.049222 -0.777640 1
0.074578 0.026274 -0.872864 1
-0.056700 0.045864 -0.610593 1
-0.105766 0.027870 -0.890418 1
0.115659 0.106829 -0.797321 1
-0.180356 0.031641 -0.672487 1
0.015802 0.021992 -0.913364 1
0.053774 0.136325 -0.705482 1
-0.148507 0.069997 -0.842945 1
0.103989 0.037742 -0.840700 1
-0.117657 0.038738 -0.607715 1
-0.061111 0.024254 -0.916934 1
0.106894 0.119992 -0.755729 1
-0.202316 0.027619 -0.725889 1
0.060843 0.028102 -0.899979 1
-0.002561 0.037384 -0.765308 1
-0.010436 0.056514 -0.766628 1
0.004000 0.032541 -0.785601 1
0.016518 0.070590 -0.758942 1
-0.027647 0.044822 -0.780164 1
0.029099 0.033771 -0.778255 1
0.003410 0.116879 -0.774874 1
-0.012603 0.028980 -0.802543 1
0.032994 0.039392 -0.743417 1
-0.021975 0.111267 -0.795053 1
0.028029 0.034398 -0.806510 1
0.023052 0.120699 -0.761342 1
-0.039972 0.034076 -0.799975 1
0.051364 0.035383 -0.767989 1
-0.034944 0.077638 -0.742848 1
0.003883 0.027362 -0.823346 1
0.042202 0.079236 -0.739836 1
-0.051620 0.071443 -0.791455 1
0.051342 0.031172 -0.802585 1
-0.002585 0.107016 -0.735855 1
-0.032282 0.027353 -0.823464 1
0.061586 0.038569 -0.744312 1
-0.041089 0.118208 -0.777933 1
0.030346 0.031623 -0.833843 1
0.038676 0.123137 -0.742816 1
-0.065077 0.040042 -0.804136 1
0.071114 0.030946 -0.784804 1
-0.048529 0.059418 -0.700289 1
-0.010165 0.026047 -0.843755 1
0.063973 0.068433 -0.730285 1
-0.056059 0.114832 -0.799036 1
0.057522 0.031510 -0.828632 1
-0.004942 0.065506 -0.683407 1
-0.055857 0.029255 -0.830251 1
0.086452 0.056658 -0.769344 1
-0.088321 0.034075 -0.696674 1
0.019761 0.025971 -0.853967 1
0.059266 0.121832 -0.734473 1
-0.068725 0.090093 -0.817721 1
0.081605 0.032123 -0.810006 1
-0.052656 0.032419 -0.652270 1
-0.032558 0.022723 -0.853578 1
0.091448 0.093408 -0.755447 1
-0.113312 0.026300 -0.721583 1
0.052651 0.028640 -0.852056 1
0.018212 0.073672 -0.674184 1
-0.080339 0.034804 -0.827488 1
0.104067 0.076858 -0.802020 1
-0.090494 0.032039 -0.662570 1
0.002261 0.026057 -0.870512 1
0.083237 0.125145 -0.739849 1
-0.078872 0.113120 -0.810059 1
0.082332 0.027879 -0.834687 1
-0.036125 0.030449 -0.626494 1
-0.058317 0.024208 -0.856308 1
0.112485 0.108597 -0.782364 1
-0.119993 0.033323 -0.692577 1
0.039435 0.026373 -0.872775 1
0.058377 0.131824 -0.712555 1
-0.093190 0.065222 -0.826673 1
0.111170 0.073933 -0.826153 1
-0.081326 0.031148 -0.630190 1
-0.021954 0.024852 -0.879766 1
0.105476 0.122315 -0.750250 1
-0.131903 0.040762 -0.740618 1
0.075048 0.024913 -0.859584 1
-0.000260 0.062273 -0.635459 1
-0.085779 0.028242 -0.850963 1
0.126873 0.116068 -0.809904 1
-0.119801 0.034816 -0.657312 1
0.019070 0.024335 -0.888994 1
0.086203 0.141990 -0.724947 1
-0.096615 0.106006 -0.824236 1
0.106762 0.036230 -0.837087 1
-0.057543 0.041049 -0.611007 1
-0.050060 0.026081 -0.882231 1
0.123777 0.108552 -0.761589 1
-0.148654 0.030478 -0.697499 1
0.061121 0.027016 -0.883838 1
0.034249 0.077882 -0.642433 1
-0.112410 0.035281 -0.837816 1
0.133220 0.104351 -0.830791 1
-0.111620 0.031149 -0.618583 1
-0.007096 0.023199 -0.899550 1
0.109139 0.128236 -0.728721 1
-0.146657 0.048309 -0.762655 1
0.098747 0.030203 -0.863203 1
-0.012495 0.089107 -0.632034 1
-0.082946 0.023085 -0.874744 1
0.137691 0.089815 -0.777019 1
-0.149922 0.032678 -0.658232 1
0.039203 0.023162 -0.901717 1
0.084650 0.166312 -0.717233 1
-0.117827 0.079795 -0.833661 1
0.133620 0.097937 -0.856698 1
-0.089597 0.034218 -0.589106 1
-0.036635 0.026272 -0.904303 1
0.128335 0.093874 -0.727305 1
-0.172265 0.028725 -0.711461 1
0.083698 0.026994 -0.888340 1
0.034091 0.033734 -0.752658 1
0.021857 0.039177 -0.746165 1
0.041019 0.032052 -0.774783 1
0.047599 0.048011 -0.735194 1
0.007133 0.036152 -0.764724 1
0.066310 0.034886 -0.768523 1
0.030147 0.089015 -0.747841 1
0.025434 0.032682 -0.793632 1
0.073091 0.052113 -0.740680 1
0.005037 0.087589 -0.771420 1
0.062768 0.026845 -0.792504 1
0.053319 0.103591 -0.740659 1
-0.003398 0.031361 -0.787631 1
0.093421 0.066305 -0.775048 1
0.016322 0.121168 -0.760379 1
0.041526 0.032739 -0.815247 1
0.081847 0.096810 -0.741275 1
-0.017273 0.064924 -0.777286 1
0.089404 0.042203 -0.798016 1
0.038359 0.124776 -0.738204 1
0.005339 0.029734 -0.813560 1
0.109963 0.112856 -0.778530 1
-0.006404 0.116768 -0.767207 1
0.064384 0.023538 -0.819982 1
0.072938 0.121215 -0.732022 1
-0.029978 0.032893 -0.789374 1
0.117057 0.101882 -0.812180 1
-0.008460 0.062260 -0.691575 1
0.027504 0.032074 -0.835564 1
0.108678 0.120954 -0.754490 1
-0.021050 0.114495 -0.788822 1
0.093335 0.033383 -0.819575 1
0.042379 0.098441 -0.696820 1
-0.019035 0.028295 -0.818536 1
0.128612 0.110963 -0.790812 1
-0.032043 0.074892 -0.712851 1
0.055919 0.029324 -0.844948 1
0.095588 0.130528 -0.731154 1
-0.043974 0.061839 -0.792370 1
0.125496 0.101170 -0.833921 1
-0.005118 0.052022 -0.655613 1
0.004963 0.026737 -0.844101 1
0.126934 0.097145 -0.748399 1
-0.054090 0.070293 -0.737543 1
0.087141 0.025158 -0.840651 1
0.075884 0.158486 -0.727552 1
-0.045168 0.028396 -0.813036 1
0.140077 0.094999 -0.802630 1
-0.048543 0.032604 -0.651760 1
0.038382 0.029639 -0.861246 1
0.116823 0.119372 -0.726495 1
-0.042464 0.115280 -0.801006 1
0.124162 0.084128 -0.850078 1
0.016064 0.066314 -0.643142 1
-0.020962 0.026094 -0.845612 1
0.142639 0.064008 -0.746568 1
-0.080470 0.028282 -0.677837 1
0.073592 0.023249 -0.861445 1
0.096257 0.147608 -0.715030 1
-0.065998 0.041621 -0.803955 1
0.146389 0.091752 -0.826014 1
-0.035121 0.041771 -0.627152 1
0.013697 0.025567 -0.868991 1
0.135680 0.080968 -0.713094 1
-0.095304 0.031786 -0.723716 1
0.111506 0.037760 -0.855107 1
0.068086 0.175280 -0.715387 1
-0.048838 0.027200 -0.838768 1
0.155479 0.044199 -0.761151 1
-0.079400 0.030050 -0.642575 1
0.053419 0.023052 -0.878079 1
0.117887 0.123790 -0.701977 1
-0.059888 0.107939 -0.814655 1
0.146143 0.093274 -0.853305 1
0.000157 0.088282 -0.638361 1
-0.013759 0.027398 -0.871272 1
0.153723 0.035147 -0.705559 1
-0.107890 0.026984 -0.683657 1
0.095455 0.027780 -0.874325 1
0.092680 0.175111 -0.710776 1
-0.074482 0.034900 -0.825739 1
0.162801 0.037765 -0.788408 1
-0.064078 0.041619 -0.615593 1
0.027749 0.023473 -0.888750 1
0.141794 0.107472 -0.704346 1
-0.102447 0.056278 -0.755724 1
0.138299 0.086262 -0.876404 1
0.013944 0.044418 -0.583720 1
-0.045253 0.025314 -0.863673 1
0.170395 0.032625 -0.734208 1
-0.107591 0.030718 -0.645460 1
0.073574 0.024622 -0.892046 1
0.114794 0.143482 -0.689718 1
-0.088080 0.064172 -0.814745 1
0.163732 0.053153 -0.827903 1
-0.024511 0.091860 -0.626327 1
-0.003327 0.020424 -0.890986 1
0.163082 0.072160 -0.702938 1
-0.129298 0.028995 -0.699905 1
0.118429 0.033819 -0.881351 1
0.076363 0.036383 -0.749268 1
0.063226 0.036600 -0.739763 1
0.082889 0.036038 -0.771951 1
0.097130 0.093589 -0.758429 1
0.047405 0.029669 -0.756036 1
0.115669 0.093819 -0.795977 1
0.064083 0.062138 -0.726397 1
0.066237 0.032380 -0.788323 1
0.122271 0.112701 -0.772914 1
0.032001 0.039117 -0.738096 1
0.108350 0.060566 -0.804541 1
0.094551 0.114468 -0.743654 1
0.038018 0.030660 -0.781917 1
0.136742 0.103820 -0.791802 1
0.044629 0.081759 -0.730654 1
0.080592 0.027398 -0.807606 1
0.123190 0.113537 -0.747996 1
0.015352 0.036250 -0.756186 1
0.135831 0.104112 -0.824702 1
0.075997 0.120021 -0.730883 1
0.046465 0.031044 -0.808709 1
0.143156 0.068948 -0.747964 1
0.027962 0.100916 -0.752852 1
0.106219 0.036357 -0.820848 1
0.111707 0.122933 -0.729201 1
0.012687 0.034942 -0.784873 1
0.151580 0.074143 -0.793352 1
0.050243 0.119972 -0.727444 1
0.066131 0.026578 -0.827780 1
0.140749 0.063062 -0.712430 1
0.010880 0.092789 -0.771415 1
0.139545 0.100222 -0.845951 1
0.091459 0.139824 -0.723048 1
0.023185 0.031867 -0.814448 1
0.161365 0.040748 -0.746143 1
0.024376 0.118404 -0.737858 1
0.095108 0.029282 -0.839799 1
0.130360 0.104338 -0.708530 1
-0.011047 0.036594 -0.773546 1
0.159371 0.066752 -0.812953 1
0.059967 0.132306 -0.711103 1
0.046169 0.031193 -0.840275 1
0.162190 0.039498 -0.707362 1
0.006899 0.122241 -0.765543 1
0.132880 0.084330 -0.861027 1
0.109946 0.139932 -0.709751 1
-0.002479 0.030637 -0.808159 1
0.174971 0.033805 -0.765464 1
0.010302 0.073062 -0.676727 1
0.076778 0.026420 -0.854559 1
0.152153 0.081128 -0.695429 1
-0.016788 0.078146 -0.775076 1
0.160102 0.078229 -0.843329 1
0.082593 0.165212 -0.716470 1
0.020612 0.029367 -0.840974 1
0.181777 0.037064 -0.725964 1
-0.016123 0.077693 -0.706801 1
0.113544 0.032093 -0.859887 1
0.129763 0.113700 -0.685167 1
-0.026909 0.032568 -0.793567 1
0.181348 0.029000 -0.790839 1
0.016190 0.059437 -0.636639 1
0.053285 0.026516 -0.863563 1
0.174833 0.056072 -0.691825 1
-0.012813 0.126291 -0.776610 1
0.153573 0.089936 -0.872046 1
0.103659 0.167953 -0.705927 1
-0.006665 0.029411 -0.833483 1
0.195633 0.035418 -0.752004 1
-0.031031 0.033485 -0.640658 1
0.092057 0.023330 -0.872830 1
0.156295 0.118554 -0.693960 1
-0.036156 0.067235 -0.787626 1
0.180301 0.034763 -0.823017 1
0.067821 0.179154 -0.709133 1
0.025809 0.026547 -0.864808 1
0.195797 0.041154 -0.705013 1
-0.052498 0.047588 -0.692604 1
0.137976 0.072115 -0.886159 1
0.124279 0.137920 -0.676692 1
-0.034452 0.028896 -0.816709 1
0.202529 0.032500 -0.781624 1
-0.009270 0.064231 -0.629509 1
0.067389 0.028108 -0.884622 1
0.181002 0.104783 -0.698226 1
-0.032150 0.118383 -0.786864 1
0.172577 0.057914 -0.860944 1
0.093158 0.193469 -0.706507 1
-0.003165 0.029372 -0.858790 1
0.211735 0.034504 -0.731076 1
-0.058960 0.032641 -0.642429 1
0.112414 0.031503 -0.889296 1
0.145058 0.048602 -0.608881 1
-0.056830 0.037821 -0.795681 1
0.201887 0.030550 -0.813532 1
0.010569 0.063143 -0.598314 1
0.036826 0.023734 -0.885909 1
0.203879 0.061723 -0.691433 1
-0.071257 0.053482 -0.710693 1
0.159374 0.086370 -0.896158 1
0.096616 0.042660 -0.764229 1
0.082696 0.036520 -0.751383 1
0.102248 0.039108 -0.784623 1
0.118177 0.114330 -0.781806 1
0.067631 0.032312 -0.768885 1
0.134697 0.108453 -0.814079 1
0.079994 0.045282 -0.727816 1
0.085859 0.035791 -0.800834 1
0.140629 0.123876 -0.790130 1
0.052067 0.039482 -0.750051 1
0.128830 0.081872 -0.825328 1
0.113895 0.124205 -0.761164 1
0.058357 0.034273 -0.794691 1
0.154056 0.108881 -0.804884 1
0.055239 0.045371 -0.719435 1
0.099662 0.029871 -0.819295 1
0.139618 0.105574 -0.753982 1
0.036496 0.040159 -0.769750 1
0.152354 0.103516 -0.834197 1
0.087986 0.089042 -0.721507 1
0.066378 0.034883 -0.820981 1
0.159516 0.047840 -0.746743 1
0.030938 0.042555 -0.728311 1
0.127281 0.060592 -0.841900 1
0.128831 0.120047 -0.738664 1
0.033410 0.038199 -0.797405 1
0.168293 0.065294 -0.799210 1
0.059298 0.080812 -0.712482 1
0.084980 0.027558 -0.838448 1
0.158316 0.053310 -0.718037 1
0.015491 0.044099 -0.754462 1
0.155794 0.098354 -0.854615 1
0.107178 0.128966 -0.726890 1
0.043607 0.036021 -0.826724 1
0.179693 0.047059 -0.761070 1
0.038515 0.101551 -0.738300 1
0.113577 0.031690 -0.850867 1
0.145246 0.074453 -0.699565 1
0.010105 0.039082 -0.785964 1
0.176307 0.063370 -0.821540 1
0.076606 0.124523 -0.717470 1
0.064792 0.030626 -0.850055 1
0.180659 0.039723 -0.719500 1
0.004736 0.057015 -0.736445 1
0.150386 0.094463 -0.874619 1
0.125290 0.124965 -0.710481 1
0.018121 0.033029 -0.819772 1
0.192923 0.035557 -0.777488 1
0.046274 0.126154 -0.727505 1
0.095027 0.026390 -0.864426 1
0.168419 0.049578 -0.685724 1
-0.010516 0.037825 -0.763764 1
0.176612 0.076072 -0.852100 1
0.095815 0.144263 -0.712238 1
0.039867 0.029759 -0.851121 1
0.199936 0.040863 -0.739876 1
0.019400 0.121566 -0.748465 1
0.131209 0.031933 -0.869645 1
0.146986 0.107611 -0.692887 1
-0.006037 0.033674 -0.804876 1
0.199113 0.035300 -0.804672 1
0.055631 0.126718 -0.701707 1
0.072522 0.030301 -0.874679 1
0.192868 0.045979 -0.697236 1
-0.010240 0.080381 -0.759897 1
0.169740 0.089374 -0.881076 1
0.116789 0.143108 -0.698219 1
0.013645 0.031467 -0.844427 1
0.213400 0.039289 -0.765391 1
0.019370 0.117287 -0.715210 1
0.110626 0.027764 -0.884087 1
0.172045 0.088425 -0.683617 1
-0.027268 0.035864 -0.782025 1
0.197709 0.040652 -0.835926 1
0.083029 0.168919 -0.712993 1
0.044945 0.027714 -0.874886 1
0.213969 0.038879 -0.715510 1
0.000235 0.128856 -0.758804 1
0.155172 0.080679 -0.898462 1
0.140905 0.129394 -0.682347 1
-0.013812 0.029545 -0.827360 1
0.219978 0.037585 -0.795040 1
0.010883 0.059296 -0.639969 1
0.085224 0.027038 -0.893703 1
0.197940 0.060032 -0.678052 1
-0.031007 0.071265 -0.770535 1
0.189308 0.059600 -0.871285 1
0.105477 0.169475 -0.698553 1
0.016155 0.029301 -0.868436 1
0.229525 0.037092 -0.744118 1
-0.023003 0.066877 -0.681164 1
0.129584 0.029321 -0.898033 1
0.169180 0.126940 -0.684776 1
-0.036179 0.036843 -0.805926 1
0.219133 0.035237 -0.826127 1
0.095305 0.286696 -0.798006 1
0.055830 0.025968 -0.896046 1
0.222078 0.049804 -0.695415 1
-0.018456 0.127800 -0.770275 1
0.175267 0.084203 -0.904402 1
0.108124 0.063812 -0.797837 1
0.091273 0.036685 -0.774314 1
0.110576 0.043043 -0.808577 1
0.122340 0.090068 -0.789210 1
0.076476 0.033907 -0.791935 1
0.143069 0.121834 -0.841159 1
0.089421 0.047726 -0.752678 1
0.092599 0.030056 -0.819654 1
0.146575 0.112726 -0.804814 1
0.059980 0.034271 -0.769742 1
0.136604 0.090240 -0.849616 1
0.117658 0.096294 -0.765684 1
0.066506 0.033744 -0.815829 1
0.159455 0.092455 -0.817210 1
0.062994 0.037333 -0.738086 1
0.106608 0.027803 -0.839649 1
0.146134 0.095015 -0.769957 1
0.044831 0.037361 -0.790081 1
0.158120 0.096547 -0.851053 1
0.094574 0.075950 -0.736282 1
0.073328 0.031135 -0.840135 1
0.168133 0.069910 -0.782605 1
0.039155 0.036306 -0.747639 1
0.133660 0.058890 -0.861589 1
0.135939 0.112647 -0.756474 1
0.041587 0.036496 -0.817597 1
0.175114 0.071665 -0.824159 1
0.061969 0.050400 -0.716098 1
0.092610 0.030115 -0.860139 1
0.166150 0.056004 -0.744098 1
0.023889 0.039637 -0.774001 1
0.161136 0.089252 -0.870449 1
0.113204 0.113038 -0.738787 1
0.050133 0.030107 -0.844595 1
0.186316 0.041330 -0.781374 1
0.032729 0.045423 -0.725004 1
0.119641 0.027479 -0.869859 1
0.153052 0.070309 -0.721518 1
0.017781 0.033956 -0.804514 1
0.182353 0.061013 -0.841837 1
0.075499 0.076368 -0.706988 1
0.071853 0.029587 -0.869795 1
0.187934 0.040941 -0.744998 1
0.009463 0.039267 -0.748322 1
0.154511 0.073955 -0.885949 1
0.131601 0.108209 -0.722257 1
0.025204 0.028185 -0.838023 1
0.199345 0.039738 -0.802762 1
0.045752 0.088219 -0.723983 1
0.102243 0.029854 -0.885878 1
0.176014 0.043566 -0.707487 1
-0.002020 0.033406 -0.782967 1
0.182163 0.070261 -0.870085 1
0.100837 0.122549 -0.719483 1
0.046926 0.027607 -0.870176 1
0.206638 0.036093 -0.761506 1
0.019096 0.089361 -0.749214 1
0.137269 0.031175 -0.889741 1
0.151989 0.070591 -0.691160 1
0.002316 0.031388 -0.824306 1
0.205113 0.038283 -0.828554 1
0.064169 0.120404 -0.720367 1
0.079038 0.028918 -0.893889 1
0.200084 0.038101 -0.717828 1
-0.013234 0.042676 -0.759437 1
0.175096 0.086391 -0.899336 1
0.123572 0.129085 -0.711512 1
0.020284 0.026520 -0.862211 1
0.219670 0.036253 -0.787504 1
0.033053 0.126718 -0.744126 1
0.116518 0.025610 -0.903321 1
0.178233 0.049270 -0.681503 1
-0.018355 0.033165 -0.801541 1
0.203395 0.045870 -0.859696 1
0.085511 0.137625 -0.711819 1
0.051817 0.026668 -0.893978 1
0.220643 0.039301 -0.741013 1
0.003430 0.109213 -0.767059 1
0.159654 0.067259 -0.912991 1
0.147627 0.111635 -0.693664 1
-0.004022 0.032656 -0.848555 1
0.225879 0.034606 -0.816589 1
0.044502 0.131619 -0.719354 1
0.091760 0.028144 -0.913553 1
0.205340 0.043244 -0.692826 1
-0.033068 0.038636 -0.773406 1
0.194782 0.065509 -0.893815 1
0.110859 0.148190 -0.705246 1
0.022540 0.025028 -0.886180 1
0.235669 0.036958 -0.768565 1
0.009363 0.123497 -0.743709 1
0.136253 0.037589 -0.920400 1
0.175748 0.101072 -0.690333 1
-0.028033 0.033050 -0.824275 1
0.224747 0.031900 -0.846913 1
0.062031 0.130338 -0.693338 1
0.061732 0.022638 -0.914194 1
0.229211 0.039671 -0.714823 1
-0.021647 0.093392 -0.769490 1
0.180262 0.080058 -0.922082 1
0.114647 0.054217 -0.816883 1
0.100119 0.038268 -0.800006 1
0.118452 0.043513 -0.832635 1
0.131385 0.099772 -0.818011 1
0.084339 0.029957 -0.814356 1
0.147454 0.098783 -0.851939 1
0.102451 0.071475 -0.791143 1
0.100634 0.030334 -0.843447 1
0.152288 0.097996 -0.819992 1
0.069789 0.036948 -0.796004 1
0.143006 0.086281 -0.869832 1
0.126223 0.099394 -0.791817 1
0.074255 0.030267 -0.837843 1
0.164867 0.072480 -0.830496 1
0.072969 0.039060 -0.764987 1
0.113805 0.025532 -0.862017 1
0.151122 0.067384 -0.778668 1
0.053842 0.036494 -0.813766 1
0.163683 0.084145 -0.867607 1
0.102926 0.072325 -0.759686 1
0.080849 0.028539 -0.862072 1
0.174337 0.053856 -0.798733 1
0.049761 0.038908 -0.774538 1
0.141209 0.065780 -0.886459 1
0.140272 0.081423 -0.761988 1
0.049300 0.031816 -0.838824 1
0.181172 0.060405 -0.842279 1
0.069718 0.040363 -0.736500 1
0.099400 0.025984 -0.881234 1
0.173175 0.047695 -0.765374 1
0.032328 0.034486 -0.795821 1
0.166886 0.081916 -0.889116 1
0.119851 0.100636 -0.755934 1
0.057849 0.027436 -0.866277 1
0.193245 0.048139 -0.809922 1
0.041524 0.039172 -0.747410 1
0.126946 0.030099 -0.893399 1
0.159359 0.048895 -0.734757 1
0.027625 0.035189 -0.828642 1
0.188581 0.059518 -0.864218 1
0.082252 0.061579 -0.723949 1
0.079020 0.027133 -0.891187 1
0.194902 0.034163 -0.767592 1
0.020655 0.041390 -0.774718 1
0.160780 0.074660 -0.907638 1
0.136973 0.083307 -0.731636 1
0.033639 0.026700 -0.860209 1
0.205756 0.036152 -0.825727 1
0.044860 0.045515 -0.722345 1
0.108732 0.026342 -0.906813 1
0.183632 0.043125 -0.734799 1
0.008513 0.034437 -0.807586 1
0.188112 0.068771 -0.891607 1
0.106629 0.104070 -0.732490 1
0.054472 0.025621 -0.891606 1
0.213283 0.034400 -0.786618 1
0.015407 0.043387 -0.746236 1
0.144053 0.033938 -0.912839 1
0.158948 0.053786 -0.707611 1
0.011396 0.030200 -0.846747 1
0.211258 0.035555 -0.851378 1
0.065432 0.084696 -0.721461 1
0.085908 0.026980 -0.915055 1
0.207168 0.036861 -0.744510 1
-0.004460 0.036498 -0.780787 1
0.180511 0.077975 -0.917475 1
0.129218 0.107488 -0.722276 1
0.028351 0.024822 -0.883763 1
0.225965 0.033618 -0.811496 1
0.028123 0.076394 -0.735728 1
0.123852 0.030988 -0.926836 1
0.185737 0.039759 -0.703723 1
-0.008962 0.030787 -0.823887 1
0.209293 0.041668 -0.881116 1
0.089254 0.110020 -0.717706 1
0.058467 0.022519 -0.914316 1
0.227195 0.038092 -0.767043 1
-0.008291 0.044982 -0.752709 1
0.165301 0.063542 -0.932888 1
0.152697 0.076300 -0.695449 1
0.003025 0.026056 -0.868214 1
0.231946 0.030961 -0.839499 1
0.051593 0.119725 -0.736356 1
0.097819 0.023648 -0.933750 1
0.212569 0.036669 -0.716935 1
-0.022943 0.036247 -0.796329 1
0.200394 0.062647 -0.914575 1
0.116862 0.130134 -0.717873 1
0.030777 0.025410 -0.907959 1
0.241761 0.036519 -0.794271 1
0.012770 0.101741 -0.753858 1
0.142709 0.040328 -0.942583 1
0.181549 0.054011 -0.684479 1
-0.020306 0.026720 -0.844295 1
0.230576 0.029430 -0.869716 1
0.072029 0.128678 -0.718691 1
0.069851 0.026975 -0.936796 1
0.235853 0.037318 -0.741078 1
-0.029592 0.043580 -0.764660 1
0.185189 0.062324 -0.937512 1
0.119829 0.040182 -0.829198 1
0.107037 0.034430 -0.817625 1
0.127877 0.061596 -0.859119 1
0.137319 0.093146 -0.832883 1
0.092004 0.029898 -0.833558 1
0.152552 0.085874 -0.863664 1
0.109920 0.071515 -0.810396 1
0.107207 0.026097 -0.860341 1
0.157617 0.085052 -0.831750 1
0.076769 0.031965 -0.813127 1
0.148316 0.076192 -0.883022 1
0.133166 0.098967 -0.810464 1
0.081982 0.030750 -0.856736 1
0.171802 0.082616 -0.853475 1
0.080155 0.034002 -0.782578 1
0.121069 0.027732 -0.881184 1
0.157825 0.066069 -0.797609 1
0.060677 0.031041 -0.830380 1
0.169605 0.081527 -0.883907 1
0.113570 0.090387 -0.790154 1
0.087579 0.025197 -0.879052 1
0.180551 0.048696 -0.815535 1
0.058048 0.037988 -0.794093 1
0.146671 0.057082 -0.900583 1
0.146692 0.075579 -0.778512 1
0.056000 0.026532 -0.855244 1
0.187294 0.060644 -0.860667 1
0.078068 0.039674 -0.757163 1
0.106309 0.025412 -0.898988 1
0.179627 0.043448 -0.783333 1
0.041510 0.036681 -0.816421 1
0.172821 0.081600 -0.905982 1
0.127709 0.104265 -0.778027 1
0.064671 0.023873 -0.883096 1
0.199330 0.041472 -0.825972 1
0.050249 0.038532 -0.767802 1
0.133151 0.026758 -0.910022 1
0.166346 0.048744 -0.755735 1
0.034557 0.029983 -0.845140 1
0.194563 0.061795 -0.882977 1
0.090825 0.062807 -0.745923 1
0.085489 0.023522 -0.907710 1
0.201301 0.035526 -0.788716 1
0.028443 0.037231 -0.792516 1
0.166536 0.071725 -0.923430 1
0.142277 0.065371 -0.741036 1
0.041277 0.025342 -0.877919 1
0.211753 0.038146 -0.845648 1
0.052299 0.039069 -0.739823 1
0.115325 0.025490 -0.924076 1
0.190023 0.033667 -0.750391 1
0.017100 0.033545 -0.826397 1
0.193934 0.070892 -0.909553 1
0.114339 0.103931 -0.752947 1
0.061311 0.022958 -0.908416 1
0.219441 0.030005 -0.804388 1
0.024916 0.043913 -0.767255 1
0.151585 0.047760 -0.934339 1
0.165617 0.047010 -0.725068 1
0.018186 0.024710 -0.862953 1
0.217086 0.037608 -0.870738 1
0.066242 0.050897 -0.720444 1
0.092106 0.023107 -0.931250 1
0.213467 0.035721 -0.764839 1
0.004723 0.035997 -0.800384 1
0.185996 0.072105 -0.932201 1
0.134088 0.087816 -0.729762 1
0.035200 0.021127 -0.900296 1
0.231976 0.029277 -0.828926 1
0.028075 0.044593 -0.736696 1
0.131173 0.038464 -0.946055 1
0.192496 0.039615 -0.725702 1
0.000362 0.031882 -0.843239 1
0.215027 0.042426 -0.899272 1
0.093762 0.091676 -0.726015 1
0.066230 0.024977 -0.932394 1
0.233326 0.033302 -0.784890 1
-0.000200 0.040140 -0.770496 1
0.170511 0.053129 -0.946514 1
0.158058 0.053314 -0.701633 1
0.010773 0.024176 -0.885548 1
0.237860 0.026683 -0.856620 1
0.047921 0.074068 -0.726070 1
0.104581 0.024356 -0.951064 1
0.218902 0.035247 -0.737802 1
-0.013885 0.035039 -0.815183 1
0.205970 0.049264 -0.927344 1
0.122478 0.117517 -0.729650 1
0.037751 0.023111 -0.924618 1
0.247735 0.031967 -0.811833 1
0.004969 0.050127 -0.741884 1
0.148943 0.041806 -0.959757 1
0.188012 0.041308 -0.698372 1
-0.011339 0.026868 -0.862821 1
0.236158 0.030639 -0.888496 1
0.072573 0.095368 -0.715740 1
0.077143 0.028903 -0.954252 1
0.241795 0.036314 -0.761582 1
-0.022534 0.035695 -0.780568 1
0.190319 0.043295 -0.948867 1
0.127827 0.031155 -0.856652 1
0.115737 0.028842 -0.847067 1
0.135037 0.048647 -0.883724 1
0.145596 0.091859 -0.862009 1
0.101143 0.026119 -0.863519 1
0.160001 0.078684 -0.889541 1
0.114607 0.041431 -0.827243 1
0.116764 0.027484 -0.891529 1
0.165377 0.081225 -0.859881 1
0.086773 0.030786 -0.844844 1
0.156341 0.074847 -0.910968 1
0.141210 0.094600 -0.838737 1
0.091396 0.028478 -0.886646 1
0.179361 0.079184 -0.881157 1
0.090477 0.033859 -0.815849 1
0.129905 0.026487 -0.910738 1
0.166282 0.068596 -0.830484 1
0.071018 0.030449 -0.861846 1
0.177266 0.080355 -0.911658 1
0.121992 0.085301 -0.819063 1
0.097744 0.028284 -0.910304 1
0.188419 0.047620 -0.846323 1
0.067641 0.032715 -0.824480 1
0.154354 0.050571 -0.926981 1
0.155758 0.081533 -0.813937 1
0.067016 0.029268 -0.887281 1
0.194788 0.054805 -0.887814 1
0.087595 0.034431 -0.788639 1
0.115160 0.023211 -0.927912 1
0.187515 0.039950 -0.814206 1
0.051006 0.030707 -0.845943 1
0.180061 0.073638 -0.930912 1
0.136090 0.100955 -0.807925 1
0.075453 0.027437 -0.914480 1
0.206923 0.039246 -0.856033 1
0.060107 0.032934 -0.798900 1
0.143340 0.040994 -0.943323 1
0.174268 0.041783 -0.785622 1
0.044643 0.026753 -0.875215 1
0.201989 0.056934 -0.909945 1
0.099720 0.055713 -0.776087 1
0.095205 0.024793 -0.937565 1
0.208920 0.034941 -0.820929 1
0.039532 0.035596 -0.824847 1
0.173371 0.055641 -0.946132 1
0.151529 0.069763 -0.777734 1
0.051113 0.022610 -0.907399 1
0.219252 0.033118 -0.874067 1
0.063913 0.040133 -0.775611 1
0.125104 0.032030 -0.954751 1
0.197995 0.038348 -0.787038 1
0.026500 0.026306 -0.855310 1
0.201130 0.054771 -0.932174 1
0.122220 0.094693 -0.780350 1
0.072795 0.030249 -0.940078 1
0.226687 0.032631 -0.837560 1
0.035057 0.037809 -0.798092 1
0.159369 0.043037 -0.961011 1
0.173650 0.040472 -0.756277 1
0.029228 0.024397 -0.893799 1
0.224569 0.032360 -0.898518 1
0.074716 0.038831 -0.748966 1
0.102079 0.027436 -0.961250 1
0.220861 0.033827 -0.797213 1
0.014960 0.030102 -0.830587 1
0.192661 0.040362 -0.950515 1
0.143587 0.092627 -0.767081 1
0.046189 0.023211 -0.930826 1
0.239034 0.030854 -0.860692 1
0.038721 0.039463 -0.769127 1
0.139484 0.036929 -0.973676 1
0.200241 0.035720 -0.758474 1
0.010326 0.026335 -0.872533 1
0.222621 0.031805 -0.924671 1
0.101136 0.076939 -0.751270 1
0.076511 0.028077 -0.962061 1
0.240477 0.030308 -0.815974 1
0.010102 0.033211 -0.801029 1
0.177545 0.037129 -0.970026 1
0.166393 0.049397 -0.735264 1
0.020718 0.020404 -0.914633 1
0.244910 0.027803 -0.887338 1
0.050592 0.039498 -0.739931 1
0.114064 0.027999 -0.980271 1
0.226202 0.032483 -0.770712 1
-0.003337 0.029661 -0.845290 1
0.213573 0.027192 -0.949184 1
0.129939 0.105909 -0.755843 1
0.049282 0.028439 -0.955228 1
0.254851 0.027670 -0.841465 1
0.014174 0.039131 -0.770780 1
0.157030 0.040790 -0.987088 1
0.195820 0.036190 -0.731464 1
-0.001187 0.021979 -0.892064 1
0.243644 0.024805 -0.915906 1
0.074385 0.055036 -0.724392 1
0.086053 0.027004 -0.982075 1
0.248663 0.034496 -0.793959 1
-0.010048 0.034215 -0.813709 1
0.197694 0.026125 -0.972447 1
0.136174 0.062899 -0.875677 1
0.120706 0.031932 -0.854311 1
0.139602 0.051446 -0.890389 1
0.149560 0.090409 -0.866868 1
0.106003 0.028055 -0.870104 1
0.164122 0.080047 -0.895495 1
0.119456 0.043359 -0.834144 1
0.120934 0.026107 -0.896683 1
0.169043 0.075215 -0.862804 1
0.091130 0.029133 -0.850025 1
0.160426 0.076219 -0.916763 1
0.145253 0.093132 -0.843679 1
0.095310 0.025324 -0.891130 1
0.182660 0.064270 -0.880567 1
0.094871 0.031874 -0.820994 1
0.134605 0.030281 -0.917538 1
0.170591 0.069903 -0.836996 1
0.074986 0.027138 -0.866265 1
0.181132 0.080128 -0.916879 1
0.127243 0.091097 -0.827932 1
0.101601 0.025323 -0.914841 1
0.192548 0.046150 -0.851567 1
0.072816 0.034219 -0.831205 1
0.158752 0.055103 -0.933767 1
0.159955 0.080615 -0.819389 1
0.070836 0.025769 -0.891602 1
0.198780 0.054565 -0.893329 1
0.092004 0.031913 -0.793632 1
0.119999 0.027371 -0.934621 1
0.191886 0.042465 -0.821593 1
0.055875 0.030802 -0.851839 1
0.183650 0.067985 -0.934355 1
0.140752 0.103687 -0.815325 1
0.079399 0.025035 -0.919167 1
0.211050 0.034146 -0.859782 1
0.065513 0.034699 -0.806017 1
0.147474 0.042012 -0.948940 1
0.178750 0.042719 -0.792482 1
0.049070 0.025451 -0.880380 1
0.205880 0.054865 -0.914716 1
0.105810 0.063126 -0.786617 1
0.099040 0.022249 -0.942226 1
0.213138 0.035378 -0.827288 1
0.043972 0.033519 -0.829854 1
0.177194 0.054599 -0.951111 1
0.156292 0.073065 -0.785923 1
0.056435 0.025610 -0.913881 1
0.223305 0.033081 -0.879892 1
0.067848 0.035212 -0.779289 1
0.129679 0.035875 -0.961053 1
0.202270 0.032300 -0.790198 1
0.031685 0.027146 -0.861441 1
0.204951 0.050502 -0.936253 1
0.127514 0.099934 -0.789632 1
0.075959 0.024710 -0.943817 1
0.230969 0.028144 -0.841627 1
0.039542 0.035427 -0.803058 1
0.163159 0.041346 -0.965849 1
0.178257 0.041890 -0.763711 1
0.032889 0.020445 -0.897943 1
0.228602 0.030543 -0.903604 1
0.080271 0.040960 -0.756876 1
0.105665 0.024001 -0.965668 1
0.225160 0.031726 -0.802474 1
0.020580 0.031747 -0.837278 1
0.196517 0.039350 -0.955626 1
0.146733 0.080546 -0.765900 1
0.050737 0.023369 -0.936221 1
0.243320 0.026322 -0.864794 1
0.044422 0.041167 -0.776526 1
0.143629 0.038745 -0.979314 1
0.204631 0.030947 -0.762349 1
0.015503 0.027057 -0.878456 1
0.226638 0.028151 -0.929146 1
0.106222 0.078429 -0.758697 1
0.081166 0.030139 -0.967782 1
0.244564 0.031351 -0.822709 1
0.016081 0.035425 -0.808315 1
0.181350 0.035771 -0.975006 1
0.170622 0.043469 -0.738310 1
0.026038 0.022503 -0.920719 1
0.249124 0.024029 -0.891795 1
0.056255 0.040955 -0.747542 1
0.118565 0.031210 -0.986172 1
0.230394 0.035624 -0.778994 1
0.000469 0.025573 -0.849335 1
0.217514 0.023258 -0.953647 1
0.134507 0.106166 -0.762359 1
0.053554 0.028049 -0.960324 1
0.258802 0.029008 -0.848148 1
0.018815 0.036668 -0.775822 1
0.161150 0.044288 -0.993001 1
0.200376 0.038587 -0.739797 1
0.004045 0.022907 -0.897913 1
0.247768 0.021496 -0.920567 1
0.080393 0.058924 -0.733750 1
0.090184 0.027064 -0.987239 1
0.252957 0.032487 -0.799293 1
-0.006172 0.029922 -0.817664 1
0.201503 0.021855 -0.976871 1
0.133448 0.059861 -0.848845 1
0.119774 0.044123 -0.833095 1
0.137036 0.048645 -0.863953 1
0.149062 0.105026 -0.848887 1
0.102561 0.024986 -0.842263 1
0.163360 0.092219 -0.876328 1
0.119874 0.064818 -0.817700 1
0.117789 0.021948 -0.869322 1
0.167358 0.075755 -0.837510 1
0.086780 0.023756 -0.820344 1
0.159224 0.082856 -0.895489 1
0.143889 0.100693 -0.821799 1
0.092371 0.025719 -0.865341 1
0.180539 0.050381 -0.849209 1
0.090594 0.027167 -0.790443 1
0.131661 0.024594 -0.890456 1
0.168132 0.059485 -0.804949 1
0.070908 0.024611 -0.838453 1
0.179356 0.073362 -0.890515 1
0.123616 0.084976 -0.797910 1
0.098149 0.021529 -0.888188 1
0.190839 0.033142 -0.818782 1
0.068152 0.030381 -0.801541 1
0.158992 0.078491 -0.917950 1
