ply
format ascii 1.0
element vertex 1595
property float x
property float y
property float z
property uchar label
end_header
0.496177 0.518094 -0.196240 1
0.479500 0.532922 -0.080681 1
0.409746 0.512635 -0.177135 1
0.528322 0.519440 -0.151430 1
0.421592 0.531122 -0.090267 1
0.462092 0.513945 -0.206848 1
0.511965 0.518745 -0.092616 1
0.393233 0.516200 -0.142043 1
0.516113 0.519578 -0.185988 1
0.456530 0.535620 -0.074366 1
0.422210 0.504524 -0.196237 1
0.532217 0.511599 -0.125085 1
0.399577 0.522039 -0.102627 1
0.486769 0.520256 -0.208968 1
0.495339 0.527160 -0.076137 1
0.396230 0.517807 -0.168476 1
0.531792 0.520749 -0.167901 1
0.431466 0.538264 -0.077685 1
0.445457 0.510423 -0.211509 1
0.527105 0.511828 -0.098465 1
0.385874 0.518060 -0.125313 1
0.510281 0.520920 -0.201499 1
0.472274 0.536251 -0.067157 1
0.406350 0.510874 -0.192084 1
0.540660 0.505549 -0.139225 1
0.404858 0.529424 -0.086724 1
0.472322 0.515501 -0.218129 1
0.512671 0.522210 -0.077506 1
0.384372 0.520811 -0.154677 1
0.530469 0.519227 -0.184898 1
0.443651 0.535051 -0.063255 1
0.425826 0.505071 -0.211350 1
0.540436 0.506964 -0.110225 1
0.382692 0.518280 -0.105360 1
0.499796 0.520792 -0.215228 1
0.490345 0.534508 -0.063840 1
0.391583 0.517591 -0.182940 1
0.544772 0.508470 -0.158434 1
0.414889 0.534656 -0.071172 1
0.455011 0.514839 -0.224053 1
0.529748 0.516404 -0.084126 1
0.375567 0.522579 -0.136629 1
0.524440 0.520842 -0.202219 1
0.461537 0.538703 -0.055976 1
0.406816 0.507029 -0.206841 1
0.550642 0.498560 -0.125192 1
0.386825 0.523651 -0.086177 1
0.485039 0.518963 -0.226226 1
0.509729 0.533135 -0.066182 1
0.378495 0.522667 -0.168884 1
0.544058 0.511939 -0.178722 1
0.467306 0.520801 -0.152200 1
0.457892 0.519280 -0.151635 1
0.476606 0.518745 -0.160662 1
0.466120 0.524084 -0.137014 1
0.455103 0.513000 -0.164882 1
0.487646 0.524922 -0.150081 1
0.447952 0.520712 -0.139471 1
0.473118 0.515163 -0.174469 1
0.479901 0.529000 -0.131539 1
0.439523 0.510888 -0.158940 1
0.493898 0.522503 -0.164082 1
0.454879 0.527076 -0.125598 1
0.457074 0.512275 -0.180622 1
0.496040 0.528292 -0.138227 1
0.432179 0.516094 -0.142695 1
0.487333 0.517462 -0.180594 1
0.473060 0.532282 -0.118815 1
0.436481 0.508868 -0.173783 1
0.505731 0.525996 -0.155826 1
0.438539 0.523945 -0.123444 1
0.468578 0.511721 -0.191160 1
0.494757 0.532582 -0.123781 1
0.421755 0.510084 -0.154622 1
0.502706 0.520768 -0.177537 1
0.458815 0.534139 -0.111324 1
0.442718 0.506238 -0.188976 1
0.511302 0.528350 -0.140977 1
0.422544 0.520059 -0.130395 1
0.485784 0.516697 -0.195700 1
0.484977 0.534733 -0.109775 1
0.420558 0.509540 -0.172735 1
0.515539 0.524319 -0.166709 1
0.440366 0.533019 -0.110469 1
0.458734 0.514887 -0.202316 1
0.509044 0.526914 -0.121876 1
0.409428 0.510943 -0.143868 1
0.503896 0.520218 -0.192128 1
0.468532 0.537113 -0.100456 1
0.427404 0.506850 -0.191117 1
0.522826 0.523094 -0.148620 1
0.419559 0.523076 -0.115333 1
0.478591 0.520492 -0.208637 1
0.498720 0.527607 -0.103718 1
0.407372 0.513991 -0.165836 1
0.519798 0.521955 -0.180482 1
0.447558 0.537415 -0.097742 1
0.443165 0.508424 -0.207027 1
0.522642 0.519146 -0.125702 1
0.402460 0.513972 -0.129391 1
0.499336 0.520394 -0.206341 1
0.481423 0.532811 -0.091360 1
0.412667 0.511676 -0.187873 1
0.530690 0.518347 -0.160844 1
0.423981 0.530909 -0.101517 1
0.465093 0.512925 -0.216905 1
0.513767 0.517113 -0.102348 1
0.396267 0.516140 -0.153331 1
0.519041 0.522764 -0.196097 1
0.458841 0.536988 -0.086004 1
0.426295 0.507575 -0.207359 1
0.534345 0.510042 -0.134519 1
0.402224 0.521780 -0.114077 1
0.489828 0.520080 -0.218775 1
0.497058 0.526223 -0.086377 1
0.399328 0.517484 -0.179469 1
0.534297 0.518264 -0.176929 1
0.433350 0.536818 -0.088371 1
0.448983 0.511547 -0.221973 1
0.528954 0.509540 -0.107824 1
0.388582 0.517244 -0.136591 1
0.513393 0.523811 -0.211440 1
0.474043 0.535664 -0.077833 1
0.409242 0.509403 -0.202753 1
0.542960 0.503413 -0.148428 1
0.407234 0.528832 -0.098078 1
0.475641 0.516117 -0.228173 1
0.514114 0.517264 -0.085932 1
0.387436 0.520475 -0.165861 1
0.533161 0.517475 -0.194085 1
0.446119 0.536851 -0.075415 1
0.430078 0.508518 -0.222291 1
0.542438 0.503581 -0.119090 1
0.385013 0.516685 -0.116565 1
0.503097 0.523200 -0.225096 1
0.491764 0.531996 -0.073471 1
0.394267 0.515673 -0.193650 1
0.547287 0.504881 -0.167219 1
0.418068 0.537432 -0.083978 1
0.458136 0.513696 -0.234143 1
0.531401 0.512460 -0.092820 1
0.378643 0.522438 -0.148083 1
0.527458 0.524876 -0.212138 1
0.463682 0.540316 -0.067929 1
0.410440 0.507651 -0.217733 1
0.552812 0.497339 -0.134648 1
0.389686 0.524037 -0.098181 1
0.488294 0.519063 -0.236028 1
0.511130 0.530197 -0.075385 1
0.380909 0.520261 -0.179621 1
0.546740 0.510045 -0.187820 1
0.460339 0.519285 -0.159758 1
0.450364 0.515417 -0.158776 1
0.470006 0.518257 -0.168345 1
0.458720 0.521658 -0.144248 1
0.447651 0.508662 -0.172147 1
0.480756 0.523092 -0.157177 1
0.440234 0.517510 -0.146834 1
0.466998 0.516300 -0.182579 1
0.472723 0.527685 -0.138811 1
0.432344 0.509074 -0.167000 1
0.487323 0.520922 -0.171208 1
0.447435 0.525806 -0.133294 1
0.450590 0.511219 -0.188624 1
0.489257 0.528583 -0.145718 1
0.424100 0.512072 -0.150170 1
0.481028 0.516193 -0.187995 1
0.465609 0.530841 -0.126097 1
0.430161 0.509617 -0.182487 1
0.499167 0.525180 -0.162881 1
0.430672 0.521660 -0.131100 1
0.463180 0.515447 -0.199746 1
0.487565 0.531452 -0.130821 1
0.415344 0.511839 -0.163813 1
0.496507 0.520057 -0.184745 1
0.451141 0.532666 -0.118790 1
0.437265 0.509582 -0.197993 1
0.504573 0.528441 -0.148152 1
0.413489 0.513807 -0.137207 1
0.480066 0.517814 -0.203547 1
0.477768 0.535474 -0.117604 1
0.415250 0.514087 -0.182453 1
0.509257 0.524282 -0.173800 1
0.431307 0.526681 -0.116508 1
0.452420 0.512556 -0.210199 1
0.502371 0.531929 -0.130716 1
0.403134 0.513702 -0.153552 1
0.497930 0.519094 -0.199289 1
0.461380 0.539038 -0.109016 1
0.421758 0.509130 -0.200229 1
0.516395 0.526629 -0.156525 1
0.411095 0.519898 -0.122961 1
0.472662 0.518519 -0.216217 1
0.492065 0.534750 -0.113737 1
0.402090 0.518650 -0.175849 1
0.513845 0.523335 -0.187780 1
0.439796 0.536844 -0.105673 1
0.437480 0.509281 -0.215638 1
0.515938 0.526084 -0.134881 1
0.395741 0.516101 -0.139065 1
0.493906 0.522096 -0.213989 1
0.474380 0.536897 -0.100647 1
0.406734 0.513066 -0.197091 1
0.524449 0.523525 -0.168904 1
0.414860 0.526018 -0.108253 1
0.459870 0.514901 -0.225209 1
0.506824 0.525036 -0.112423 1
0.390762 0.520549 -0.163575 1
0.513376 0.523978 -0.203340 1
0.451549 0.539403 -0.094996 1
0.420770 0.509210 -0.216369 1
0.527587 0.518187 -0.143705 1
0.392817 0.516514 -0.121289 1
0.484513 0.520826 -0.226476 1
0.489800 0.530772 -0.095668 1
0.393070 0.518318 -0.188800 1
0.528275 0.521700 -0.184398 1
0.425051 0.535174 -0.096076 1
0.443924 0.513884 -0.230595 1
0.521766 0.516926 -0.117353 1
0.382473 0.520659 -0.146821 1
0.508029 0.525051 -0.218755 1
0.466710 0.539022 -0.087057 1
0.403379 0.510249 -0.211966 1
0.536267 0.513457 -0.157682 1
0.398030 0.524722 -0.105362 1
0.470567 0.517635 -0.236210 1
0.506462 0.519749 -0.094134 1
0.381310 0.522389 -0.175608 1
0.527531 0.523665 -0.201869 1
0.438896 0.540189 -0.085083 1
0.426108 0.515104 -0.231619 1
0.535178 0.508670 -0.127467 1
0.378351 0.519532 -0.126795 1
0.497723 0.521681 -0.232356 1
0.484087 0.534384 -0.082033 1
0.388304 0.516739 -0.203125 1
0.540867 0.513267 -0.175623 1
0.408447 0.532177 -0.090375 1
0.453548 0.517278 -0.242625 1
0.523643 0.511669 -0.099456 1
0.372326 0.524644 -0.158084 1
0.522076 0.525437 -0.219116 1
0.455384 0.539294 -0.075349 1
0.406394 0.513658 -0.227420 1
0.545691 0.501960 -0.142540 1
0.380314 0.520217 -0.105906 1
0.483027 0.517779 -0.243656 1
0.502887 0.526610 -0.081010 1
0.374804 0.521643 -0.189361 1
0.540762 0.515925 -0.195421 1
0.437118 0.511852 -0.161550 1
0.427219 0.510346 -0.161326 1
0.447749 0.512911 -0.170715 1
0.436276 0.519616 -0.147106 1
0.426258 0.510370 -0.176591 1
0.459149 0.520673 -0.159802 1
0.416261 0.511643 -0.149004 1
0.445435 0.513223 -0.185836 1
0.450483 0.524891 -0.141084 1
0.411987 0.515972 -0.172856 1
0.465980 0.517238 -0.173695 1
0.423855 0.521198 -0.135290 1
0.429151 0.510371 -0.192742 1
0.467540 0.525231 -0.147692 1
0.402714 0.516951 -0.155627 1
0.459964 0.513195 -0.191096 1
0.442762 0.527285 -0.127936 1
0.410048 0.515920 -0.188283 1
0.478013 0.521578 -0.164985 1
0.405927 0.515542 -0.132846 1
0.441825 0.511742 -0.203346 1
0.465664 0.529214 -0.132854 1
0.395113 0.519593 -0.170195 1
0.475829 0.517225 -0.187507 1
0.426788 0.525403 -0.119337 1
0.416169 0.510400 -0.202806 1
0.483458 0.526673 -0.150367 1
0.391457 0.518080 -0.142582 1
0.459433 0.514819 -0.206980 1
0.455609 0.534404 -0.119937 1
0.394897 0.519694 -0.188427 1
0.488654 0.521303 -0.176079 1
0.406619 0.521684 -0.118136 1
0.431167 0.509688 -0.214372 1
0.480965 0.531061 -0.132960 1
0.382770 0.521997 -0.160300 1
0.477635 0.516243 -0.202287 1
0.437944 0.534583 -0.110107 1
0.401318 0.513067 -0.205871 1
0.495845 0.527030 -0.159245 1
0.386391 0.517011 -0.125853 1
0.451595 0.512215 -0.219668 1
0.470554 0.536860 -0.116975 1
0.381006 0.522829 -0.181763 1
0.493750 0.521225 -0.190391 1
0.414240 0.527916 -0.105234 1
0.416970 0.510547 -0.220734 1
0.495264 0.531535 -0.138966 1
0.374256 0.522396 -0.145359 1
0.473886 0.518465 -0.217252 1
0.452408 0.539276 -0.104112 1
0.386341 0.517790 -0.203161 1
0.504303 0.525200 -0.171898 1
0.389200 0.520702 -0.109757 1
0.439606 0.513615 -0.229683 1
0.486227 0.536595 -0.118894 1
0.369746 0.526198 -0.169945 1
0.493586 0.520679 -0.206026 1
0.428153 0.537859 -0.097049 1
0.400452 0.512153 -0.222036 1
0.507319 0.530513 -0.149545 1
0.371046 0.523409 -0.127735 1
0.464434 0.516354 -0.230119 1
0.468702 0.539434 -0.101459 1
0.371742 0.521361 -0.194805 1
0.508519 0.523741 -0.187486 1
0.398836 0.527308 -0.095910 1
0.424254 0.515967 -0.235807 1
0.501197 0.533107 -0.125072 1
0.361504 0.527890 -0.153663 1
0.488707 0.523172 -0.222011 1
0.443949 0.539648 -0.089700 1
0.383389 0.515348 -0.218243 1
0.516103 0.527107 -0.163417 1
0.371265 0.518574 -0.106713 1
0.451030 0.517092 -0.240677 1
0.485791 0.536082 -0.102745 1
0.359379 0.525238 -0.181650 1
0.508191 0.524296 -0.204848 1
0.414970 0.538897 -0.087186 1
0.405700 0.515493 -0.237120 1
0.514389 0.527689 -0.135522 1
0.357120 0.527663 -0.133910 1
0.478283 0.518228 -0.235911 1
0.462413 0.541006 -0.087080 1
0.366838 0.518769 -0.209247 1
0.520969 0.524510 -0.180367 1
0.381251 0.524333 -0.090253 1
0.434103 0.517900 -0.247651 1
0.502429 0.527897 -0.107540 1
0.350213 0.528585 -0.164328 1
0.503024 0.523880 -0.222105 1
0.432609 0.542048 -0.078940 1
0.385112 0.513274 -0.233239 1
0.524742 0.521993 -0.150122 1
0.356669 0.523754 -0.111213 1
0.463963 0.517577 -0.247947 1
0.481287 0.535710 -0.086878 1
0.352225 0.522463 -0.195355 1
0.521402 0.526047 -0.199666 1
0.412346 0.514744 -0.173375 1
0.403759 0.518699 -0.174692 1
0.422920 0.513624 -0.181874 1
0.409192 0.514516 -0.156563 1
0.403299 0.518989 -0.189963 1
0.432268 0.511080 -0.167933 1
0.392455 0.520045 -0.162669 1
0.420855 0.513300 -0.197102 1
0.423285 0.517459 -0.149331 1
0.387994 0.521317 -0.185839 1
0.440436 0.511444 -0.183019 1
0.396109 0.516374 -0.144766 1
0.405666 0.515344 -0.205348 1
0.441599 0.520002 -0.156395 1
0.378651 0.523824 -0.169140 1
0.435326 0.510813 -0.201648 1
0.414749 0.519119 -0.135666 1
0.385871 0.519417 -0.201033 1
0.452621 0.515313 -0.173656 1
0.381004 0.521774 -0.146105 1
0.417459 0.511102 -0.214844 1
0.439481 0.524721 -0.141428 1
0.370872 0.524857 -0.183510 1
0.451373 0.513671 -0.197360 1
0.398657 0.520152 -0.128144 1
0.393099 0.516354 -0.215914 1
0.458336 0.522949 -0.159196 1
0.367267 0.525874 -0.156583 1
0.435412 0.513044 -0.217906 1
0.428097 0.526453 -0.127119 1
0.370276 0.522466 -0.201385 1
0.464119 0.516542 -0.185114 1
0.378463 0.518970 -0.128233 1
0.407595 0.512005 -0.226689 1
0.455731 0.529404 -0.142123 1
0.358735 0.528869 -0.174222 1
0.454361 0.517185 -0.213081 1
0.409066 0.525287 -0.116796 1
0.378036 0.518459 -0.219267 1
0.471286 0.523276 -0.167962 1
0.362730 0.527658 -0.140908 1
0.428341 0.513427 -0.231364 1
0.444364 0.532957 -0.125222 1
0.355208 0.523704 -0.194579 1
0.470039 0.518605 -0.200003 1
0.384455 0.520090 -0.112875 1
0.393764 0.514297 -0.233632 1
0.470366 0.528901 -0.147621 1
0.349440 0.528661 -0.159260 1
0.450497 0.516146 -0.227885 1
0.425120 0.534270 -0.111944 1
0.361940 0.520693 -0.216529 1
0.480205 0.520977 -0.180569 1
0.362761 0.524814 -0.122500 1
0.416823 0.516306 -0.241932 1
0.461105 0.536639 -0.128316 1
0.342636 0.525369 -0.182410 1
0.470348 0.518314 -0.215943 1
0.397971 0.526753 -0.102633 1
0.377284 0.516649 -0.235446 1
0.482877 0.527237 -0.157942 1
0.344532 0.526870 -0.140725 1
0.441645 0.516672 -0.241481 1
0.443198 0.541178 -0.111675 1
0.346258 0.522850 -0.208177 1
0.484967 0.519854 -0.196435 1
0.369331 0.522990 -0.104941 1
0.400120 0.513978 -0.248177 1
0.476582 0.534985 -0.134931 1
0.333499 0.526662 -0.165841 1
0.465535 0.518082 -0.232000 1
0.416817 0.537910 -0.098731 1
0.360468 0.521379 -0.232222 1
0.492241 0.525086 -0.172196 1
0.347015 0.529151 -0.122165 1
0.428821 0.519707 -0.252681 1
0.460970 0.541201 -0.114050 1
0.332230 0.524453 -0.194627 1
0.485254 0.521397 -0.214271 1
0.383965 0.528209 -0.092748 1
0.381069 0.513639 -0.250045 1
0.490312 0.533036 -0.146299 1
0.328388 0.526432 -0.145740 1
0.456033 0.519043 -0.246993 1
0.436636 0.543613 -0.097669 1
0.342567 0.522653 -0.223307 1
0.497608 0.522501 -0.189281 1
0.352612 0.524467 -0.101328 1
0.411586 0.519523 -0.260140 1
0.478317 0.539934 -0.121210 1
0.321490 0.526080 -0.176687 1
0.480425 0.520441 -0.231893 1
0.404028 0.537233 -0.086518 1
0.362587 0.519323 -0.247256 1
0.501056 0.530110 -0.161411 1
0.329777 0.528159 -0.124646 1
0.442083 0.519801 -0.259627 1
0.456469 0.543725 -0.099567 1
0.327335 0.526432 -0.209615 1
0.498523 0.521798 -0.208442 1
0.387385 0.521402 -0.193773 1
0.378458 0.523992 -0.194954 1
0.397952 0.519217 -0.201753 1
0.384671 0.524315 -0.177942 1
0.377699 0.521946 -0.209796 1
0.407548 0.519373 -0.188275 1
0.367764 0.528369 -0.183959 1
0.395770 0.516930 -0.216686 1
0.396745 0.520388 -0.168536 1
0.361684 0.523222 -0.205829 1
0.415078 0.514960 -0.202048 1
0.371782 0.527587 -0.166995 1
0.380568 0.518669 -0.225315 1
0.413803 0.515368 -0.173127 1
0.352437 0.527602 -0.189630 1
0.410711 0.515390 -0.221021 1
0.387004 0.519565 -0.154274 1
0.359442 0.520049 -0.221053 1
0.426185 0.513827 -0.191195 1
0.356226 0.531150 -0.168090 1
0.393006 0.515504 -0.234719 1
0.410662 0.517485 -0.157075 1
0.343615 0.525323 -0.203599 1
0.425700 0.512676 -0.215316 1
0.372012 0.525468 -0.148638 1
0.368088 0.519599 -0.236283 1
0.430852 0.516731 -0.175077 1
0.340117 0.528623 -0.177015 1
0.411350 0.517609 -0.237247 1
0.397921 0.517141 -0.141979 1
0.343828 0.523889 -0.221925 1
0.438331 0.515261 -0.202481 1
0.353346 0.529031 -0.150740 1
0.383072 0.515370 -0.246781 1
0.426950 0.519025 -0.156329 1
0.330209 0.527585 -0.194053 1
0.429688 0.517983 -0.231305 1
0.379067 0.520151 -0.133323 1
0.353216 0.522609 -0.240176 1
0.444037 0.514469 -0.183057 1
0.334879 0.529905 -0.161179 1
0.404190 0.516307 -0.250786 1
0.414394 0.521373 -0.138696 1
0.329274 0.527621 -0.215866 1
0.444874 0.517260 -0.217312 1
0.358116 0.527861 -0.134631 1
0.369175 0.517407 -0.254136 1
0.442740 0.521010 -0.162356 1
0.320731 0.528591 -0.179391 1
0.426973 0.520756 -0.246741 1
0.393884 0.522653 -0.125377 1
0.337187 0.525832 -0.237978 1
0.454330 0.517280 -0.196872 1
0.334617 0.527747 -0.142948 1
0.391981 0.515988 -0.261534 1
0.432457 0.527173 -0.142112 1
0.316120 0.529282 -0.203931 1
0.445593 0.516418 -0.233359 1
0.368033 0.524018 -0.120039 1
0.352973 0.521111 -0.256540 1
0.456047 0.520212 -0.172864 1
0.315758 0.528168 -0.161167 1
0.418441 0.521141 -0.260606 1
0.412513 0.527835 -0.123827 1
0.321469 0.528982 -0.230143 1
0.460266 0.520737 -0.213650 1
0.341904 0.528674 -0.126268 1
0.376225 0.517582 -0.268635 1
0.449267 0.529351 -0.149820 1
0.305412 0.528661 -0.187016 1
0.441793 0.519741 -0.250107 1
0.384333 0.524576 -0.111097 1
0.335134 0.524109 -0.253591 1
0.466202 0.519156 -0.187467 1
0.317898 0.530525 -0.142355 1
0.405275 0.521723 -0.272100 1
0.431534 0.529492 -0.126509 1
0.306682 0.530248 -0.216864 1
0.460841 0.519729 -0.231204 1
0.353573 0.526040 -0.110518 1
0.356628 0.516631 -0.271107 1
0.463740 0.528139 -0.161304 1
0.298808 0.526841 -0.166387 1
0.432903 0.521987 -0.265559 1
0.404664 0.528055 -0.108454 1
0.317533 0.527534 -0.245314 1
0.472525 0.519923 -0.205414 1
0.324667 0.529656 -0.122810 1
0.387616 0.520486 -0.280176 1
0.450210 0.530883 -0.134494 1
0.294278 0.529945 -0.198712 1
0.457009 0.522719 -0.249564 1
0.370703 0.524543 -0.099006 1
0.336804 0.519931 -0.268673 1
0.475127 0.525262 -0.176440 1
0.299587 0.528309 -0.144864 1
0.419423 0.523812 -0.278732 1
0.427527 0.537115 -0.113720 1
0.300459 0.528903 -0.231584 1
0.474406 0.522762 -0.225306 1
0.363217 0.524745 -0.216235 1
0.353136 0.524114 -0.217020 1
0.373900 0.521940 -0.223839 1
0.359906 0.527154 -0.200314 1
0.353208 0.523367 -0.232262 1
0.383311 0.522453 -0.210136 1
0.340859 0.525542 -0.205518 1
0.372586 0.521298 -0.239145 1
0.373146 0.527706 -0.191758 1
0.337402 0.526195 -0.228981 1
0.391424 0.518810 -0.223896 1
0.345861 0.528446 -0.189152 1
0.357411 0.522722 -0.248177 1
0.390266 0.522922 -0.195960 1
0.327386 0.529965 -0.212793 1
0.387389 0.518441 -0.242874 1
0.363795 0.529418 -0.178641 1
0.337108 0.527167 -0.244928 1
0.402255 0.517703 -0.212768 1
0.328683 0.528580 -0.189743 1
0.370027 0.519018 -0.257208 1
0.386283 0.523510 -0.179744 1
0.319877 0.530321 -0.227585 1
0.403050 0.518957 -0.237209 1
0.347270 0.531033 -0.172144 1
0.345464 0.524627 -0.259640 1
0.406432 0.520200 -0.196435 1
0.314870 0.531815 -0.200646 1
0.387637 0.517165 -0.258752 1
0.373733 0.525380 -0.165816 1
0.320503 0.528742 -0.245928 1
0.414414 0.517046 -0.223277 1
0.327552 0.532106 -0.173935 1
0.360345 0.518978 -0.269641 1
0.401583 0.520814 -0.177369 1
0.305414 0.531197 -0.218129 1
0.407178 0.522093 -0.252652 1
0.355154 0.529573 -0.158114 1
0.329572 0.525163 -0.263754 1
0.419775 0.517426 -0.203941 1
0.308251 0.531193 -0.184386 1
0.382613 0.522509 -0.273117 1
0.387814 0.520936 -0.159340 1
0.304303 0.529636 -0.239842 1
0.421607 0.519402 -0.237953 1
0.332326 0.531944 -0.158067 1
0.346002 0.519641 -0.277380 1
0.416926 0.518798 -0.181859 1
0.294709 0.530845 -0.203370 1
0.404794 0.524024 -0.268058 1
0.367637 0.525474 -0.147609 1
0.312401 0.526571 -0.261835 1
0.429806 0.515537 -0.216493 1
0.308989 0.532392 -0.167144 1
0.371262 0.524192 -0.284324 1
0.404580 0.519005 -0.159737 1
0.290196 0.530610 -0.228055 1
0.424010 0.524744 -0.254670 1
0.343751 0.533085 -0.145157 1
0.329203 0.522308 -0.280230 1
0.430734 0.517804 -0.192043 1
0.289309 0.530785 -0.185287 1
0.397567 0.528159 -0.282394 1
0.383648 0.520454 -0.141863 1
0.295947 0.529408 -0.254308 1
0.436513 0.519315 -0.233219 1
0.315103 0.531443 -0.149671 1
0.352875 0.517706 -0.291727 1
0.421522 0.517714 -0.166051 1
0.280489 0.533298 -0.211977 1
0.420334 0.525560 -0.271138 1
0.358269 0.529289 -0.134309 1
0.311220 0.526019 -0.277822 1
0.442250 0.521767 -0.207550 1
0.288102 0.527313 -0.164490 1
0.384887 0.529337 -0.294279 1
0.403303 0.521832 -0.143968 1
0.280153 0.530231 -0.241220 1
0.438361 0.522828 -0.251434 1
0.327128 0.530412 -0.134319 1
0.333385 0.518130 -0.294941 1
0.437226 0.518620 -0.178073 1
0.272143 0.529578 -0.191057 1
0.411926 0.527652 -0.286786 1
0.375842 0.523197 -0.127393 1
0.292674 0.528756 -0.269917 1
0.449296 0.523252 -0.225375 1
0.296332 0.530071 -0.145786 1
0.366527 0.525530 -0.302960 1
0.423534 0.526947 -0.152839 1
0.268717 0.533245 -0.223773 1
0.435010 0.524859 -0.269800 1
0.344769 0.530776 -0.123267 1
0.314121 0.523783 -0.293136 1
0.449754 0.518394 -0.193942 1
0.271045 0.528541 -0.168627 1
0.398547 0.528348 -0.300364 1
0.397780 0.524901 -0.129072 1
0.275311 0.531140 -0.256627 1
0.451482 0.522857 -0.244690 1
0.341211 0.530060 -0.240463 1
0.331630 0.530898 -0.241795 1
0.352189 0.527493 -0.247788 1
0.336810 0.530666 -0.224322 1
0.331474 0.528491 -0.256730 1
0.361519 0.528845 -0.234028 1
0.319185 0.532748 -0.230802 1
0.350587 0.524756 -0.262838 1
0.349239 0.529165 -0.214939 1
0.314976 0.530101 -0.253734 1
0.369661 0.524203 -0.247340 1
0.322513 0.532427 -0.213670 1
0.335291 0.525542 -0.272281 1
0.367454 0.527244 -0.219342 1
0.304255 0.533407 -0.237698 1
0.365551 0.521812 -0.266141 1
0.340115 0.532770 -0.202517 1
0.314161 0.528757 -0.269470 1
0.380109 0.522909 -0.235947 1
0.306650 0.535903 -0.215498 1
0.347761 0.520390 -0.280900 1
0.363897 0.530749 -0.204052 1
0.297083 0.533862 -0.252755 1
0.381067 0.521894 -0.259926 1
0.323107 0.533992 -0.196365 1
0.322497 0.524870 -0.283983 1
0.383618 0.524464 -0.219381 1
0.290928 0.534583 -0.225740 1
0.367585 0.525012 -0.282345 1
0.351324 0.533534 -0.190884 1
0.296819 0.529350 -0.270890 1
0.392469 0.521742 -0.245951 1
0.303348 0.535406 -0.198769 1
0.338732 0.521609 -0.293798 1
0.379110 0.528399 -0.201414 1
0.282415 0.535286 -0.243789 1
0.386670 0.528495 -0.275475 1
0.331643 0.535068 -0.182943 1
0.306452 0.525607 -0.288673 1
0.396376 0.518306 -0.225844 1
0.286188 0.538855 -0.210807 1
0.363164 0.530487 -0.296672 1
0.365655 0.531085 -0.184781 1
0.281824 0.533721 -0.265614 1
0.400803 0.526828 -0.260605 1
0.308490 0.536907 -0.183307 1
0.324046 0.521386 -0.302034 1
0.393899 0.524061 -0.204876 1
0.271136 0.534936 -0.229340 1
0.385541 0.533242 -0.290962 1
0.345032 0.534478 -0.173405 1
0.289641 0.528698 -0.287371 1
0.407813 0.521083 -0.238911 1
0.286428 0.539888 -0.193657 1
0.349889 0.525466 -0.308091 1
0.381994 0.528359 -0.184517 1
0.268084 0.536382 -0.254441 1
0.403701 0.531500 -0.276925 1
0.319204 0.536909 -0.169799 1
0.307266 0.524557 -0.305444 1
0.407025 0.518460 -0.213568 1
0.267627 0.539387 -0.212460 1
0.377540 0.532607 -0.305226 1
0.361284 0.531470 -0.168086 1
0.272864 0.531908 -0.280294 1
0.415808 0.528413 -0.255684 1
0.291499 0.537725 -0.175851 1
0.333338 0.524550 -0.316261 1
0.398427 0.524922 -0.189670 1
0.256111 0.535939 -0.238093 1
0.400914 0.533870 -0.293432 1
0.334438 0.535674 -0.159621 1
0.288068 0.526513 -0.303528 1
0.419053 0.521508 -0.228498 1
0.265190 0.534819 -0.191680 1
0.363992 0.530101 -0.317582 1
0.378730 0.525320 -0.167152 1
0.258146 0.535880 -0.267915 1
0.418117 0.530964 -0.273416 1
0.303820 0.538122 -0.160868 1
0.311914 0.520518 -0.320217 1
0.413596 0.521578 -0.199988 1
0.250308 0.537949 -0.218630 1
0.392496 0.533649 -0.309149 1
0.352518 0.532107 -0.153371 1
0.269431 0.530344 -0.296132 1
0.427440 0.527041 -0.246738 1
0.270783 0.533242 -0.171503 1
0.345567 0.526594 -0.327060 1
0.397675 0.522894 -0.172970 1
0.244768 0.536576 -0.250426 1
0.415108 0.531430 -0.291558 1
0.320128 0.535942 -0.148578 1
0.291915 0.525322 -0.318983 1
0.426619 0.521209 -0.215375 1
0.247254 0.534586 -0.195832 1
0.379121 0.532973 -0.323167 1
0.372374 0.526857 -0.151919 1
0.251137 0.532435 -0.283199 1
0.430444 0.527963 -0.266033 1
0.313331 0.530105 -0.262545 1
0.303243 0.530191 -0.264105 1
0.325062 0.528321 -0.269713 1
0.309642 0.533977 -0.246932 1
0.304106 0.529138 -0.279436 1
0.333633 0.528206 -0.255269 1
0.290584 0.533098 -0.253513 1
0.323966 0.525842 -0.285028 1
0.321896 0.532402 -0.237125 1
0.287050 0.530647 -0.276947 1
0.342841 0.525170 -0.268724 1
0.294270 0.534655 -0.236454 1
0.308479 0.526201 -0.295081 1
0.340467 0.530438 -0.240974 1
0.275864 0.534575 -0.261108 1
0.338889 0.521748 -0.287776 1
0.311540 0.534166 -0.224488 1
0.286049 0.527887 -0.292848 1
0.353661 0.525859 -0.257212 1
0.275869 0.533455 -0.237829 1
0.322075 0.522787 -0.303494 1
0.335611 0.531616 -0.225206 1
0.267792 0.532685 -0.276340 1
0.354135 0.520561 -0.280823 1
0.293907 0.535265 -0.218765 1
0.295911 0.525955 -0.307430 1
0.356966 0.528351 -0.240662 1
0.260826 0.533951 -0.249123 1
0.342213 0.526718 -0.304135 1
0.321996 0.533346 -0.212023 1
0.269261 0.530616 -0.295054 1
0.365604 0.521533 -0.266430 1
0.273960 0.537108 -0.221877 1
0.312388 0.521632 -0.316784 1
0.351326 0.530454 -0.222390 1
0.251808 0.533180 -0.267571 1
0.361290 0.529533 -0.296435 1
0.302263 0.536428 -0.204994 1
0.280202 0.527969 -0.312805 1
0.370399 0.524123 -0.247115 1
0.253198 0.533973 -0.233145 1
0.335612 0.524322 -0.318593 1
0.337170 0.533152 -0.206087 1
0.252394 0.532552 -0.289997 1
0.375097 0.527932 -0.280985 1
0.277870 0.536793 -0.205613 1
0.299045 0.524835 -0.325695 1
0.366940 0.528372 -0.225961 1
0.241629 0.536370 -0.253772 1
0.360654 0.533725 -0.312020 1
0.314529 0.533174 -0.194225 1
0.263233 0.531584 -0.312091 1
0.381854 0.524587 -0.259361 1
0.253730 0.536523 -0.215901 1
0.323565 0.523183 -0.330848 1
0.353723 0.530614 -0.205428 1
0.237049 0.533927 -0.278911 1
0.378763 0.532641 -0.297249 1
0.288540 0.536996 -0.191704 1
0.282468 0.528816 -0.329730 1
0.380316 0.522916 -0.234307 1
0.234722 0.536027 -0.235741 1
0.352343 0.531087 -0.326764 1
0.331606 0.532004 -0.189001 1
0.245131 0.533578 -0.305460 1
0.389708 0.527453 -0.275269 1
0.258482 0.534547 -0.197661 1
0.307111 0.523172 -0.339816 1
0.370903 0.528906 -0.210586 1
0.224181 0.533765 -0.262631 1
0.376066 0.533023 -0.313902 1
0.303647 0.535403 -0.180905 1
0.264875 0.534746 -0.328467 1
0.392367 0.522985 -0.248247 1
0.234634 0.536865 -0.215979 1
0.339069 0.529353 -0.339860 1
0.351614 0.533503 -0.190008 1
0.228031 0.534966 -0.293193 1
0.393300 0.532389 -0.293226 1
0.269745 0.532878 -0.181353 1
0.290037 0.530109 -0.344237 1
0.386089 0.524141 -0.220113 1
0.215288 0.532226 -0.242214 1
0.368261 0.533646 -0.330135 1
0.322657 0.533895 -0.174868 1
0.244902 0.537002 -0.321721 1
0.402020 0.530298 -0.266414 1
0.240314 0.536324 -0.195772 1
0.321185 0.527942 -0.350147 1
0.370662 0.531129 -0.195252 1
0.213482 0.535577 -0.275778 1
0.390976 0.533107 -0.311576 1
0.289712 0.538081 -0.171002 1
0.270119 0.535270 -0.343713 1
0.398635 0.518315 -0.233992 1
0.216715 0.537387 -0.220909 1
0.355019 0.532781 -0.344872 1
0.344105 0.533007 -0.174442 1
0.226130 0.539583 -0.309397 1
0.405929 0.532079 -0.285648 1
0.290800 0.530896 -0.280926 1
0.280307 0.530434 -0.282752 1
0.302395 0.527722 -0.287651 1
0.285991 0.533428 -0.265040 1
0.280848 0.527555 -0.298085 1
0.311281 0.529195 -0.272991 1
0.267314 0.533861 -0.272489 1
0.301828 0.525464 -0.303218 1
0.298554 0.532764 -0.254917 1
0.264405 0.531360 -0.296303 1
0.321224 0.526702 -0.286337 1
0.270493 0.535305 -0.255105 1
0.287039 0.527415 -0.313979 1
0.317422 0.530419 -0.258189 1
0.251256 0.532931 -0.280318 1
0.317844 0.523474 -0.305668 1
0.248788 0.447552 -0.223932 1
0.265607 0.532142 -0.312613 1
0.331597 0.526704 -0.274320 1
0.207310 0.450093 -0.242004 1
0.300971 0.523683 -0.322020 1
0.312647 0.533332 -0.242770 1
0.244354 0.532765 -0.296242 1
0.302165 0.429396 -0.290525 1
0.227175 0.449307 -0.217698 1
0.237486 0.447845 -0.325395 1
0.303002 0.435168 -0.240989 1
0.236108 0.533646 -0.268797 1
0.318878 0.520214 -0.321759 1
0.261422 0.447384 -0.208668 1
0.248844 0.535171 -0.315383 1
0.343853 0.522124 -0.283221 1
0.247834 0.535092 -0.240368 1
0.293590 0.527398 -0.335763 1
0.328598 0.532540 -0.239568 1
0.227872 0.533642 -0.287897 1
0.309195 0.432210 -0.308765 1
0.276710 0.535073 -0.222556 1
0.262513 0.536546 -0.332863 1
0.348328 0.525384 -0.263718 1
0.228772 0.535443 -0.253144 1
0.282282 0.437139 -0.337130 1
0.312953 0.533121 -0.223040 1
0.232284 0.538346 -0.310920 1
0.352721 0.523769 -0.297147 1
0.208620 0.454191 -0.203067 1
0.281492 0.532793 -0.345061 1
0.344049 0.529110 -0.242426 1
0.167977 0.456689 -0.262933 1
0.337733 0.525493 -0.329160 1
0.252897 0.450149 -0.188231 1
0.202155 0.461358 -0.332273 1
0.358861 0.520463 -0.274953 1
0.228841 0.538072 -0.235698 1
0.305113 0.528356 -0.349441 1
0.299069 0.442029 -0.199104 1
0.215652 0.538562 -0.300208 1
0.358269 0.532583 -0.313760 1
0.261376 0.534037 -0.208981 1
0.265684 0.538042 -0.349588 1
0.358362 0.525801 -0.250864 1
0.160449 0.458824 -0.241972 1
0.331868 0.529566 -0.344486 1
0.308425 0.536301 -0.207227 1
0.225957 0.540254 -0.326668 1
0.368430 0.527004 -0.291230 1
0.233307 0.536491 -0.217253 1
0.290823 0.532984 -0.358735 1
0.347784 0.530360 -0.227015 1
0.154235 0.464773 -0.275570 1
0.355534 0.531014 -0.330629 1
0.278158 0.535840 -0.198652 1
0.246293 0.540641 -0.349024 1
0.369545 0.520202 -0.263552 1
0.205973 0.533208 -0.235134 1
0.287528 0.443356 -0.362666 1
0.326789 0.532501 -0.206125 1
0.206780 0.539356 -0.314846 1
0.349764 0.439535 -0.303742 1
0.244561 0.535375 -0.200675 1
0.273825 0.539427 -0.363715 1
0.363976 0.527935 -0.236689 1
0.190152 0.533755 -0.263484 1
0.320083 0.439740 -0.349927 1
0.298358 0.536755 -0.192855 1
0.226361 0.543737 -0.342930 1
0.379386 0.524244 -0.281224 1
0.211607 0.533320 -0.214472 1
0.304101 0.534702 -0.368686 1
0.346583 0.530976 -0.211155 1
0.142761 0.468051 -0.291542 1
0.370835 0.531816 -0.327778 1
0.219969 0.452219 -0.159758 1
0.254084 0.544840 -0.363856 1
0.354538 0.426688 -0.232101 1
0.185746 0.531133 -0.240145 1
0.335295 0.531432 -0.362735 1
0.287416 0.448358 -0.162979 1
0.204867 0.543078 -0.331195 1
0.385253 0.531340 -0.301133 1
0.276442 0.527723 -0.301980 1
0.267617 0.531030 -0.304496 1
0.288598 0.525103 -0.308515 1
0.270982 0.529865 -0.286000 1
0.270146 0.531612 -0.320079 1
0.297523 0.527334 -0.293557 1
0.253679 0.533221 -0.294410 1
0.290005 0.526653 -0.324451 1
0.284982 0.532683 -0.275993 1
0.254332 0.536631 -0.318825 1
0.308341 0.526001 -0.306829 1
0.255879 0.533508 -0.276670 1
0.277027 0.532129 -0.335724 1
0.303045 0.527781 -0.278365 1
0.240663 0.537854 -0.303305 1
0.305303 0.522460 -0.326353 1
0.274345 0.535959 -0.264085 1
0.256173 0.537867 -0.334975 1
0.318646 0.526493 -0.294533 1
0.238001 0.534355 -0.279493 1
0.290987 0.528167 -0.343336 1
0.298081 0.531333 -0.263066 1
0.235020 0.539227 -0.319404 1
0.321405 0.524106 -0.318584 1
0.255216 0.535582 -0.259014 1
0.267630 0.537460 -0.348871 1
0.320067 0.526042 -0.277162 1
0.225082 0.538230 -0.292255 1
0.308386 0.523591 -0.342576 1
0.284485 0.535600 -0.251059 1
0.239068 0.539958 -0.338161 1
0.331830 0.523953 -0.303343 1
0.234036 0.535930 -0.262995 1
0.284656 0.533358 -0.357147 1
0.313559 0.529055 -0.259116 1
0.217419 0.538402 -0.311472 1
0.326468 0.522853 -0.333365 1
0.263226 0.537131 -0.244689 1
0.253405 0.541801 -0.355114 1
0.334632 0.523436 -0.283205 1
0.214105 0.534522 -0.276016 1
0.305156 0.528404 -0.357617 1
0.299332 0.534741 -0.244093 1
0.221942 0.542270 -0.334152 1
0.341121 0.525691 -0.316973 1
0.236833 0.535068 -0.246120 1
0.272575 0.538015 -0.366704 1
0.329438 0.526155 -0.261704 1
0.203044 0.536445 -0.297571 1
0.326751 0.526725 -0.349357 1
0.275880 0.535583 -0.233642 1
0.232715 0.538716 -0.355561 1
0.346388 0.521511 -0.294596 1
0.211483 0.533370 -0.257691 1
0.296303 0.533890 -0.370380 1
0.316189 0.532499 -0.242616 1
0.202042 0.537746 -0.323710 1
0.345562 0.528923 -0.333134 1
0.247572 0.536213 -0.231631 1
0.255583 0.540520 -0.371780 1
0.344064 0.522669 -0.269800 1
0.194890 0.536208 -0.279653 1
0.320972 0.529851 -0.364875 1
0.293320 0.535289 -0.227722 1
0.210615 0.535303 -0.350073 1
0.356423 0.527874 -0.310505 1
0.216289 0.532980 -0.239206 1
0.282452 0.538717 -0.379971 1
0.333568 0.529775 -0.246619 1
0.185142 0.533533 -0.307678 1
0.344021 0.529983 -0.350268 1
0.263032 0.535742 -0.220225 1
0.232158 0.536043 -0.372184 1
0.356505 0.520204 -0.282767 1
0.192664 0.535475 -0.259229 1
0.310155 0.533634 -0.378693 1
0.313075 0.535026 -0.227133 1
0.189834 0.533057 -0.338601 1
0.360731 0.530577 -0.328208 1
0.227803 0.532730 -0.222435 1
0.263922 0.541496 -0.385692 1
0.349359 0.524780 -0.255346 1
0.176473 0.534620 -0.287767 1
0.336647 0.529465 -0.367361 1
0.283193 0.536614 -0.213867 1
0.208139 0.533415 -0.366825 1
0.367534 0.526879 -0.300405 1
0.196443 0.533409 -0.237936 1
0.295824 0.540146 -0.389463 1
0.332606 0.532439 -0.231325 1
0.172039 0.531415 -0.321516 1
0.359089 0.529723 -0.346941 1
0.245368 0.533051 -0.209246 1
0.239367 0.538192 -0.387193 1
0.362941 0.519714 -0.268774 1
0.174887 0.536943 -0.265474 1
0.325693 0.533984 -0.382888 1
0.305098 0.536084 -0.212418 1
0.186565 0.534239 -0.355363 1
0.372940 0.529396 -0.319702 1
0.271422 0.532298 -0.326533 1
0.262917 0.535910 -0.329228 1
0.283520 0.529591 -0.332687 1
0.264220 0.531228 -0.310540 1
0.265715 0.536461 -0.344523 1
0.290138 0.527104 -0.317211 1
0.249057 0.538273 -0.319646 1
0.285180 0.530971 -0.348363 1
0.275209 0.527785 -0.299347 1
0.249736 0.540775 -0.343614 1
0.300393 0.523562 -0.330029 1
0.248651 0.534142 -0.301541 1
0.273020 0.537385 -0.359780 1
0.294149 0.524546 -0.301533 1
0.238041 0.545892 -0.328906 1
0.300124 0.526211 -0.349881 1
0.263901 0.530371 -0.287494 1
0.252858 0.543935 -0.359516 1
0.309954 0.522605 -0.317282 1
0.231859 0.536759 -0.305038 1
0.287292 0.534255 -0.366964 1
0.288487 0.527257 -0.286145 1
0.228963 0.540357 -0.344568 1
0.313866 0.521939 -0.341500 1
0.246037 0.533051 -0.283447 1
0.263119 0.540807 -0.372998 1
0.312126 0.525345 -0.300225 1
0.218842 0.539862 -0.317897 1
0.305051 0.531402 -0.365787 1
0.276067 0.534954 -0.275065 1
0.231501 0.537713 -0.363166 1
0.324035 0.521929 -0.325954 1
0.226562 0.536437 -0.288492 1
0.280951 0.538494 -0.380724 1
0.304376 0.526041 -0.281981 1
0.213464 0.543200 -0.337350 1
0.320843 0.525371 -0.356238 1
0.253622 0.534272 -0.268823 1
0.244267 0.535734 -0.379971 1
0.326843 0.522835 -0.305904 1
0.207883 0.536608 -0.302197 1
0.301122 0.533328 -0.380721 1
0.289744 0.531660 -0.267239 1
0.215343 0.541948 -0.359571 1
0.333870 0.524344 -0.339356 1
0.227371 0.532575 -0.271077 1
0.269108 0.542898 -0.390451 1
0.320949 0.524868 -0.284474 1
0.195322 0.535412 -0.323581 1
0.321312 0.528710 -0.372078 1
0.267011 0.534699 -0.257927 1
0.223228 0.532524 -0.381052 1
0.339413 0.522864 -0.317154 1
0.205438 0.536271 -0.284284 1
0.292753 0.539041 -0.393489 1
0.306208 0.528273 -0.265097 1
0.196048 0.538708 -0.349773 1
0.338595 0.527248 -0.355364 1
0.237815 0.533642 -0.256285 1
0.247140 0.535086 -0.396797 1
0.335932 0.521979 -0.292290 1
0.185959 0.533814 -0.305748 1
0.316523 0.533599 -0.387528 1
0.284712 0.535382 -0.251818 1
0.204202 0.534839 -0.375923 1
0.349079 0.526630 -0.332440 1
0.207230 0.531472 -0.264974 1
0.278770 0.542730 -0.403402 1
0.323690 0.525264 -0.268623 1
0.175553 0.529477 -0.334046 1
0.337452 0.528344 -0.372576 1
0.253824 0.534669 -0.244889 1
0.224753 0.532985 -0.397712 1
0.350326 0.525762 -0.305661 1
0.184153 0.534283 -0.285590 1
0.306352 0.538044 -0.401419 1
0.303633 0.533172 -0.250221 1
0.184294 0.534297 -0.365019 1
0.353507 0.528179 -0.349970 1
0.218874 0.531992 -0.248164 1
0.255545 0.535399 -0.410749 1
0.340210 0.521718 -0.277295 1
0.166765 0.531002 -0.314277 1
0.331333 0.530677 -0.389753 1
0.274383 0.536784 -0.238364 1
0.198862 0.527774 -0.393208 1
0.360798 0.529029 -0.322339 1
0.188870 0.534258 -0.264749 1
0.289897 0.538516 -0.413150 1
0.322674 0.528829 -0.253488 1
0.162705 0.527538 -0.348384 1
0.352640 0.528627 -0.368815 1
0.237427 0.534715 -0.235276 1
0.232910 0.536247 -0.412495 1
0.355224 0.520864 -0.291080 1
0.163843 0.531976 -0.291698 1
0.321147 0.536351 -0.405371 1
0.295917 0.535672 -0.236184 1
0.179367 0.532521 -0.381966 1
0.365793 0.527963 -0.341158 1
0.270245 0.534422 -0.348756 1
0.261767 0.537788 -0.351547 1
0.282529 0.532269 -0.354636 1
0.263406 0.534471 -0.333215 1
0.265340 0.539581 -0.366634 1
0.288265 0.528405 -0.339137 1
0.247536 0.539370 -0.342291 1
0.284635 0.534179 -0.370082 1
0.274456 0.531952 -0.322090 1
0.247661 0.540104 -0.365986 1
0.299682 0.527665 -0.351780 1
0.249442 0.540355 -0.324971 1
0.272311 0.539459 -0.381568 1
0.292645 0.527539 -0.323737 1
0.230738 0.535824 -0.351110 1
0.300127 0.531338 -0.371320 1
0.262195 0.532430 -0.310376 1
0.245171 0.531671 -0.382037 1
0.307994 0.524182 -0.338849 1
0.232030 0.541009 -0.328537 1
0.287391 0.538382 -0.388342 1
0.284796 0.525253 -0.307964 1
0.224607 0.535326 -0.367371 1
0.313736 0.527781 -0.362846 1
0.245458 0.536972 -0.307023 1
0.259895 0.536932 -0.395185 1
0.308745 0.523750 -0.321535 1
0.215677 0.537590 -0.340978 1
0.303781 0.532579 -0.386952 1
0.270334 0.528674 -0.296388 1
0.226400 0.530765 -0.386151 1
0.322756 0.525601 -0.347246 1
0.227110 0.541599 -0.312537 1
0.278794 0.536640 -0.402451 1
0.301098 0.525477 -0.303691 1
0.201492 0.525644 -0.360127 1
0.319699 0.527755 -0.377185 1
0.250836 0.534405 -0.291802 1
0.239551 0.528783 -0.402913 1
0.324372 0.523943 -0.327161 1
0.202514 0.530916 -0.325259 1
0.300279 0.534916 -0.401832 1
0.284624 0.526942 -0.288554 1
0.203638 0.524161 -0.383125 1
0.332407 0.527088 -0.360200 1
0.227789 0.538008 -0.295567 1
0.263203 0.532625 -0.413221 1
0.317879 0.525120 -0.305926 1
0.190662 0.530471 -0.347099 1
0.320821 0.532286 -0.392770 1
0.262074 0.530813 -0.279884 1
0.219328 0.527323 -0.404381 1
0.336398 0.521773 -0.337873 1
0.205263 0.539581 -0.308624 1
0.289721 0.534532 -0.415257 1
0.302024 0.526053 -0.286556 1
0.184758 0.522696 -0.373443 1
0.336900 0.528422 -0.375919 1
0.236305 0.536235 -0.280279 1
0.242131 0.526985 -0.420047 1
0.332040 0.519350 -0.313012 1
0.181519 0.529582 -0.329501 1
0.315573 0.534914 -0.408289 1
0.279962 0.532196 -0.273525 1
0.194256 0.519918 -0.400242 1
0.346709 0.527105 -0.352904 1
0.210154 0.540515 -0.290735 1
0.273379 0.532736 -0.426220 1
0.319843 0.524032 -0.289888 1
0.172248 0.526391 -0.358193 1
0.336706 0.531707 -0.392931 1
0.251416 0.536286 -0.268475 1
0.219486 0.524876 -0.421497 1
0.346899 0.524089 -0.326080 1
0.181126 0.532620 -0.309718 1
0.303730 0.534045 -0.422917 1
0.298591 0.529355 -0.271390 1
0.172371 0.517354 -0.389548 1
0.350943 0.526788 -0.370220 1
0.215876 0.531634 -0.272083 1
0.252528 0.530753 -0.433558 1
0.337121 0.522847 -0.298560 1
0.159672 0.522710 -0.338225 1
0.330889 0.533827 -0.410060 1
0.270588 0.536156 -0.260991 1
0.196363 0.524772 -0.417018 1
0.357348 0.526149 -0.342362 1
0.188022 0.536459 -0.289624 1
0.286288 0.531848 -0.435500 1
0.318129 0.526288 -0.274551 1
0.157525 0.521424 -0.372876 1
0.350606 0.527959 -0.389046 1
0.234954 0.536032 -0.259310 1
0.236243 0.543640 -0.433994 1
0.353304 0.526213 -0.312425 1
0.156363 0.523576 -0.315453 1
0.318598 0.532090 -0.426639 1
0.291107 0.533030 -0.257834 1
0.188886 0.548135 -0.404566 1
0.362892 0.525894 -0.361132 1
0.272127 0.536308 -0.368281 1
0.263700 0.539421 -0.371194 1
0.284138 0.533640 -0.373826 1
0.265653 0.537548 -0.353161 1
0.266992 0.540124 -0.386031 1
0.289672 0.530144 -0.358412 1
0.248703 0.539378 -0.362284 1
0.286304 0.535075 -0.389065 1
0.275233 0.532519 -0.341749 1
0.248930 0.539487 -0.385795 1
0.300955 0.528799 -0.370648 1
0.250404 0.540617 -0.345081 1
0.272104 0.535320 -0.400915 1
0.293359 0.528363 -0.343019 1
0.231828 0.535012 -0.371434 1
0.301442 0.531639 -0.389986 1
0.263251 0.533742 -0.330523 1
0.247153 0.531797 -0.401868 1
0.309292 0.526335 -0.357735 1
0.232869 0.540520 -0.348955 1
0.287357 0.534322 -0.407382 1
0.286043 0.527890 -0.327832 1
0.225140 0.532861 -0.387772 1
0.314772 0.528052 -0.381295 1
0.247844 0.540586 -0.327852 1
0.259687 0.532204 -0.414934 1
0.309231 0.524525 -0.340495 1
0.218503 0.539883 -0.361833 1
0.305215 0.532500 -0.405449 1
0.271215 0.530409 -0.316612 1
0.226222 0.526320 -0.406651 1
0.323626 0.526528 -0.365641 1
0.227575 0.540830 -0.333167 1
0.279611 0.533955 -0.421631 1
0.301350 0.526324 -0.323004 1
0.205835 0.529567 -0.381159 1
0.321956 0.531139 -0.395308 1
0.251977 0.536233 -0.312520 1
0.241241 0.527450 -0.422912 1
0.324968 0.525275 -0.345747 1
0.206545 0.535299 -0.346866 1
0.301363 0.533079 -0.420475 1
0.285009 0.528326 -0.308502 1
0.208723 0.528791 -0.403718 1
0.333754 0.529145 -0.378260 1
0.230952 0.542735 -0.317181 1
0.263646 0.528507 -0.432972 1
0.317427 0.524267 -0.324607 1
0.196031 0.536013 -0.368598 1
0.321868 0.531051 -0.410943 1
0.263165 0.533386 -0.300674 1
0.219823 0.523466 -0.425089 1
0.337932 0.526159 -0.356264 1
0.207424 0.541340 -0.330120 1
0.289978 0.529828 -0.434487 1
0.302079 0.527286 -0.306097 1
0.193080 0.532163 -0.394487 1
0.338263 0.529658 -0.393731 1
0.238164 0.539361 -0.301740 1
0.244183 0.525785 -0.439958 1
0.333718 0.525616 -0.332153 1
0.186273 0.534239 -0.351537 1
0.315806 0.530312 -0.426885 1
0.278307 0.529233 -0.292872 1
0.201528 0.527446 -0.420540 1
0.347167 0.526971 -0.370665 1
0.210711 0.540192 -0.312039 1
0.272924 0.525940 -0.446212 1
0.320316 0.527060 -0.309273 1
0.178627 0.532531 -0.379912 1
0.337790 0.530827 -0.410731 1
0.251583 0.536983 -0.289277 1
0.228817 0.536789 -0.440115 1
0.347359 0.525972 -0.344199 1
0.184173 0.535068 -0.331897 1
0.302538 0.524767 -0.442536 1
0.298038 0.529628 -0.290984 1
0.196548 0.550803 -0.408855 1
0.351642 0.526336 -0.387803 1
0.221490 0.540947 -0.295453 1
0.251407 0.522513 -0.454348 1
0.336595 0.522696 -0.316955 1
0.164866 0.527089 -0.360632 1
0.330890 0.528117 -0.428459 1
0.269226 0.534321 -0.280843 1
0.357675 0.526659 -0.359979 1
0.187745 0.534360 -0.311216 1
0.284394 0.520712 -0.456059 1
0.318330 0.529316 -0.294210 1
0.351742 0.527762 -0.406544 1
0.236218 0.538657 -0.281083 1
0.353040 0.526627 -0.330365 1
0.163758 0.531573 -0.338727 1
0.319031 0.526885 -0.445413 1
0.289612 0.531369 -0.277277 1
0.179848 0.529621 -0.427299 1
0.363808 0.527540 -0.378502 1
0.275424 0.537039 -0.383186 1
0.267684 0.541335 -0.386261 1
0.287433 0.534423 -0.388424 1
0.268747 0.538347 -0.368351 1
0.268912 0.536819 -0.400981 1
0.292765 0.531358 -0.373048 1
0.253933 0.543717 -0.377864 1
0.289350 0.534515 -0.403522 1
0.278060 0.533480 -0.356855 1
0.250300 0.534881 -0.401179 1
0.303707 0.528726 -0.384904 1
0.253831 0.542033 -0.360731 1
0.275471 0.534620 -0.415623 1
0.295835 0.528886 -0.357677 1
0.235170 0.534608 -0.387201 1
0.304481 0.531310 -0.404110 1
0.266372 0.535520 -0.346098 1
0.251870 0.533298 -0.416986 1
0.311959 0.527000 -0.371925 1
0.237539 0.543610 -0.365056 1
0.290854 0.533948 -0.421708 1
0.289145 0.530596 -0.343024 1
0.229111 0.532838 -0.403565 1
0.317696 0.528207 -0.395180 1
0.250481 0.541025 -0.343655 1
0.264190 0.533062 -0.429705 1
0.311864 0.526133 -0.354907 1
0.218365 0.533321 -0.377780 1
0.307692 0.529732 -0.419569 1
0.273499 0.531158 -0.332039 1
0.230930 0.526932 -0.422251 1
0.326057 0.526379 -0.379427 1
0.230576 0.541205 -0.349380 1
0.282925 0.532209 -0.436192 1
0.303119 0.526252 -0.337579 1
0.211230 0.531784 -0.397402 1
0.325237 0.531789 -0.408915 1
0.253604 0.535285 -0.328185 1
0.246186 0.528308 -0.438021 1
0.326814 0.524588 -0.359586 1
0.212580 0.539854 -0.363696 1
0.304129 0.530214 -0.434693 1
0.286266 0.527321 -0.323421 1
0.210761 0.524323 -0.420055 1
0.336052 0.527954 -0.391746 1
0.234245 0.544373 -0.333639 1
0.268191 0.528682 -0.447610 1
0.318456 0.522196 -0.338570 1
0.197673 0.532119 -0.385140 1
0.324365 0.528078 -0.424728 1
0.264197 0.531869 -0.316059 1
0.230736 0.534890 -0.439437 1
0.340045 0.526005 -0.369782 1
0.210964 0.542222 -0.346878 1
0.292655 0.525761 -0.449128 1
0.302958 0.525743 -0.320542 1
0.197309 0.531600 -0.410950 1
0.341095 0.529333 -0.407038 1
0.241213 0.541361 -0.318295 1
0.248297 0.524237 -0.455217 1
0.335129 0.524644 -0.345827 1
0.190850 0.535485 -0.368566 1
0.318762 0.527651 -0.440787 1
0.279593 0.528961 -0.308176 1
0.349207 0.525611 -0.383878 1
0.216029 0.544873 -0.329479 1
0.274597 0.518697 -0.461768 1
0.321345 0.526157 -0.323371 1
0.191258 0.545323 -0.396593 1
0.340160 0.527488 -0.424201 1
0.252352 0.535244 -0.304947 1
0.348889 0.524803 -0.357495 1
0.184191 0.529639 -0.348583 1
0.305484 0.520841 -0.456934 1
0.298184 0.526929 -0.305360 1
0.188356 0.529994 -0.426774 1
0.354067 0.525119 -0.400877 1
0.225248 0.543903 -0.312665 1
0.339356 0.527823 -0.331450 1
0.180651 0.544423 -0.378490 1
0.333249 0.523294 -0.442304 1
0.268882 0.530731 -0.295732 1
0.359479 0.525472 -0.372989 1
0.195847 0.542616 -0.329717 1
0.286751 0.514341 -0.471331 1
0.318804 0.527685 -0.308292 1
0.353895 0.523769 -0.419754 1
0.236818 0.536659 -0.297108 1
0.354351 0.525936 -0.343624 1
0.170260 0.535439 -0.356637 1
0.319330 0.514284 -0.460830 1
0.289576 0.528875 -0.291924 1
0.197576 0.549231 -0.441341 1
0.365508 0.524158 -0.391330 1
0.279267 0.535554 -0.394027 1
0.270284 0.536850 -0.397205 1
0.291020 0.532246 -0.399064 1
0.272304 0.536620 -0.379342 1
0.272484 0.533956 -0.411902 1
0.296612 0.530509 -0.383677 1
0.255814 0.537993 -0.388971 1
0.292811 0.531437 -0.414141 1
0.281660 0.532351 -0.367779 1
0.252296 0.528418 -0.412509 1
0.308613 0.530626 -0.395323 1
0.256018 0.537462 -0.371814 1
0.280232 0.534123 -0.426284 1
0.299240 0.527473 -0.368293 1
0.236422 0.527154 -0.398668 1
0.308494 0.529850 -0.414440 1
0.270834 0.536533 -0.357462 1
0.255717 0.530243 -0.428170 1
0.316275 0.528008 -0.382322 1
0.239726 0.538877 -0.376406 1
0.293684 0.528461 -0.432507 1
0.292531 0.529631 -0.353845 1
0.232392 0.528820 -0.415140 1
0.322704 0.530543 -0.405269 1
0.254208 0.540163 -0.355118 1
0.266709 0.526657 -0.441036 1
0.315228 0.524976 -0.365292 1
0.223304 0.532992 -0.389563 1
0.312698 0.530556 -0.429641 1
0.278010 0.532970 -0.343522 1
0.235097 0.524001 -0.433739 1
0.329577 0.524805 -0.389493 1
0.236024 0.543032 -0.361365 1
0.285754 0.526144 -0.447261 1
0.306140 0.524688 -0.348127 1
0.213421 0.525814 -0.409297 1
0.329015 0.529723 -0.418948 1
0.258453 0.537305 -0.340075 1
0.250331 0.525045 -0.449310 1
0.330071 0.523104 -0.369693 1
0.212331 0.530657 -0.375219 1
0.308079 0.527183 -0.445113 1
0.289311 0.526107 -0.334349 1
0.225479 0.540417 -0.430381 1
0.339785 0.526708 -0.401625 1
0.238579 0.544663 -0.345575 1
0.271858 0.524178 -0.458758 1
0.321880 0.522072 -0.349020 1
0.201153 0.528641 -0.397186 1
0.328885 0.527573 -0.434629 1
0.267722 0.531656 -0.327557 1
0.343711 0.525801 -0.379702 1
0.214098 0.539460 -0.358796 1
0.295344 0.518451 -0.460327 1
0.306300 0.525840 -0.331396 1
0.202004 0.529521 -0.422901 1
0.344259 0.525141 -0.416927 1
0.244625 0.540430 -0.330057 1
0.338679 0.525175 -0.356022 1
0.194641 0.532899 -0.380767 1
0.321263 0.519634 -0.451607 1
0.282395 0.527611 -0.319260 1
0.352964 0.525163 -0.393583 1
0.216220 0.537482 -0.340736 1
0.280249 0.518363 -0.472183 1
0.323968 0.524350 -0.333618 1
0.189933 0.533976 -0.408922 1
0.343599 0.523268 -0.434181 1
0.255076 0.533436 -0.316431 1
0.352620 0.525883 -0.367424 1
0.193388 0.536116 -0.361719 1
0.308462 0.513578 -0.468021 1
0.300923 0.525868 -0.316186 1
0.199506 0.538016 -0.437847 1
0.357623 0.522761 -0.410491 1
0.227387 0.540483 -0.324307 1
0.342653 0.528472 -0.341690 1
0.185621 0.543393 -0.390838 1
0.336396 0.516839 -0.452737 1
0.271255 0.528646 -0.306904 1
0.363149 0.525692 -0.382599 1
0.197806 0.538144 -0.341707 1
0.291304 0.510849 -0.482121 1
0.321098 0.525561 -0.318557 1
0.178693 0.531921 -0.423703 1
0.357634 0.520880 -0.429416 1
0.241112 0.537931 -0.309531 1
0.358075 0.528188 -0.353691 1
0.176184 0.536066 -0.369420 1
0.324034 0.512016 -0.470949 1
0.293134 0.530370 -0.303516 1
0.212956 0.564108 -0.450896 1
0.369078 0.522657 -0.400759 1
0.287342 0.531027 -0.398682 1
0.278390 0.532251 -0.401916 1
0.299821 0.529635 -0.403643 1
0.280505 0.532581 -0.384056 1
0.281999 0.532453 -0.416497 1
0.304276 0.525048 -0.388170 1
0.265485 0.536782 -0.393841 1
0.301700 0.528796 -0.418655 1
0.289816 0.528402 -0.372425 1
0.264436 0.531910 -0.417015 1
0.316665 0.526206 -0.399798 1
0.265625 0.536374 -0.376821 1
0.288718 0.530017 -0.430911 1
0.307367 0.523524 -0.372804 1
0.250720 0.534393 -0.403511 1
0.317259 0.527182 -0.418872 1
0.278259 0.530978 -0.362051 1
0.266418 0.530485 -0.432589 1
0.323941 0.522559 -0.386682 1
0.250481 0.539543 -0.381573 1
0.303646 0.528366 -0.436740 1
0.300142 0.524517 -0.358286 1
0.242474 0.527035 -0.419894 1
0.330964 0.526780 -0.409673 1
0.262771 0.537081 -0.360080 1
0.278013 0.528523 -0.445092 1
0.323674 0.522261 -0.369778 1
0.234213 0.532968 -0.394616 1
0.321385 0.527463 -0.434042 1
0.285471 0.527664 -0.348028 1
0.248621 0.529004 -0.437775 1
0.338688 0.524282 -0.393895 1
0.244504 0.539344 -0.366393 1
0.295598 0.525043 -0.451482 1
0.315018 0.523421 -0.352870 1
0.226627 0.529284 -0.414047 1
0.337110 0.525093 -0.423362 1
0.266265 0.532793 -0.344844 1
0.262571 0.528002 -0.453167 1
0.339729 0.524990 -0.374367 1
0.227076 0.537412 -0.380850 1
0.316969 0.524122 -0.449480 1
0.298667 0.525922 -0.339454 1
0.229216 0.526402 -0.436002 1
0.348221 0.523752 -0.405917 1
0.245820 0.538845 -0.350364 1
0.282249 0.523678 -0.462842 1
0.331571 0.524018 -0.353990 1
0.212590 0.528532 -0.402250 1
0.337282 0.523525 -0.439021 1
0.276884 0.530497 -0.332762 1
0.243223 0.525861 -0.455883 1
0.352760 0.525970 -0.384115 1
0.223966 0.537734 -0.364146 1
0.305962 0.519398 -0.464110 1
0.315131 0.524829 -0.336263 1
0.212167 0.526859 -0.427781 1
0.352590 0.521327 -0.421212 1
0.252541 0.536165 -0.334982 1
0.267317 0.529030 -0.469232 1
