ply
format ascii 1.0
element vertex 1548
property float x
property float y
property float z
property uchar label
end_header
-1.877686 0.817090 -0.857105 0
-0.656763 0.070604 -0.856782 0
-1.477070 0.558838 0.082364 0
-1.287174 0.687707 -1.235348 0
-0.712344 0.059272 -0.232455 0
-1.409347 0.207309 -0.619537 0
-1.438104 0.256546 -0.688850 0
-1.353929 0.072645 -0.604610 0
-1.529590 0.271205 -0.539524 0
-1.392538 0.150545 -0.804130 0
-1.408327 0.060627 -0.445661 0
-1.564197 0.344072 -0.696925 0
-1.230533 0.078849 -0.706576 0
-1.418094 0.353537 -0.391343 0
-1.499395 0.227847 -0.896808 0
-1.211914 0.071459 -0.474237 0
-1.662794 0.366893 -0.561920 0
-1.252846 0.111381 -0.871929 0
-1.435709 0.114154 -0.299566 0
-1.729039 0.267140 -0.886037 0
-1.094289 0.071794 -0.616903 0
-1.426362 0.525928 -0.371396 0
-1.319244 0.284123 -0.962007 0
-1.222032 0.065498 -0.329450 0
-1.921311 0.293613 -0.720162 0
-1.083273 0.111266 -0.815490 0
-1.440790 0.306136 -0.231954 0
-1.660408 0.261518 -1.042897 0
-1.042125 0.058176 -0.478000 0
-1.882619 0.331732 -0.446665 0
-1.061654 0.394760 -0.910075 0
-1.325504 0.073216 -0.192871 0
-2.071404 0.222946 -0.955438 0
-0.976682 0.070900 -0.703285 0
-1.438452 0.520981 -0.242470 0
-1.317831 0.427051 -1.031909 0
-1.062513 0.061067 -0.318666 0
-2.123971 0.311536 -0.625598 0
-1.016531 0.183599 -0.925846 0
-1.444114 0.176367 -0.104970 0
-0.912729 0.068043 -0.542460 0
-1.448702 0.693189 -0.313018 0
-1.091184 0.453739 -1.011073 0
-1.167991 0.063852 -0.161121 0
-0.916696 0.079757 -0.822201 0
-1.437786 0.451608 -0.119464 0
-1.387778 0.532635 -1.074421 0
-0.920523 0.067208 -0.364512 0
-2.084380 0.424151 -0.458331 0
-0.898835 0.454891 -0.937491 0
-1.373423 0.056008 -0.020741 0
-0.829676 0.067421 -0.645573 0
-1.441823 0.672429 -0.194231 0
-1.257415 0.412611 -1.166930 0
-1.008738 0.063795 -0.184327 0
-1.822739 0.678411 -0.643699 0
-0.879813 0.153801 -0.938466 0
-1.441966 0.307494 0.000965 0
-0.811430 0.062085 -0.449315 0
-1.445984 0.834897 -0.313783 0
-0.974487 0.461428 -1.063565 0
-1.183006 0.065192 -0.016397 0
-0.785118 0.068728 -0.776099 0
-1.464156 0.574868 -0.065941 0
-1.337715 0.530034 -1.199585 0
-0.868695 0.060858 -0.248312 0
-2.095842 0.593078 -0.516009 0
-0.847727 0.317063 -1.012828 0
-1.457831 0.068301 0.121305 0
-0.730366 0.063777 -0.563517 0
-1.447827 0.802540 -0.191345 0
-1.132533 0.429109 -1.224166 0
-1.009712 0.061713 -0.054169 0
-1.776372 0.810630 -0.720707 0
-0.778004 0.078978 -0.925845 0
-1.458946 0.439620 0.059245 0
-1.470462 0.619963 -1.217254 0
-0.753237 0.057342 -0.344560 0
-1.458195 0.940258 -0.344847 0
-0.870231 0.436812 -1.091043 0
-1.254799 0.053273 0.123609 0
-0.682726 0.064626 -0.701641 0
-1.444167 0.729450 -0.064808 0
-1.191779 0.580203 -1.234892 0
-0.855353 0.058994 -0.128564 0
-1.830059 0.846219 -0.572260 0
-0.812492 0.095025 -1.090686 0
-1.699351 -0.040576 0.299283 0
-0.665680 0.054382 -0.466993 0
-1.452407 0.916164 -0.217321 0
-0.996132 0.442227 -1.237626 0
-1.050150 0.059940 0.075100 0
-1.871194 0.837297 -0.853922 0
-0.669536 0.070361 -0.859052 0
-1.474313 0.578531 0.078191 0
-1.297651 0.694496 -1.239149 0
-0.724978 0.060629 -0.232595 0
-1.418569 0.232125 -0.619820 0
-1.458730 0.268416 -0.691815 0
-1.389520 0.065011 -0.610369 0
-1.547923 0.286341 -0.541423 0
-1.412257 0.164174 -0.807058 0
-1.433032 0.068235 -0.448087 0
-1.606898 0.337213 -0.705190 0
-1.258578 0.078297 -0.712204 0
-1.417557 0.385116 -0.392544 0
-1.521311 0.240199 -0.900903 0
-1.249268 0.055457 -0.478432 0
-1.691219 0.374823 -0.565030 0
-1.285354 0.105350 -0.881450 0
-1.436216 0.150591 -0.302437 0
-1.814812 0.227896 -0.911650 0
-1.116459 0.077091 -0.620430 0
-1.431130 0.548901 -0.372494 0
-1.338429 0.296153 -0.965770 0
-1.248746 0.065645 -0.331161 0
-1.995438 0.272863 -0.733502 0
-1.108963 0.110318 -0.822072 0
-1.441839 0.336785 -0.235034 0
-1.710141 0.251423 -1.060424 0
-1.064831 0.061077 -0.480950 0
-1.956369 0.310046 -0.450374 0
-1.085257 0.394399 -0.918071 0
-1.366935 0.055360 -0.190859 0
-0.998862 0.073810 -0.707624 0
-1.444741 0.542465 -0.244167 0
-1.349143 0.425206 -1.044140 0
-1.085643 0.063092 -0.320556 0
-1.053548 0.160060 -0.942600 0
-1.444838 0.210274 -0.110105 0
-0.933457 0.072008 -0.545625 0
-1.437075 0.725467 -0.314865 0
-1.128078 0.436915 -1.030391 0
-1.197654 0.057237 -0.160464 0
-0.934968 0.089965 -0.824944 0
-1.437172 0.480247 -0.123505 0
-1.397648 0.552522 -1.073981 0
-0.945690 0.060939 -0.366784 0
-2.083160 0.457796 -0.458414 0
-0.915265 0.460978 -0.941901 0
-1.403338 0.054788 -0.018823 0
-0.850485 0.069623 -0.649464 0
-1.450499 0.689997 -0.195216 0
-1.302898 0.393276 -1.193151 0
-1.035019 0.057788 -0.184429 0
-1.819682 0.707817 -0.641891 0
-0.903395 0.150291 -0.946663 0
-1.459656 0.320158 0.000564 0
-0.832124 0.063469 -0.452198 0
-1.448543 0.855103 -0.314542 0
-1.015497 0.432298 -1.091482 0
-1.208770 0.064788 -0.015301 0
-0.806089 0.069802 -0.780946 0
-1.442009 0.618201 -0.075334 0
-1.349982 0.547546 -1.200548 0
-0.889540 0.062569 -0.250059 0
-2.021914 0.661972 -0.509915 0
-0.824799 0.406170 -0.974505 0
-1.478955 0.079537 0.121045 0
-0.750082 0.066291 -0.566845 0
-1.451651 0.822072 -0.192583 0
-1.151777 0.437011 -1.230937 0
-1.031560 0.063960 -0.054574 0
-1.778536 0.835435 -0.719474 0
-0.795954 0.088541 -0.928484 0
-1.451902 0.473998 0.050996 0
-1.457208 0.657658 -1.201082 0
-0.773718 0.057422 -0.346923 0
-1.468148 0.955764 -0.345032 0
-0.887396 0.441804 -1.096876 0
-1.279469 0.056002 0.125145 0
-0.701955 0.068160 -0.705291 0
-1.450605 0.747728 -0.066200 0
-1.193637 0.606185 -1.226855 0
-0.875030 0.062813 -0.130086 0
-1.824014 0.874526 -0.570626 0
-0.830222 0.105751 -1.093108 0
-1.728279 -0.033475 0.302304 0
-0.685518 0.054637 -0.470066 0
-1.453203 0.936239 -0.218459 0
-1.004242 0.463656 -1.232856 0
-1.070927 0.064698 0.074812 0
-1.863312 0.867496 -0.849206 0
-0.689251 0.072407 -0.863757 0
-1.453508 0.620204 0.065528 0
-1.299295 0.718649 -1.232656 0
-0.744740 0.061512 -0.234464 0
-1.425779 0.261863 -0.617875 0
-1.478122 0.284795 -0.692534 0
-1.414416 0.076072 -0.611834 0
-1.565585 0.305231 -0.541524 0
-1.437702 0.174370 -0.809881 0
-1.444982 0.095798 -0.447951 0
-1.636345 0.346222 -0.708274 0
-1.287652 0.080761 -0.715885 0
-1.410562 0.425162 -0.392223 0
-1.565937 0.232473 -0.912075 0
-1.274874 0.062417 -0.479593 0
-1.714343 0.390442 -0.565745 0
-1.321179 0.099357 -0.889900 0
-1.426881 0.201021 -0.304331 0
-1.862108 0.227013 -0.921456 0
-1.150265 0.067154 -0.625136 0
-1.412183 0.594095 -0.372392 0
-1.356759 0.312158 -0.966741 0
-1.278788 0.065491 -0.331218 0
-2.084119 0.246910 -0.747612 0
-1.141146 0.103180 -0.829406 0
-1.432811 0.379958 -0.237933 0
-1.780802 0.227220 -1.085019 0
-1.092090 0.060485 -0.482698 0
-1.993236 0.320373 -0.450738 0
-1.113209 0.391484 -0.926467 0
-1.391844 0.065009 -0.190327 0
-1.028002 0.067976 -0.712637 0
-1.436252 0.578699 -0.246306 0
-1.373408 0.433888 -1.049641 0
-1.115357 0.058255 -0.320603 0
-1.039005 0.231089 -0.920016 0
-1.439422 0.253539 -0.115212 0
-0.961165 0.066062 -0.548558 0
-1.444097 0.746093 -0.314660 0
-1.148310 0.445340 -1.034485 0
-1.223426 0.061832 -0.159574 0
-0.954723 0.101583 -0.825981 0
-1.430987 0.516023 -0.127544 0
-1.397593 0.582921 -1.065554 0
-0.970424 0.061345 -0.367605 0
-2.084580 0.492305 -0.457008 0
-0.930771 0.471653 -0.943089 0
-1.425165 0.068701 -0.018318 0
-0.878631 0.059532 -0.654315 0
-1.436738 0.725911 -0.198546 0
-1.315474 0.414293 -1.190750 0
-1.057746 0.063925 -0.184360 0
-1.800958 0.747386 -0.636065 0
-0.913851 0.179990 -0.940264 0
-1.432584 0.381543 -0.012619 0
-0.858118 0.057266 -0.454070 0
-1.441127 0.882884 -0.314841 0
-1.060482 0.402369 -1.119566 0
-1.234274 0.069546 -0.013413 0
-0.830851 0.066932 -0.785605 0
-1.451893 0.637604 -0.075486 0
-1.360473 0.568614 -1.197985 0
-0.916056 0.056659 -0.249598 0
-1.959740 0.724844 -0.503390 0
-0.834349 0.428782 -0.969048 0
-1.491812 0.104673 0.118530 0
-0.774650 0.060945 -0.569850 0
-1.451591 0.845895 -0.193469 0
-1.166106 0.453694 -1.230257 0
-1.062438 0.054063 -0.050521 0
-1.772976 0.865618 -0.715231 0
-0.815619 0.098912 -0.929535 0
-1.456787 0.499660 0.048133 0
-1.460883 0.683522 -1.194850 0
-0.796034 0.058707 -0.347854 0
-1.492681 0.966042 -0.343938 0
-0.912778 0.435771 -1.108960 0
-1.305982 0.060670 0.128343 0
-0.724831 0.066718 -0.708750 0
-1.457139 0.768118 -0.066635 0
-1.200131 0.628767 -1.220974 0
-0.899144 0.061541 -0.129099 0
-1.813078 0.906580 -0.567223 0
-0.842663 0.134459 -1.085358 0
-1.759173 -0.023750 0.307286 0
-0.708433 0.051817 -0.471971 0
-1.457584 0.956196 -0.218251 0
-1.032552 0.457950 -1.248322 0
-1.092934 0.071948 0.075823 0
-1.870540 0.892766 -0.847641 0
-0.712373 0.070296 -0.868560 0
-1.454608 0.646247 0.062048 0
-1.304345 0.741225 -1.227130 0
-0.767952 0.058631 -0.234464 0
-1.440667 0.277911 -0.616815 0
-1.495764 0.298498 -0.692127 0
-1.427838 0.096545 -0.610206 0
-1.585677 0.317312 -0.540956 0
-1.452795 0.191961 -0.808475 0
-1.444675 0.132445 -0.445980 0
-1.688619 0.331535 -0.715964 0
-1.309886 0.088085 -0.716825 0
-1.409093 0.454617 -0.390870 0
-1.595158 0.236779 -0.916333 0
-1.298281 0.067337 -0.479550 0
-1.804632 0.348768 -0.574080 0
-1.350519 0.097953 -0.894918 0
-1.431021 0.229455 -0.303985 0
-1.908645 0.223077 -0.930162 0
-1.170157 0.075556 -0.625377 0
-1.418667 0.613270 -0.371118 0
-1.362742 0.337575 -0.961046 0
-1.300905 0.071891 -0.330291 0
-1.164513 0.105870 -0.832075 0
-1.435075 0.406416 -0.238027 0
-1.831267 0.217951 -1.099375 0
-1.115086 0.062069 -0.483031 0
-2.032227 0.325182 -0.449861 0
-1.137983 0.389461 -0.932692 0
-1.419800 0.065510 -0.187620 0
-1.049335 0.071838 -0.714041 0
-1.438821 0.601258 -0.245886 0
-1.396465 0.440166 -1.054213 0
-1.138266 0.060032 -0.319768 0
-1.049433 0.251755 -0.915926 0
-1.440507 0.283735 -0.117021 0
-0.981007 0.070959 -0.548993 0
-1.449139 0.764684 -0.313410 0
-1.189381 0.424309 -1.053899 0
-1.247743 0.063327 -0.157247 0
-1.868223 0.631021 -0.775482 0
-0.967017 0.122178 -0.822706 0
-1.431393 0.541281 -0.128570 0
-1.410144 0.598366 -1.064716 0
-0.994313 0.057480 -0.367289 0
-2.092630 0.518045 -0.454641 0
-0.948805 0.474177 -0.946788 0
-1.437657 0.089017 -0.018543 0
-0.898345 0.063640 -0.655263 0
-1.443269 0.743413 -0.197485 0
-1.328053 0.430992 -1.188671 0
-1.081865 0.061522 -0.182217 0
-1.794806 0.775755 -0.631511 0
-0.932455 0.185722 -0.941924 0
-1.446678 0.395742 -0.011012 0
-0.877301 0.061435 -0.454270 0
-1.445247 0.900631 -0.313460 0
-1.097465 0.381944 -1.139897 0
-1.259567 0.069317 -0.009468 0
-0.850377 0.070914 -0.787031 0
-1.458772 0.655720 -0.074833 0
-1.372499 0.584492 -1.196655 0
-0.935573 0.060379 -0.248925 0
-1.929806 0.765901 -0.498304 0
-0.847038 0.439880 -0.967888 0
-1.471290 0.162991 0.105230 0
-0.794028 0.063256 -0.570700 0
-1.442878 0.871508 -0.194419 0
-1.180516 0.466222 -1.230192 0
-1.083673 0.056758 -0.048266 0
-1.773893 0.888918 -0.711624 0
-0.830982 0.113038 -0.927652 0
-1.465115 0.518031 0.048412 0
-1.488000 0.688691 -1.204390 0
-0.817287 0.055402 -0.347655 0
-1.551193 0.957770 -0.340868 0
-0.936574 0.429105 -1.119698 0
-1.331504 0.061530 0.133533 0
-0.744836 0.066429 -0.710722 0
-1.440782 0.800169 -0.071482 0
-1.211636 0.642703 -1.219921 0
-0.918357 0.064998 -0.127953 0
-1.818954 0.927618 -0.564931 0
-0.856127 0.152770 -1.080965 0
-1.435201 0.349998 0.154909 0
-0.727121 0.054494 -0.472442 0
-1.473042 0.967689 -0.215420 0
-1.046830 0.468955 -1.248466 0
-1.116803 0.070000 0.080385 0
-1.887475 0.910399 -0.848073 0
-0.731559 0.073006 -0.870447 0
-1.463580 0.662454 0.063253 0
-1.317116 0.754366 -1.227908 0
-0.786228 0.062350 -0.234104 0
-1.449228 0.286378 -0.614271 0
-1.511982 0.299564 -0.691429 0
-1.420089 0.126606 -0.604230 0
-1.597952 0.322915 -0.538592 0
-1.460229 0.202806 -0.805243 0
-1.443483 0.153285 -0.442759 0
-1.682822 0.353848 -0.709605 0
-1.324903 0.088520 -0.716208 0
-1.407511 0.471200 -0.388209 0
-1.627735 0.223376 -0.922852 0
-1.311956 0.068946 -0.477623 0
-1.843940 0.335200 -0.574727 0
-1.368145 0.095883 -0.896140 0
-1.431945 0.246144 -0.301787 0
-1.942873 0.214644 -0.934970 0
-1.183681 0.076121 -0.624381 0
-1.404232 0.638410 -0.368650 0
-1.376394 0.340243 -0.961324 0
-1.315808 0.071347 -0.327644 0
-1.179480 0.104535 -0.832644 0
-1.434198 0.422636 -0.236278 0
-1.874443 0.200648 -1.111354 0
-1.128799 0.061128 -0.481580 0
-2.048989 0.331415 -0.446422 0
-1.149451 0.391942 -0.932822 0
-1.430174 0.072066 -0.184715 0
-1.062437 0.071769 -0.713652 0
-1.437175 0.615906 -0.244041 0
-1.407934 0.445375 -1.053760 0
-1.151471 0.059770 -0.317436 0
-1.041011 0.286724 -0.902402 0
-1.436290 0.304899 -0.116853 0
-0.993719 0.069985 -0.548067 0
-1.448162 0.777347 -0.311071 0
-1.210802 0.415388 -1.061424 0
-1.258930 0.067105 -0.154390 0
-1.830213 0.668164 -0.761150 0
-0.976406 0.128365 -0.820939 0
-1.430243 0.555973 -0.127361 0
-1.421354 0.603582 -1.064677 0
-1.002553 0.065182 -0.365531 0
-2.095459 0.533062 -0.450580 0
-0.964240 0.467617 -0.951616 0
-1.436536 0.109464 -0.018683 0
-0.909831 0.064647 -0.654533 0
-1.441078 0.756932 -0.195853 0
-1.336335 0.439217 -1.186280 0
-1.088530 0.071760 -0.180726 0
-1.790145 0.791881 -0.626610 0
-0.940869 0.193333 -0.939537 0
-1.443208 0.414208 -0.011319 0
-0.887913 0.063333 -0.452918 0
-1.444514 0.912051 -0.311077 0
-1.089622 0.411601 -1.123234 0
-1.273673 0.068412 -0.005018 0
-0.862303 0.070716 -0.787049 0
-1.457389 0.669381 -0.073691 0
-1.379935 0.592906 -1.194259 0
-0.946851 0.060600 -0.246799 0
-1.912573 0.788414 -0.493147 0
-0.857637 0.439759 -0.969241 0
-1.504237 0.142790 0.118067 0
-0.805293 0.062889 -0.570014 0
-1.437851 0.885508 -0.193126 0
-1.186374 0.476224 -1.225999 0
-1.095846 0.056594 -0.044813 0
-1.772418 0.902600 -0.707061 0
-0.843178 0.112049 -0.928534 0
-1.462406 0.534080 0.048286 0
-0.826191 0.060633 -0.346241 0
-1.543339 0.972657 -0.338363 0
-0.949386 0.427132 -1.123131 0
-1.345728 0.061133 0.138934 0
-0.756956 0.063425 -0.711145 0
-1.438247 0.813208 -0.070486 0
-1.215982 0.652767 -1.215428 0
-0.929853 0.063888 -0.125206 0
-1.823101 0.938866 -0.561607 0
-0.861669 0.168013 -1.074527 0
-1.798962 -0.008810 0.318679 0
-0.737856 0.054174 -0.471511 0
-1.492951 0.968557 -0.210494 0
-1.052884 0.478322 -1.244327 0
-1.123349 0.079521 0.081619 0
-1.884161 0.925314 -0.842316 0
-0.743415 0.071416 -0.871220 0
-1.461568 0.676333 0.063608 0
-1.321892 0.763706 -1.224316 0
-0.796269 0.063446 -0.232391 0
-1.463420 0.297932 -0.609773 0
-1.533865 0.304223 -0.688708 0
-1.432477 0.141628 -0.599121 0
-1.618473 0.329816 -0.534337 0
-1.477611 0.212254 -0.801591 0
-1.439833 0.186524 -0.436989 0
-1.766477 0.309260 -0.720533 0
-1.347090 0.090397 -0.714028 0
-1.405950 0.495207 -0.383472 0
-1.655661 0.224847 -0.922938 0
-1.345995 0.053158 -0.474962 0
-1.908476 0.311954 -0.575137 0
-1.385577 0.105382 -0.892546 0
-1.433355 0.271145 -0.297666 0
-1.204262 0.077337 -0.621861 0
-1.413127 0.651057 -0.364076 0
-1.406960 0.333805 -0.965786 0
-1.337349 0.072554 -0.322744 0
-2.062159 0.343251 -0.723519 0
-1.202089 0.103172 -0.832326 0
-1.432287 0.447513 -0.232971 0
-1.147330 0.064168 -0.478126 0
-2.075283 0.340470 -0.440332 0
-1.185594 0.371551 -0.943504 0
-1.445579 0.082648 -0.179483 0
-1.084321 0.068529 -0.712806 0
-1.442159 0.631903 -0.239732 0
-1.426377 0.452285 -1.052695 0
-1.171067 0.060685 -0.313009 0
-1.055609 0.294129 -0.899631 0
-1.431957 0.334358 -0.115390 0
-1.012760 0.069661 -0.545592 0
-1.448412 0.795201 -0.306800 0
-1.212781 0.439030 -1.049838 0
-1.277651 0.070634 -0.148801 0
-1.816034 0.698327 -0.749656 0
-0.994628 0.130077 -0.819669 0
-1.439540 0.568628 -0.122497 0
-1.436554 0.612961 -1.062612 0
-1.022860 0.061567 -0.361845 0
-2.099296 0.555815 -0.443672 0
-0.983316 0.465110 -0.954157 0
-1.433627 0.141579 -0.018424 0
-0.926960 0.067429 -0.652250 0
-1.443302 0.773458 -0.191914 0
-1.332711 0.468231 -1.169720 0
-1.112518 0.062753 -0.174358 0
-1.791349 0.811725 -0.619898 0
-0.951536 0.209053 -0.933239 0
-1.446150 0.434005 -0.008541 0
-0.903752 0.067408 -0.449888 0
-1.448074 0.926628 -0.306610 0
-1.122782 0.393559 -1.137509 0
-1.295797 0.066625 0.002816 0
-0.880033 0.071978 -0.785686 0
-1.440385 0.700983 -0.075101 0
-1.393532 0.603472 -1.191401 0
-0.962852 0.064008 -0.242916 0
-1.848622 0.839277 -0.482259 0
-0.871069 0.444971 -0.967542 0
-1.457129 0.223286 0.099902 0
-0.822671 0.062372 -0.568035 0
-1.442216 0.899598 -0.188732 0
-1.200120 0.485489 -1.223142 0
-1.112591 0.060069 -0.039444 0
-1.768989 0.923468 -0.699263 0
-0.863759 0.106215 -0.930529 0
-1.464475 0.552969 0.050941 0
-0.843112 0.060146 -0.343023 0
-1.614657 0.956769 -0.331418 0
-0.969167 0.424095 -1.127394 0
-1.364768 0.064633 0.146725 0
-0.774669 0.061923 -0.710156 0
-1.444758 0.826257 -0.065705 0
-1.224619 0.665791 -1.209555 0
-0.946297 0.065208 -0.120607 0
-1.833812 0.953979 -0.556426 0
-0.865076 0.201953 -1.058351 0
-0.753963 0.055176 -0.469082 0
-1.553650 0.955684 -0.198185 0
-1.052537 0.505168 -1.226895 0
-1.147443 0.070133 0.091738 0
-1.881477 0.946515 -0.833648 0
-0.761893 0.068483 -0.871588 0
-1.460915 0.695490 0.065638 0
-1.329131 0.777575 -1.218040 0
-0.812029 0.064450 -0.228817 0
-1.483031 0.302419 -0.600856 0
-1.558143 0.305671 -0.680637 0
-1.424230 0.179660 -0.585025 0
-1.636415 0.337461 -0.523668 0
-1.478745 0.238987 -0.786661 0
-1.430717 0.222944 -0.425882 0
-1.741633 0.355127 -0.699745 0
-1.370858 0.089521 -0.707162 0
-1.398799 0.521849 -0.373708 0
-1.682003 0.227881 -0.915483 0
-1.355594 0.069610 -0.465091 0
-1.892000 0.349262 -0.558441 0
-1.407040 0.109719 -0.885160 0
-1.434633 0.292971 -0.288252 0
-1.229570 0.070119 -0.616095 0
-1.398124 0.680545 -0.354713 0
-1.426098 0.340415 -0.958217 0
-1.360662 0.068453 -0.312660 0
-2.024182 0.394440 -0.699578 0
-1.229902 0.094276 -0.829568 0
-1.431691 0.467927 -0.224136 0
-1.162734 0.070248 -0.470233 0
-1.162591 0.974609 -0.399166 0
-1.199901 0.380839 -0.935387 0
-1.440764 0.114447 -0.171942 0
-1.105015 0.067245 -0.707376 0
-1.425870 0.662065 -0.232565 0
-1.429390 0.474391 -1.036429 0
-1.189835 0.059735 -0.304246 0
-2.141840 0.474703 -0.590560 0
-1.065124 0.310355 -0.889127 0
-1.424387 0.363081 -0.108999 0
-1.032751 0.065888 -0.539778 0
-1.444557 0.813538 -0.297509 0
-1.242779 0.430439 -1.052276 0
-1.293208 0.074647 -0.138719 0
-1.778077 0.739770 -0.725938 0
-1.017720 0.123103 -0.817246 0
-1.432317 0.592223 -0.115546 0
-1.036043 0.068816 -0.354620 0
-2.089007 0.583855 -0.428368 0
-1.006415 0.458357 -0.954982 0
-1.454804 0.139506 -0.004667 0
-0.945197 0.066956 -0.647166 0
-1.442247 0.789717 -0.183038 0
-1.355022 0.471457 -1.165827 0
-1.123588 0.072276 -0.166540 0
-1.793776 0.829314 -0.606678 0
-0.955102 0.239428 -0.917326 0
-1.430385 0.467603 -0.005554 0
-0.919369 0.069180 -0.443798 0
-1.452757 0.938717 -0.296770 0
-1.143370 0.395431 -1.134266 0
-1.312413 0.067915 0.014458 0
-1.917391 0.774556 -0.865397 0
-0.899449 0.069899 -0.781961 0
-1.449461 0.710116 -0.064144 0
-1.424873 0.600052 -1.194063 0
-0.976824 0.067191 -0.235707 0
-1.862414 0.851518 -0.469908 0
-0.880307 0.459758 -0.957449 0
-1.484550 0.213838 0.118004 0
-0.839325 0.062238 -0.563107 0
-1.449339 0.909974 -0.178425 0
-1.213706 0.496795 -1.213484 0
-1.126406 0.063198 -0.030188 0
-1.772907 0.939669 -0.686346 0
-0.875810 0.123054 -0.920696 0
-1.457264 0.575858 0.056578 0
-0.855925 0.066152 -0.337087 0
-1.630388 0.965303 -0.319958 0
-0.996402 0.412339 -1.133358 0
-1.379710 0.068034 0.159275 0
-0.793496 0.057468 -0.707050 0
-1.441460 0.842849 -0.057745 0
-1.248039 0.666393 -1.209576 0
-0.961388 0.063853 -0.112367 0
-1.833201 0.971912 -0.543070 0
-0.852440 0.272577 -1.020658 0
-0.770206 0.052831 -0.464306 0
-1.534811 0.979282 -0.190816 0
-1.080337 0.496594 -1.233070 0
-1.158411 0.076920 0.100749 0
-1.870286 0.969462 -0.815329 0
-0.779227 0.071189 -0.867312 0
-1.449380 0.719068 0.069894 0
-1.352210 0.780568 -1.217067 0
-0.826933 0.062321 -0.222256 0
-1.501700 0.317432 -0.588730 0
-1.570327 0.328531 -0.666339 0
-1.415589 0.227162 -0.568539 0
-1.659574 0.349643 -0.510588 0
-1.502260 0.251256 -0.775665 0
-1.421278 0.268137 -0.412966 0
-1.863718 0.290745 -0.706949 0
-1.397331 0.097024 -0.697489 0
-1.409968 0.538652 -0.361988 0
-1.727581 0.224022 -0.910502 0
-1.392554 0.060048 -0.455127 0
-2.012678 0.294193 -0.553209 0
-1.432781 0.120617 -0.875179 0
-1.441348 0.317200 -0.276795 0
-1.258642 0.069841 -0.608109 0
-1.425980 0.682796 -0.342545 0
-1.524372 0.275502 -0.984426 0
-1.390644 0.066541 -0.300454 0
-2.036146 0.420833 -0.681530 0
-1.251953 0.107075 -0.819720 0
-1.430827 0.495624 -0.213765 0
-1.190496 0.068127 -0.461513 0
-1.278954 0.916565 -0.391682 0
-1.219015 0.394066 -0.925640 0
-1.417727 0.177126 -0.166593 0
-1.128960 0.073755 -0.699570 0
-1.435486 0.677995 -0.220535 0
-1.457593 0.481937 -1.029755 0
-1.216170 0.058359 -0.293612 0
-2.046562 0.562096 -0.560641 0
-1.187262 0.165596 -0.943781 0
-1.434830 0.380539 -0.097317 0
-1.054926 0.071527 -0.531939 0
-1.444922 0.834800 -0.285917 0
-1.273303 0.431812 -1.049510 0
-1.316731 0.077713 -0.126026 0
-1.766779 0.773087 -0.705563 0
-1.041435 0.129165 -0.810550 0
-1.428394 0.619150 -0.106435 0
-1.060270 0.067463 -0.345890 0
-1.232617 1.066336 -0.392177 0
-1.047179 0.436736 -0.963822 0
-1.433077 0.197429 -0.003437 0
-0.967696 0.072146 -0.640433 0
-1.444310 0.809524 -0.171785 0
-1.332749 0.528126 -1.125060 0
-1.153264 0.061084 -0.153831 0
-1.801386 0.851364 -0.591044 0
-0.966075 0.267471 -0.902553 0
-1.441395 0.482479 0.006954 0
-0.940672 0.072430 -0.436628 0
-1.462432 0.953632 -0.284323 0
-1.179017 0.388642 -1.137547 0
-1.338457 0.066011 0.029879 0
-1.869907 0.825298 -0.831694 0
-0.923085 0.074261 -0.776206 0
-1.430106 0.745507 -0.059015 0
-0.996808 0.070596 -0.227000 0
-1.774730 0.915426 -0.449126 0
-0.902356 0.462640 -0.953965 0
-1.462376 0.267389 0.116881 0
-0.859950 0.068166 -0.556763 0
-1.449225 0.929715 -0.167245 0
-1.242166 0.501199 -1.210767 0
-1.147340 0.064956 -0.018323 0
-1.781244 0.960748 -0.671005 0
-0.897083 0.133860 -0.913245 0
-1.459925 0.596543 0.067020 0
-0.876935 0.066378 -0.329919 0
-1.730083 0.943604 -0.301740 0
-1.010682 0.432558 -1.119382 0
-1.405670 0.066314 0.177148 0
-0.815887 0.061405 -0.701757 0
-1.438586 0.864348 -0.047915 0
-1.284659 0.663836 -1.214674 0
-0.981786 0.063793 -0.102601 0
-1.838114 0.994293 -0.527167 0
-0.854615 0.321486 -0.994318 0
-0.790414 0.056464 -0.458434 0
-1.751021 0.900636 -0.145948 0
-1.101100 0.507927 -1.224933 0
-1.185356 0.067535 0.117608 0
-1.813315 1.015661 -0.781597 0
-0.804080 0.071573 -0.863788 0
-1.435090 0.749776 0.074464 0
-1.381671 0.786908 -1.215516 0
-0.846108 0.063916 -0.214817 0
-1.541486 0.313118 -0.580680 0
-1.604599 0.332288 -0.657388 0
-1.431866 0.246168 -0.557510 0
-1.689052 0.357959 -0.498385 0
-1.528186 0.263350 -0.765920 0
-1.434064 0.288440 -0.401996 0
-1.917797 0.285797 -0.698596 0
-1.421287 0.110194 -0.687975 0
-1.411507 0.564593 -0.350946 0
-1.787570 0.210941 -0.910220 0
-1.417543 0.068665 -0.445269 0
-2.040483 0.310820 -0.537336 0
-1.453106 0.140904 -0.863589 0
-1.434044 0.356226 -0.267478 0
-1.281259 0.081675 -0.599711 0
-1.421177 0.710782 -0.331426 0
-1.549281 0.291292 -0.974069 0
-1.409210 0.081115 -0.290113 0
-2.164359 0.375050 -0.682458 0
-1.287634 0.102896 -0.816756 0
-1.431397 0.521791 -0.203897 0
-1.217379 0.069597 -0.453983 0
-1.009477 1.107192 -0.378230 0
-1.272020 0.369298 -0.935247 0
-1.418016 0.210382 -0.158488 0
-1.157651 0.074974 -0.694663 0
-1.427436 0.707420 -0.211138 0
-1.825851 0.190604 -1.203493 0
-1.236881 0.067203 -0.284837 0
-1.997629 0.621534 -0.536965 0
-1.199287 0.195992 -0.929208 0
-1.431244 0.411925 -0.089673 0
-1.085487 0.063874 -0.527163 0
-1.432614 0.863968 -0.275471 0
-1.291739 0.450046 -1.038652 0
-1.340431 0.081223 -0.114529 0
-1.762768 0.803333 -0.686868 0
-1.067677 0.133827 -0.806215 0
-1.438199 0.634528 -0.094590 0
-1.083013 0.070565 -0.338780 0
-1.490803 0.951650 -0.384867 0
-1.065517 0.451480 -0.955677 0
-1.431041 0.230650 0.002792 0
-0.999201 0.061520 -0.638385 0
-1.444775 0.830291 -0.160894 0
-1.341383 0.555836 -1.107008 0
-1.177473 0.060372 -0.143923 0
-1.811879 0.873219 -0.575367 0
-0.994597 0.265933 -0.901797 0
-1.438884 0.509363 0.014639 0
-0.971566 0.057099 -0.431975 0
-1.511255 0.949221 -0.268429 0
-1.201354 0.403063 -1.129412 0
-1.357537 0.074021 0.041537 0
-1.837402 0.869092 -0.802847 0
-0.947650 0.079998 -0.772187 0
-1.437338 0.761340 -0.047042 0
-1.022180 0.064264 -0.218953 0
-1.734788 0.957142 -0.431610 0
-0.926587 0.465345 -0.952570 0
-1.453163 0.304992 0.120074 0
-0.887056 0.060812 -0.553993 0
-1.459032 0.944104 -0.154175 0
-1.265612 0.514778 -1.203278 0
-1.168125 0.067206 -0.007998 0
-1.792628 0.981936 -0.655617 0
-0.916479 0.152176 -0.905266 0
-1.443041 0.632236 0.069960 0
-0.897722 0.068820 -0.324621 0
-1.790366 0.941537 -0.283584 0
-1.087360 0.363830 -1.165760 0
-1.431370 0.064798 0.193933 0
-0.841234 0.061009 -0.699562 0
-1.446093 0.879250 -0.035135 0
-1.312735 0.672723 -1.211675 0
-1.000308 0.068178 -0.095284 0
-1.821752 1.025208 -0.508719 0
-0.845593 0.393463 -0.958881 0
-0.815192 0.049761 -0.455138 0
-1.905755 0.855119 -0.106825 0
-1.118042 0.527472 -1.212781 0
-1.205931 0.068537 0.129775 0
-1.812595 1.041865 -0.762726 0
-0.828767 0.076916 -0.861010 0
-1.435094 0.769470 0.084329 0
-1.402933 0.802226 -1.206859 0
-0.867312 0.061506 -0.208800 0
-1.565579 0.324303 -0.574226 0
-1.617378 0.355125 -0.648622 0
-1.453601 0.258266 -0.551143 0
-1.704962 0.377961 -0.489974 0
-1.553699 0.274230 -0.760632 0
-1.402210 0.356772 -0.393854 0
-1.963217 0.287766 -0.694331 0
-1.422355 0.150022 -0.676149 0
-1.418917 0.585530 -0.343986 0
-1.832844 0.210110 -0.910212 0
-1.418121 0.108773 -0.437236 0
-2.057947 0.334743 -0.527166 0
-1.467566 0.165018 -0.854230 0
-1.435292 0.386607 -0.261525 0
-1.309178 0.084848 -0.595310 0
-1.432838 0.726721 -0.324221 0
-1.601423 0.277595 -0.981637 0
-1.435989 0.086508 -0.282511 0
-2.172261 0.406524 -0.670227 0
-1.319446 0.102254 -0.815358 0
-1.434026 0.547041 -0.198065 0
-1.244812 0.070817 -0.448768 0
-1.428702 0.864306 -0.375407 0
-1.320592 0.348568 -0.945847 0
-1.423545 0.238794 -0.153296 0
-1.181992 0.081692 -0.690608 0
-1.431897 0.728229 -0.204661 0
-1.872828 0.190659 -1.207819 0
-1.262087 0.070913 -0.278142 0
-1.970809 0.666809 -0.523310 0
-1.227379 0.198406 -0.928254 0
-1.430141 0.442369 -0.085828 0
-1.111095 0.065391 -0.523102 0
-1.435881 0.883932 -0.268621 0
-1.315159 0.458947 -1.036304 0
-1.374370 0.074037 -0.103874 0
-1.767711 0.827707 -0.676735 0
-1.099204 0.126277 -0.807204 0
-1.428776 0.666834 -0.091909 0
-1.110382 0.066958 -0.333169 0
-1.510446 0.963523 -0.377384 0
-1.104122 0.434414 -0.966002 0
-1.431256 0.263640 0.005396 0
-1.016240 0.078916 -0.632665 0
-1.441942 0.854129 -0.155489 0
-1.347276 0.581555 -1.093580 0
-1.199380 0.066799 -0.137042 0
-1.815291 0.897850 -0.565400 0
-1.021746 0.263144 -0.902975 0
-1.447091 0.528856 0.021002 0
-0.994910 0.059145 -0.427711 0
-1.660903 0.897338 -0.248485 0
-1.229053 0.406013 -1.131054 0
-1.388040 0.070859 0.053615 0
-1.814353 0.906170 -0.784530 0
-0.968440 0.090220 -0.767993 0
-1.435119 0.785466 -0.042611 0
-1.044971 0.066260 -0.213009 0
-1.768404 0.967486 -0.423710 0
-0.953461 0.459548 -0.956941 0
-1.443311 0.345994 0.118023 0
-0.911620 0.059183 -0.551262 0
-1.470715 0.958802 -0.145770 0
-1.278072 0.534973 -1.193289 0
-1.189086 0.073668 -0.000514 0
-1.806187 1.001791 -0.647402 0
-0.932042 0.172583 -0.897406 0
-1.442521 0.656908 0.073678 0
-0.921049 0.067343 -0.319981 0
-1.873929 0.932227 -0.269743 0
-1.090470 0.399345 -1.145870 0
-1.461187 0.063598 0.207927 0
-1.968649 0.902119 -0.954002 0
-0.864011 0.064334 -0.697067 0
-1.447358 0.899541 -0.029284 0
-1.337028 0.681090 -1.212266 0
-1.020175 0.074005 -0.089382 0
-1.820178 1.050294 -0.498689 0
-0.856511 0.416126 -0.948645 0
-0.834339 0.058911 -0.451356 0
-1.976321 0.851035 -0.086672 0
-1.144280 0.530059 -1.216136 0
-1.226616 0.074998 0.138288 0
-1.825560 1.062359 -0.754637 0
-0.853733 0.076173 -0.860608 0
-1.441101 0.787396 0.091124 0
-1.423469 0.814722 -1.204843 0
-0.887399 0.065529 -0.204038 0
-1.584372 0.346120 -0.564771 0
-1.651199 0.364638 -0.641738 0
-1.479907 0.271189 -0.543481 0
-1.754961 0.375359 -0.481976 0
-1.573300 0.297218 -0.750991 0
-1.406435 0.389462 -0.385268 0
-1.988795 0.311438 -0.683157 0
-1.407260 0.214141 -0.658478 0
-1.411408 0.622572 -0.335858 0
-1.858273 0.233832 -0.899948 0
-1.421190 0.150367 -0.428023 0
-2.061103 0.373843 -0.513053 0
-1.474726 0.203680 -0.839506 0
-1.440349 0.416824 -0.253878 0
-1.352437 0.074075 -0.592116 0
-1.438353 0.750527 -0.315554 0
-1.707526 0.221315 -1.009116 0
-1.429388 0.139254 -0.276173 0
-2.184408 0.440854 -0.655595 0
-1.350261 0.111013 -0.810756 0
-1.433531 0.578210 -0.191274 0
-1.283576 0.062267 -0.442982 0
-1.439582 0.883302 -0.366413 0
-1.356323 0.350611 -0.945903 0
-1.426946 0.273554 -0.147380 0
-1.848521 0.679771 -0.769250 0
-1.225097 0.066544 -0.690729 0
-1.437832 0.751011 -0.196369 0
-1.926519 0.193604 -1.210901 0
-1.292425 0.073456 -0.269994 0
-1.994212 0.689359 -0.511570 0
-1.303966 0.141667 -0.951168 0
-1.421566 0.482944 -0.082557 0
-1.133360 0.080326 -0.517024 0
-1.450270 0.900348 -0.259014 0
-1.348857 0.463521 -1.036953 0
-1.413740 0.065990 -0.091009 0
-1.778465 0.853333 -0.665189 0
-1.141505 0.109657 -0.810759 0
-1.436722 0.688243 -0.083634 0
-1.138478 0.069361 -0.326689 0
-1.554582 0.967262 -0.367749 0
-1.135980 0.434230 -0.967924 0
-1.435257 0.295748 0.010266 0
-1.937476 0.746785 -0.920964 0
-1.047883 0.075690 -0.630211 0
-1.448012 0.875166 -0.146771 0
-1.364313 0.602191 -1.084490 0
-1.226496 0.070889 -0.128347 0
-1.823517 0.924296 -0.553471 0
-1.041530 0.280933 -0.895997 0
-1.441345 0.563558 0.024160 0
-1.016921 0.071621 -0.422432 0
-1.834445 0.842126 -0.222656 0
-1.264745 0.406799 -1.134836 0
-1.417399 0.074795 0.065981 0
-1.784495 0.949314 -0.762135 0
-0.994255 0.098786 -0.764191 0
-1.441599 0.806291 -0.034125 0
-1.074444 0.062450 -0.205408 0
-1.806523 0.980556 -0.413160 0
-0.982350 0.458194 -0.959416 0
-1.429462 0.393465 0.115464 0
-0.935180 0.068880 -0.546866 0
-1.510210 0.962563 -0.130147 0
-1.317757 0.533698 -1.201240 0
-1.213492 0.080018 0.008616 0
-1.813051 1.028206 -0.635271 0
-0.952542 0.190866 -0.890554 0
-1.441471 0.684463 0.078717 0
-0.948908 0.063764 -0.314599 0
-1.963276 0.926720 -0.252080 0
-1.134686 0.383860 -1.160166 0
-1.499328 0.057257 0.226664 0
-1.956254 0.939913 -0.932865 0
-0.890882 0.067584 -0.694553 0
-1.444583 0.924549 -0.022816 0
-1.371930 0.686628 -1.217075 0
-1.044371 0.077488 -0.081916 0
-1.825632 1.076585 -0.486675 0
-0.877103 0.426958 -0.944679 0
-0.860172 0.059536 -0.447712 0
-2.032139 0.858677 -0.065684 0
-1.173965 0.535579 -1.218342 0
-1.252510 0.078388 0.149749 0
-1.823121 1.091953 -0.739986 0
-0.882739 0.076531 -0.860082 0
-1.434850 0.815901 0.094840 0
-0.911089 0.068362 -0.198431 0
-1.604239 0.358085 -0.559542 0
-1.675421 0.374144 -0.637313 0
-1.501154 0.280426 -0.538814 0
-1.804137 0.366232 -0.477667 0
-1.603149 0.300656 -0.749188 0
-1.415021 0.408853 -0.379841 0
-2.033736 0.311856 -0.680641 0
-1.412545 0.241794 -0.650722 0
-1.426343 0.633749 -0.330140 0
-1.898097 0.235426 -0.900338 0
-1.419987 0.185900 -0.421938 0
-2.071069 0.398894 -0.504553 0
-1.490735 0.220748 -0.833834 0
-1.443245 0.440975 -0.249153 0
-1.378794 0.076220 -0.589081 0
-1.442978 0.768772 -0.309969 0
-1.749498 0.217675 -1.013392 0
-1.423994 0.179211 -0.272430 0
-2.181006 0.474827 -0.644402 0
-1.374781 0.116724 -0.808683 0
-1.436974 0.598951 -0.186534 0
-1.306482 0.066803 -0.438798 0
-1.443580 0.900862 -0.360607 0
-1.391935 0.343612 -0.951321 0
-1.427541 0.302370 -0.144210 0
-1.925235 0.663959 -0.778028 0
-1.249164 0.069864 -0.688577 0
-1.440974 0.769834 -0.191246 0
-1.315523 0.076580 -0.264536 0
-1.920359 0.753601 -0.496894 0
-1.319355 0.159402 -0.945260 0
-1.423505 0.505943 -0.078978 0
-1.154802 0.084372 -0.513882 0
-1.439066 0.926081 -0.254751 0
-1.374321 0.467739 -1.038528 0
-1.432557 0.076066 -0.084739 0
-1.777426 0.877717 -0.656131 0
-1.166445 0.110127 -0.810481 0
-1.434627 0.711268 -0.080265 0
-1.159880 0.072179 -0.322387 0
-1.596922 0.967541 -0.361226 0
-1.157787 0.437661 -0.968747 0
-1.435595 0.323517 0.012158 0
-1.960954 0.762482 -0.917206 0
-1.069411 0.078773 -0.628120 0
-1.445276 0.896111 -0.142502 0
-1.381542 0.614117 -1.081929 0
-1.246377 0.076405 -0.122643 0
-1.830969 0.944556 -0.545990 0
-1.070255 0.271769 -0.900853 0
-1.446658 0.582042 0.028777 0
-1.045171 0.059111 -0.419787 0
-1.857923 0.854658 -0.213475 0
-1.279655 0.421866 -1.129781 0
-1.428959 0.093109 0.070443 0
-1.793065 0.969079 -0.755009 0
-1.014436 0.104172 -0.762396 0
-1.441671 0.825973 -0.030006 0
-1.094716 0.064883 -0.200650 0
-1.842996 0.989066 -0.406432 0
-1.003549 0.458593 -0.961624 0
-1.426462 0.422031 0.115645 0
-0.955495 0.071180 -0.544725 0
-1.533806 0.970051 -0.120314 0
-1.338261 0.542818 -1.201047 0
-1.236915 0.078691 0.016687 0
-1.820631 1.048108 -0.627961 0
-0.972059 0.196279 -0.889386 0
-1.441423 0.705411 0.081839 0
-0.968188 0.066326 -0.311137 0
-2.005340 0.934873 -0.241300 0
-1.155908 0.389645 -1.160882 0
-1.529981 0.052564 0.240598 0
-1.947560 0.968415 -0.919144 0
-0.910885 0.071194 -0.693051 0
-1.451948 0.938938 -0.016132 0
-1.389303 0.698671 -1.215302 0
-1.066499 0.074435 -0.075519 0
-1.837528 1.094850 -0.479532 0
-0.888641 0.442054 -0.939164 0
-0.878621 0.063629 -0.445226 0
-2.034390 0.882474 -0.057809 0
-1.194774 0.541887 -1.219876 0
-1.272703 0.081843 0.157832 0
-1.824696 1.113844 -0.731354 0
-0.901802 0.083782 -0.858159 0
-1.439087 0.832296 0.100195 0
-0.929241 0.071267 -0.194612 0
-1.630246 0.357424 -0.557925 0
-1.721296 0.358454 -0.639873 0
-1.513750 0.291193 -0.535676 0
-1.900119 0.314437 -0.479074 0
-1.620041 0.309178 -0.747000 0
-1.419476 0.425291 -0.376549 0
-2.060458 0.318076 -0.678136 0
-1.433857 0.242567 -0.650058 0
-1.415200 0.660169 -0.327197 0
-1.965656 0.207172 -0.913323 0
-1.433801 0.194596 -0.419053 0
-2.110369 0.397226 -0.501255 0
-1.507933 0.228304 -0.832399 0
-1.429502 0.473917 -0.247990 0
-1.397326 0.080132 -0.587489 0
-1.430483 0.793157 -0.307121 0
-1.804453 0.195069 -1.027192 0
-1.419400 0.209092 -0.270665 0
-1.395532 0.118701 -0.808912 0
-1.426403 0.625064 -0.185664 0
-1.326928 0.065999 -0.436862 0
-1.437684 0.918986 -0.356771 0
-1.441946 0.314508 -0.967697 0
-1.440221 0.310217 -0.140380 0
-1.785995 0.760722 -0.737012 0
-1.265150 0.076168 -0.687230 0
-1.430868 0.792165 -0.189808 0
-1.333069 0.078937 -0.261428 0
-1.922274 0.772078 -0.491179 0
-1.293871 0.221991 -0.921977 0
-1.424488 0.523176 -0.077134 0
-1.175869 0.079734 -0.513296 0
-1.447560 0.935591 -0.250412 0
-1.387530 0.477622 -1.036759 0
-1.428554 0.106542 -0.085380 0
-1.783957 0.892666 -0.651195 0
-1.188349 0.106301 -0.812640 0
-1.447156 0.717710 -0.074887 0
-1.176255 0.074143 -0.320168 0
-1.630424 0.967545 -0.356510 0
-1.169832 0.446482 -0.967121 0
-1.432932 0.346807 0.011805 0
-1.090307 0.073112 -0.628996 0
-1.435115 0.916076 -0.141307 0
-1.395589 0.622786 -1.081258 0
-1.260196 0.082299 -0.119674 0
-1.828020 0.963271 -0.539814 0
-1.074675 0.293327 -0.894036 0
-1.440745 0.603745 0.028297 0
-1.055108 0.072131 -0.418054 0
-1.906522 0.850254 -0.203903 0
-1.297093 0.426792 -1.131315 0
-1.420516 0.127963 0.066447 0
-1.785438 0.989715 -0.746534 0
-1.029201 0.109624 -0.761773 0
-1.449409 0.835426 -0.025224 0
-1.107002 0.072192 -0.198717 0
-1.828185 1.011539 -0.400633 0
-1.013578 0.468525 -0.959224 0
-1.441669 0.425551 0.122197 0
-0.973582 0.067490 -0.544814 0
-1.905931 0.806969 -0.044213 0
-1.346873 0.556954 -1.196283 0
-1.254753 0.077469 0.021771 0
-1.824644 1.063772 -0.622509 0
-0.992981 0.189180 -0.893811 0
-1.442260 0.719938 0.083940 0
-0.982392 0.069179 -0.309617 0
-2.003144 0.953796 -0.235905 0
-1.175876 0.389649 -1.165526 0
-1.553248 0.048824 0.250112 0
-1.949451 0.986864 -0.912058 0
-0.929204 0.067140 -0.694482 0
-1.455761 0.950356 -0.012011 0
-1.384846 0.721966 -1.201509 0
-1.084332 0.070211 -0.071386 0
-1.835463 1.112039 -0.473663 0
-0.898094 0.452311 -0.936536 0
-0.889843 0.073441 -0.444074 0
-2.031354 0.901831 -0.053138 0
-1.207068 0.551198 -1.218540 0
-1.292559 0.077472 0.165236 0
-1.828004 1.129790 -0.725666 0
-0.917180 0.087506 -0.858440 0
-1.445849 0.841888 0.105156 0
-1.462891 0.862068 -1.189490 0
-0.943174 0.073014 -0.192754 0
-1.650889 0.365313 -0.556212 0
-1.751665 0.359976 -0.640078 0
-1.532094 0.299662 -0.533926 0
-1.941488 0.310317 -0.477422 0
-1.643997 0.314674 -0.747241 0
-1.421557 0.447107 -0.374043 0
-2.068240 0.341374 -0.673308 0
-1.435382 0.269483 -0.645042 0
-1.416800 0.678677 -0.324728 0
-2.012835 0.200418 -0.920081 0
-1.431001 0.226573 -0.416152 0
-2.107987 0.426144 -0.496034 0
-1.529705 0.234593 -0.832888 0
-1.431168 0.494887 -0.246283 0
-1.411409 0.094217 -0.585410 0
-1.430310 0.811265 -0.304592 0
-1.865651 0.171892 -1.043596 0
-1.424027 0.231517 -0.269107 0
-1.857157 0.705516 -0.586462 0
-1.412550 0.129569 -0.807747 0
-1.427088 0.644379 -0.184124 0
-1.351497 0.064282 -0.435735 0
-1.447199 0.930445 -0.353685 0
-1.428736 0.356760 -0.952109 0
-1.439740 0.335884 -0.140204 0
-1.789445 0.780717 -0.732063 0
-1.286230 0.079337 -0.687542 0
-1.430730 0.809921 -0.187918 0
-1.361514 0.071117 -0.258182 0
-1.897105 0.806253 -0.484625 0
-1.306665 0.236468 -0.919446 0
-1.422979 0.545605 -0.077113 0
-1.196940 0.080184 -0.512950 0
-1.449706 0.950822 -0.247622 0
-1.387758 0.502709 -1.027566 0
-1.434842 0.128018 -0.084850 0
-1.789032 0.910727 -0.646945 0
-1.208254 0.110211 -0.813534 0
-1.423727 0.752916 -0.079448 0
-1.204123 0.062630 -0.318082 0
-1.661044 0.971763 -0.352661 0
-1.189647 0.448559 -0.970399 0
-1.422044 0.381966 0.007435 0
-1.935029 0.818529 -0.894060 0
-1.109626 0.075503 -0.629251 0
-1.441603 0.928636 -0.138010 0
-1.423259 0.622564 -1.089263 0
-1.278292 0.086807 -0.116877 0
-1.830081 0.982326 -0.535272 0
-1.091372 0.298715 -0.894830 0
-1.440978 0.623089 0.028507 0
-1.073455 0.074342 -0.417254 0
-1.926763 0.861998 -0.198244 0
-1.321585 0.426906 -1.137805 0
-1.424568 0.151124 0.065517 0
-1.790582 1.007500 -0.742257 0
-1.048098 0.111932 -0.762821 0
-1.449039 0.852474 -0.023946 0
-1.124987 0.074723 -0.196662 0
-1.840162 1.026463 -0.396571 0
-1.041284 0.455571 -0.970081 0
-1.446216 0.443190 0.122777 0
-0.991156 0.070566 -0.544705 0
-1.936515 0.813341 -0.035197 0
-1.359970 0.569149 -1.195094 0
-1.274094 0.079355 0.025831 0
-1.831142 1.080958 -0.618505 0
-1.011194 0.191822 -0.895517 0
-1.441549 0.738247 0.084065 0
-0.999028 0.072740 -0.308544 0
-2.040877 0.961178 -0.228799 0
-1.195311 0.393490 -1.169225 0
-1.588242 0.036732 0.263032 0
-1.949411 1.008373 -0.905482 0
-0.946692 0.070637 -0.694959 0
-1.475549 0.955699 -0.004350 0
-1.386975 0.741862 -1.193164 0
-1.102568 0.071124 -0.068508 0
-1.842325 1.128844 -0.469510 0
-0.911155 0.459191 -0.936526 0
-0.913341 0.060265 -0.444564 0
-2.038026 0.920270 -0.048219 0
-1.196923 0.586795 -1.197343 0
-1.314782 0.075224 0.171838 0
-1.832567 1.147634 -0.721326 0
-0.932395 0.096596 -0.857733 0
-1.446465 0.857867 0.106327 0
-0.961651 0.071042 -0.190781 0
-1.666183 0.376894 -0.554657 0
-1.779723 0.362655 -0.640796 0
-1.536475 0.320982 -0.531159 0
-1.968654 0.316411 -0.475794 0
-1.695788 0.294004 -0.755997 0
-1.422841 0.468401 -0.372235 0
-2.030940 0.393634 -0.662222 0
-1.446009 0.284458 -0.643086 0
-1.417631 0.696829 -0.323012 0
-1.436456 0.247189 -0.414312 0
-2.100727 0.456446 -0.491738 0
-1.578550 0.211308 -0.844159 0
-1.433950 0.513724 -0.245118 0
-1.423580 0.109129 -0.583740 0
-1.435819 0.824812 -0.302527 0
-1.913214 0.160376 -1.055279 0
-1.429569 0.251468 -0.268059 0
-1.835506 0.738755 -0.579593 0
-1.426283 0.142855 -0.806317 0
-1.428170 0.662479 -0.183199 0
-1.373529 0.065132 -0.435009 0
-1.450605 0.944690 -0.351450 0
-1.462324 0.347934 -0.961124 0
-1.440766 0.358664 -0.140308 0
-1.783908 0.804181 -0.726191 0
-1.309186 0.078413 -0.689167 0
-1.437823 0.822183 -0.185669 0
-1.382426 0.072995 -0.256158 0
-1.883258 0.833385 -0.480136 0
-1.346228 0.215255 -0.931921 0
-1.426010 0.563045 -0.076588 0
-1.218001 0.079486 -0.513132 0
-1.453759 0.964402 -0.245434 0
-1.366315 0.546310 -1.007290 0
-1.436336 0.154029 -0.085917 0
-1.792937 0.928311 -0.643627 0
-1.227666 0.113262 -0.815057 0
-1.423896 0.770078 -0.078948 0
-1.223230 0.064498 -0.316837 0
-1.691225 0.976026 -0.349679 0
-1.223027 0.433194 -0.983313 0
-1.420750 0.405860 0.005619 0
-1.911241 0.850810 -0.881211 0
-1.128432 0.077281 -0.629955 0
-1.443406 0.943289 -0.136376 0
-1.305474 0.077389 -0.112288 0
-1.831738 1.000569 -0.531830 0
-1.119478 0.285242 -0.903676 0
-1.443055 0.640196 0.028674 0
-1.091428 0.075975 -0.416818 0
-1.942926 0.874989 -0.194048 0
-1.314013 0.460228 -1.122573 0
-1.429325 0.172235 0.064430 0
-1.773699 1.032503 -0.733836 0
-1.065774 0.114762 -0.764021 0
-1.434381 0.877602 -0.027502 0
-1.143671 0.075131 -0.194767 0
-1.863901 1.036633 -0.393793 0
-1.065736 0.446575 -0.979217 0
-1.436114 0.474018 0.116812 0
-1.009239 0.071002 -0.545185 0
-1.961232 0.822170 -0.028367 0
-1.370030 0.582632 -1.193096 0
-1.294215 0.079549 0.029816 0
-1.835189 1.098071 -0.615277 0
-1.029730 0.192070 -0.898391 0
-1.444884 0.753058 0.085006 0
-1.018718 0.068945 -0.307498 0
-2.059695 0.974906 -0.224254 0
-1.218262 0.391426 -1.177193 0
-1.614506 0.034814 0.271171 0
-1.925046 1.036808 -0.892659 0
-0.963808 0.072968 -0.695920 0
-1.494814 0.961210 0.002358 0
-1.391463 0.758450 -1.188090 0
-1.119995 0.072750 -0.066151 0
-1.849095 1.144921 -0.466478 0
-0.924673 0.463598 -0.937974 0
-0.930629 0.060385 -0.444604 0
-2.053121 0.934852 -0.042977 0
-1.216668 0.588520 -1.204171 0
-1.334027 0.076922 0.176507 0
-1.833009 1.165708 -0.717291 0
-0.939371 0.120905 -0.852190 0
-1.448008 0.872779 0.107086 0
-0.977811 0.073075 -0.189541 0
-1.684218 0.390899 -0.554804 0
-1.813191 0.366318 -0.643777 0
-1.565696 0.322587 -0.532849 0
-1.992750 0.330308 -0.475674 0
-1.756087 0.272119 -0.767906 0
-1.442150 0.476597 -0.371937 0
-2.045773 0.414843 -0.661583 0
-1.458277 0.302381 -0.642481 0
-1.424389 0.713797 -0.322496 0
-1.437460 0.277559 -0.413651 0
-2.105270 0.483997 -0.490127 0
-1.606398 0.216009 -0.848438 0
-1.447423 0.526890 -0.244477 0
-1.431068 0.135367 -0.582216 0
-1.439428 0.842737 -0.301972 0
-1.971832 0.145984 -1.072258 0
-1.437689 0.273437 -0.268444 0
-1.830199 0.766428 -0.576546 0
-1.439908 0.161527 -0.805468 0
-1.439038 0.676442 -0.182402 0
-1.396910 0.070668 -0.435616 0
-1.463653 0.956697 -0.350447 0
-1.475052 0.365453 -0.960330 0
-1.414670 0.413529 -0.147329 0
-1.741690 0.849390 -0.713194 0
-1.334117 0.081069 -0.691927 0
-1.441943 0.839610 -0.185427 0
-1.405423 0.078663 -0.255669 0
-1.831513 0.881015 -0.474690 0
-1.375010 0.213696 -0.938844 0
-1.436653 0.577800 -0.076077 0
-1.255835 0.059719 -0.516722 0
-1.501557 0.958435 -0.240341 0
-1.375501 0.563950 -1.005504 0
-1.429650 0.195035 -0.090964 0
-1.797884 0.948856 -0.641976 0
-1.249508 0.118687 -0.817845 0
-1.435371 0.782655 -0.077435 0
-1.243989 0.070637 -0.316972 0
-1.740017 0.976355 -0.347972 0
-1.249226 0.431363 -0.991584 0
-1.424523 0.428974 0.003277 0
-1.917190 0.873057 -0.879217 0
-1.148274 0.083963 -0.631378 0
-1.445532 0.960657 -0.136240 0
-1.328704 0.080772 -0.110812 0
-1.835302 1.021467 -0.530153 0
-1.163291 0.254464 -0.921807 0
-1.447338 0.659257 0.027549 0
-1.121585 0.063128 -0.418156 0
-1.977316 0.884526 -0.189874 0
-1.312897 0.489655 -1.112571 0
-1.435420 0.197235 0.061355 0
-1.788942 1.048733 -0.734703 0
-1.086373 0.118799 -0.766573 0
-1.434063 0.896808 -0.028701 0
-1.172471 0.065863 -0.192820 0
-1.882567 1.052402 -0.392520 0
-1.098556 0.430853 -0.994210 0
-1.443337 0.492560 0.115572 0
-1.027956 0.077523 -0.546282 0
-1.968658 0.843064 -0.027001 0
-1.381931 0.597856 -1.192998 0
-1.317215 0.082610 0.032260 0
-1.843052 1.117342 -0.614189 0
-1.050233 0.194824 -0.902142 0
-1.435616 0.780037 0.079195 0
-1.038989 0.071853 -0.307785 0
-2.084147 0.990974 -0.221152 0
-1.240865 0.394362 -1.184626 0
-1.645329 0.034836 0.278078 0
-1.965349 1.047227 -0.901854 0
-0.982949 0.078321 -0.697676 0
-1.503161 0.975564 0.004089 0
-1.394211 0.779117 -1.182626 0
-1.140296 0.076821 -0.065143 0
-1.869492 1.160673 -0.465879 0
-0.941173 0.467410 -0.941508 0
-0.950068 0.063823 -0.445626 0
-2.082449 0.948556 -0.037238 0
-1.233105 0.597291 -1.208235 0
-1.357272 0.080091 0.180052 0
-1.834265 1.186745 -0.714994 0
-0.954744 0.133250 -0.852144 0
-1.433711 0.900177 0.099669 0
-0.997698 0.075397 -0.189268 0
-1.708727 0.388167 -0.558421 0
-1.861996 0.346761 -0.652445 0
-1.565661 0.340776 -0.533378 0
-2.044398 0.312177 -0.479684 0
-1.765278 0.283678 -0.769688 0
-1.407985 0.524244 -0.372961 0
-2.113373 0.389736 -0.672612 0
-1.488263 0.289187 -0.649219 0
-1.418756 0.731286 -0.323791 0
-1.432980 0.300889 -0.414785 0
-2.108481 0.500341 -0.490750 0
-1.623511 0.218995 -0.853203 0
-1.433969 0.553810 -0.247614 0
-1.403197 0.190366 -0.577364 0
-1.430418 0.860663 -0.303350 0
-1.979889 0.161309 -1.073396 0
-1.432321 0.297469 -0.271118 0
-1.790020 0.802496 -0.571112 0
-1.449626 0.170935 -0.807708 0
-1.427703 0.698511 -0.185845 0
-1.411924 0.072515 -0.438015 0
-1.476966 0.961469 -0.350835 0
-1.517422 0.341866 -0.978754 0
-1.428341 0.415780 -0.147448 0
-1.767789 0.850998 -0.718820 0
-1.350400 0.080933 -0.696143 0
-1.432960 0.857322 -0.188046 0
-1.419729 0.081054 -0.257159 0
-1.816293 0.902167 -0.473741 0
-1.352682 0.261551 -0.925024 0
-1.429516 0.597950 -0.080254 0
-1.260576 0.075330 -0.518195 0
-1.504592 0.968592 -0.240815 0
-1.387792 0.568979 -1.010210 0
-1.425744 0.218404 -0.095460 0
-1.790599 0.966011 -0.640348 0
-1.273398 0.106284 -0.826649 0
-1.426314 0.801055 -0.081410 0
-1.255439 0.075360 -0.318980 0
-1.802513 0.963781 -0.347591 0
-1.257524 0.439635 -0.993919 0
-1.420096 0.448832 -0.001466 0
-1.938042 0.879787 -0.884723 0
-1.167389 0.075673 -0.636543 0
-1.472640 0.957539 -0.132152 0
-1.338520 0.088014 -0.112595 0
-1.835081 1.035366 -0.529969 0
-1.161664 0.277709 -0.917775 0
-1.426046 0.688888 0.018045 0
-1.127984 0.075657 -0.420215 0
-1.923074 0.921189 -0.195958 0
-1.322734 0.496810 -1.116150 0
-1.424574 0.228282 0.052944 0
-1.798614 1.059168 -0.736478 0
-1.109278 0.102660 -0.775437 0
-1.440693 0.904218 -0.028381 0
-1.183690 0.069890 -0.194568 0
-1.883454 1.065830 -0.392541 0
-1.104940 0.440495 -0.995380 0
-1.443651 0.506817 0.112082 0
-1.042634 0.074171 -0.549875 0
-1.934005 0.872500 -0.034838 0
-1.376563 0.618793 -1.185824 0
-1.337141 0.075159 0.034382 0
-1.841777 1.131384 -0.613607 0
-1.059437 0.201906 -0.904679 0
-1.450447 0.781820 0.082424 0
-1.050461 0.074160 -0.309874 0
-2.060794 1.013397 -0.223205 0
-1.257357 0.393456 -1.193725 0
-1.639362 0.061353 0.269482 0
-1.944422 1.069000 -0.894399 0
-0.999948 0.069730 -0.703544 0
-1.397129 0.791516 -1.182085 0
-1.155903 0.072632 -0.065035 0
-1.883290 1.170447 -0.466502 0
-0.955290 0.463160 -0.949315 0
-0.965420 0.057064 -0.448714 0
-2.063894 0.969659 -0.041154 0
-1.224700 0.621875 -1.197124 0
-1.367220 0.086627 0.178741 0
-1.840898 1.198646 -0.715906 0
-0.965191 0.137609 -0.855464 0
-1.442310 0.906165 0.101169 0
-1.012839 0.069389 -0.190099 0
-1.733002 0.393027 -0.565944 0
-1.919128 0.329179 -0.666846 0
-1.578688 0.353493 -0.539235 0
-2.073715 0.318574 -0.487201 0
-1.804360 0.277086 -0.783294 0
-1.410268 0.543546 -0.377672 0
-2.134563 0.403112 -0.680666 0
-1.504008 0.298767 -0.655923 0
-1.410794 0.755422 -0.328474 0
-1.438649 0.320215 -0.419992 0
-2.086779 0.538227 -0.494410 0
-1.645880 0.224498 -0.863143 0
-1.435570 0.573203 -0.253043 0
-1.405109 0.216018 -0.581228 0
-1.434505 0.874955 -0.307298 0
-2.055644 0.129278 -1.106434 0
-1.428432 0.327010 -0.277707 0
-1.788808 0.823484 -0.574634 0
-1.470951 0.174476 -0.817112 0
-1.430146 0.715220 -0.190930 0
-1.426783 0.083720 -0.444208 0
-1.499703 0.966095 -0.354320 0
-1.541221 0.344176 -0.990959 0
-1.431446 0.435651 -0.153869 0
-1.773438 0.868383 -0.723217 0
-1.367993 0.087878 -0.703584 0
-1.434959 0.872722 -0.192522 0
-1.412217 0.120615 -0.265017 0
-1.807489 0.925553 -0.476998 0
-1.358879 0.281135 -0.928184 0
-1.431680 0.615961 -0.086413 0
-1.280251 0.077693 -0.525087 0
-1.543337 0.965607 -0.241249 0
-1.410761 0.570144 -1.023493 0
-1.430320 0.239849 -0.102857 0
-1.794319 0.983783 -0.644265 0
-1.292653 0.109517 -0.835571 0
-1.428430 0.816681 -0.086550 0
-1.274163 0.078896 -0.324623 0
-1.844294 0.965774 -0.351361 0
-1.278839 0.439131 -1.006441 0
-1.424356 0.466844 -0.008309 0
-1.919767 0.908994 -0.882037 0
-1.188643 0.073665 -0.644770 0
-1.496821 0.960843 -0.132273 0
-1.361757 0.086486 -0.116354 0
