ply
format ascii 1.0
element vertex 1544
property float x
property float y
property float z
property uchar label
end_header
-0.969283 1.090704 -1.344874 0
-0.971025 1.542506 -1.356728 0
-0.830851 1.195556 -1.644070 0
-1.014328 1.299712 -1.226610 0
-0.959097 1.514905 -1.588175 0
-0.889465 1.049620 -1.466331 0
-1.018030 1.484661 -1.276052 0
-0.950053 1.253702 -1.860641 0
-0.976850 1.168013 -1.259176 0
-0.965705 1.566217 -1.430718 0
-0.792296 1.158412 -1.546992 0
-1.088805 1.350884 -1.234137 0
-0.965136 1.452310 -1.733700 0
-0.965446 0.992167 -1.399491 0
-0.975081 1.548235 -1.304932 0
-0.843371 1.203725 -1.749778 0
-0.988877 1.256128 -1.204726 0
-0.955332 1.565795 -1.527698 0
-0.828471 1.062004 -1.501766 0
-1.060158 1.450117 -1.241963 0
-0.966213 1.330818 -1.896535 0
-0.971398 1.081764 -1.283179 0
-0.956936 1.586096 -1.365359 0
-0.763974 1.186372 -1.599174 0
-1.073656 1.304826 -1.198158 0
-0.957506 1.526987 -1.668811 0
-0.895900 0.983345 -1.433042 0
-0.998286 1.535462 -1.262743 0
-0.859846 1.248163 -1.834628 0
-0.984170 1.182930 -1.205366 0
-0.959039 1.599985 -1.464986 0
-0.768599 1.106070 -1.531487 0
-1.110187 1.392488 -1.210775 0
-0.964943 1.430141 -1.855114 0
-0.963849 0.980089 -1.333835 0
-0.961105 1.589785 -1.309699 0
-0.774020 1.189239 -1.709267 0
-1.016243 1.273512 -1.167897 0
-0.955158 1.584563 -1.593577 0
-0.821064 1.009588 -1.467443 0
-1.034160 1.504824 -1.225025 0
-0.932283 1.281375 -1.988155 0
-0.977094 1.094474 -1.224747 0
-0.952078 1.619452 -1.391914 0
-0.728966 1.150316 -1.574369 0
-1.132617 1.324321 -1.177924 0
-0.960880 1.520739 -1.775395 0
-0.945264 0.877992 -1.411625 0
-0.979016 1.578828 -1.262426 0
-0.794468 1.220220 -1.817755 0
-0.983940 1.219239 -1.158562 0
-0.956550 1.623985 -1.515633 0
-0.763970 1.038110 -1.517045 0
-1.087405 1.451671 -1.191738 0
-0.939848 1.394852 -1.954156 0
-0.977207 0.976691 -1.272092 0
-0.969709 1.327381 -1.434001 0
-0.968403 1.345628 -1.464821 0
-0.967310 1.273564 -1.428116 0
-0.974997 1.386988 -1.393718 0
-0.970238 1.284390 -1.529610 0
-0.972542 1.303196 -1.358311 0
-0.967259 1.410553 -1.456436 0
-0.965252 1.209671 -1.492840 0
-0.987984 1.381035 -1.341373 0
-0.965799 1.340629 -1.561174 0
-0.972043 1.227822 -1.378852 0
-0.977434 1.445964 -1.397892 0
-0.964003 1.204025 -1.588110 0
-0.987410 1.328972 -1.307108 0
-0.964281 1.423823 -1.520449 0
-0.964583 1.153024 -1.459085 0
-1.000062 1.431981 -1.336502 0
-0.974669 1.268818 -1.656237 0
-0.976168 1.246216 -1.314945 0
-0.974065 1.478208 -1.441239 0
-0.923912 1.159618 -1.547155 0
-1.021024 1.368819 -1.291387 0
-0.964356 1.392392 -1.609779 0
-0.971290 1.140172 -1.390357 0
-0.987598 1.484565 -1.353346 0
-0.949714 1.188287 -1.683755 0
-0.991631 1.289875 -1.267404 0
-0.961115 1.486536 -1.505242 0
-0.919047 1.112495 -1.489733 0
-1.032646 1.428108 -1.294670 0
-0.973960 1.309480 -1.722056 0
-0.974395 1.177277 -1.310075 0
-0.972983 1.521136 -1.396242 0
-0.861835 1.183056 -1.572211 0
-1.035324 1.335309 -1.251300 0
-0.960469 1.457666 -1.604125 0
-0.953807 1.066626 -1.427517 0
-0.997426 1.496572 -1.305622 0
-0.949947 1.207622 -1.774091 0
-0.985471 1.237721 -1.247696 0
-0.964447 1.534583 -1.468016 0
-0.853493 1.127357 -1.511056 0
-1.068386 1.398032 -1.257563 0
-0.962797 1.383668 -1.726280 0
-0.968702 1.097276 -1.332293 0
-0.971640 1.544167 -1.343356 0
-0.843256 1.194333 -1.640174 0
-1.017030 1.300034 -1.215655 0
-0.957776 1.519021 -1.566414 0
-0.900376 1.044934 -1.462065 0
-1.030261 1.482645 -1.267806 0
-0.964322 1.255625 -1.851054 0
-0.978306 1.170096 -1.248563 0
-0.964915 1.568292 -1.414670 0
-0.802062 1.157648 -1.542408 0
-1.102385 1.346084 -1.224527 0
-0.963537 1.459173 -1.705188 0
-0.967331 0.997971 -1.387626 0
-0.977378 1.549207 -1.293183 0
-0.858483 1.202016 -1.747507 0
-0.992976 1.255016 -1.194821 0
-0.958949 1.567719 -1.512782 0
-0.837088 1.061409 -1.496045 0
-1.079209 1.445188 -1.234459 0
-0.975205 1.336546 -1.876650 0
-0.970704 1.087111 -1.271686 0
-0.957381 1.587453 -1.351770 0
-0.773427 1.187675 -1.593144 0
-1.084742 1.299998 -1.187988 0
-0.958348 1.530878 -1.646131 0
-0.915777 0.963049 -1.436745 0
-1.003018 1.535681 -1.251968 0
-0.876429 1.247252 -1.832147 0
-0.979849 1.189167 -1.193491 0
-0.956863 1.601847 -1.446761 0
-0.779384 1.102494 -1.529624 0
-1.126357 1.387313 -1.200825 0
-0.960199 1.440151 -1.815035 0
-0.967638 0.981636 -1.324208 0
-0.964701 1.590499 -1.298647 0
-0.780969 1.197501 -1.693581 0
-1.015704 1.275163 -1.156575 0
-0.955800 1.586980 -1.573491 0
-0.829948 1.007053 -1.462963 0
-1.039292 1.504598 -1.213849 0
-0.952819 1.280617 -1.986519 0
-0.977862 1.096751 -1.214421 0
-0.949929 1.620708 -1.375960 0
-0.737635 1.152151 -1.568453 0
-1.135512 1.323966 -1.164908 0
-0.958998 1.526142 -1.743999 0
-0.954213 0.873793 -1.405207 0
-0.985428 1.578950 -1.252550 0
-0.806253 1.224228 -1.807278 0
-0.985712 1.219088 -1.148417 0
-0.953730 1.625583 -1.494956 0
-0.770573 1.041842 -1.509373 0
-1.107548 1.446239 -1.182588 0
-0.953346 1.398365 -1.939725 0
-0.975244 0.984208 -1.260454 0
-0.968688 1.334294 -1.413818 0
-0.967176 1.352765 -1.443333 0
-0.968381 1.279912 -1.409693 0
-0.977261 1.390508 -1.376914 0
-0.968370 1.294387 -1.504854 0
-0.975467 1.306631 -1.342821 0
-0.968310 1.415150 -1.437016 0
-0.966046 1.218627 -1.472010 0
-0.992148 1.382931 -1.326535 0
-0.963787 1.349796 -1.534757 0
-0.972406 1.234441 -1.361385 0
-0.979528 1.448943 -1.380801 0
-0.972130 1.208620 -1.570910 0
-0.991671 1.330547 -1.292878 0
-0.963386 1.429792 -1.496941 0
-0.965605 1.162076 -1.439691 0
-1.004194 1.433591 -1.321445 0
-0.978406 1.277224 -1.631505 0
-0.978580 1.249698 -1.300004 0
-0.973031 1.482232 -1.420679 0
-0.937542 1.158074 -1.537593 0
-1.031587 1.366885 -1.279121 0
-0.965988 1.398920 -1.584795 0
-0.972888 1.147132 -1.373410 0
-0.987520 1.487396 -1.335922 0
-0.959752 1.193467 -1.665607 0
-0.994726 1.291707 -1.253131 0
-0.962975 1.490073 -1.484801 0
-0.930001 1.112265 -1.478769 0
-1.036690 1.429328 -1.279451 0
-0.962341 1.328162 -1.674545 0
-0.975815 1.182116 -1.294831 0
-0.968080 1.524985 -1.374682 0
-0.881977 1.174310 -1.572161 0
-1.046719 1.332140 -1.238872 0
-0.961279 1.463034 -1.578496 0
-0.963340 1.066380 -1.415622 0
-0.997718 1.498757 -1.289299 0
-0.961577 1.213116 -1.754465 0
-0.987178 1.240495 -1.233342 0
-0.963979 1.537591 -1.446953 0
-0.870481 1.119517 -1.508147 0
-1.072316 1.398978 -1.241902 0
-0.964849 1.391670 -1.695853 0
-0.968052 1.105804 -1.315643 0
-0.967006 1.547101 -1.323905 0
-0.856964 1.194946 -1.630405 0
-1.024560 1.298174 -1.202495 0
-0.958383 1.522757 -1.542297 0
-0.913372 1.040834 -1.453972 0
-1.031969 1.484202 -1.252053 0
-0.973943 1.263487 -1.824758 0
-0.976527 1.176604 -1.233168 0
-0.957700 1.571428 -1.390770 0
-0.814779 1.156296 -1.535316 0
-1.109822 1.345047 -1.209210 0
-0.964914 1.465214 -1.675063 0
-0.964073 1.013122 -1.367782 0
-0.976812 1.550980 -1.277056 0
-0.882155 1.194387 -1.750348 0
-0.992724 1.258177 -1.180398 0
-0.957348 1.570471 -1.488928 0
-0.850202 1.057659 -1.489490 0
-1.081541 1.446411 -1.218253 0
-0.973190 1.350197 -1.830879 0
-0.978289 1.084945 -1.259781 0
-0.952929 1.589471 -1.332238 0
-0.786493 1.187480 -1.585748 0
-1.095612 1.296186 -1.173738 0
-0.956859 1.535322 -1.615716 0
-0.933517 0.950427 -1.432422 0
-1.003991 1.537019 -1.236698 0
-0.900826 1.242115 -1.833316 0
-0.982742 1.190016 -1.180187 0
-0.956169 1.603504 -1.426333 0
-0.793573 1.097711 -1.525757 0
-1.125193 1.389728 -1.183189 0
-0.958869 1.448954 -1.774225 0
-0.968067 0.990268 -1.308415 0
-0.965181 1.591712 -1.283074 0
-0.789227 1.207459 -1.672130 0
-1.022385 1.272714 -1.143136 0
-0.953923 1.589530 -1.546480 0
-0.840750 1.005560 -1.454688 0
-1.041282 1.505598 -1.198558 0
-0.963916 1.289469 -1.954921 0
-0.976881 1.102496 -1.199978 0
-0.946153 1.621999 -1.356005 0
-0.748592 1.154541 -1.559072 0
-1.115305 1.335610 -1.144874 0
-0.959468 1.530881 -1.710372 0
-0.963363 0.873222 -1.393455 0
-0.992094 1.579297 -1.239617 0
-0.823340 1.225494 -1.797582 0
-0.983850 1.222960 -1.134418 0
-0.952996 1.626881 -1.472625 0
-0.782780 1.039346 -1.503403 0
-1.107746 1.447698 -1.165730 0
-0.961120 1.405839 -1.905141 0
-0.972471 0.994942 -1.244631 0
-0.971105 1.336024 -1.399500 0
-0.969032 1.355036 -1.427887 0
-0.970425 1.282261 -1.395280 0
-0.978881 1.391785 -1.362691 0
-0.969979 1.298239 -1.487530 0
-0.978983 1.306837 -1.330420 0
-0.966865 1.418248 -1.419178 0
-0.967235 1.223252 -1.455445 0
-0.993012 1.384060 -1.312660 0
-0.969345 1.350977 -1.520148 0
-0.974348 1.236408 -1.347903 0
-0.974445 1.452359 -1.362251 0
-0.967753 1.219787 -1.545516 0
-0.994916 1.330198 -1.280657 0
-0.963593 1.432476 -1.478468 0
-0.967674 1.165877 -1.424770 0
-0.998136 1.437009 -1.304115 0
-0.978571 1.283993 -1.608107 0
-0.977564 1.252910 -1.286045 0
-0.969170 1.484835 -1.401532 0
-0.944352 1.159295 -1.524824 0
-1.030383 1.368471 -1.264572 0
-0.966017 1.403005 -1.562927 0
-0.972844 1.151788 -1.358567 0
-0.976264 1.491536 -1.315510 0
-0.964211 1.198922 -1.645965 0
-0.995939 1.292236 -1.240520 0
-0.964058 1.491428 -1.467389 0
-0.937414 1.111605 -1.468033 0
-1.023574 1.434919 -1.260294 0
-0.979973 1.323505 -1.670442 0
-0.973558 1.187027 -1.280505 0
-0.959978 1.527520 -1.354443 0
-0.895171 1.169357 -1.566992 0
-1.046758 1.332807 -1.225088 0
-0.965462 1.464312 -1.561076 0
-0.967587 1.067840 -1.402972 0
-0.992709 1.500422 -1.273371 0
-0.969585 1.216707 -1.736043 0
-0.983225 1.245003 -1.219435 0
-0.962765 1.538597 -1.428828 0
-0.882749 1.113392 -1.503251 0
-1.066015 1.401857 -1.225750 0
-0.965178 1.396851 -1.669390 0
-0.968233 1.109444 -1.302245 0
-0.956891 1.549216 -1.304585 0
-0.870549 1.190892 -1.625388 0
-1.028537 1.296165 -1.190479 0
-0.956407 1.524717 -1.519935 0
-0.922741 1.036737 -1.445828 0
-1.016187 1.488797 -1.233045 0
-0.978771 1.269906 -1.798658 0
-0.974930 1.179825 -1.220246 0
-0.945971 1.573293 -1.367378 0
-0.826052 1.152117 -1.530369 0
-1.083127 1.357780 -1.188678 0
-0.965406 1.468463 -1.649640 0
-0.967771 1.014181 -1.355624 0
-0.967716 1.552541 -1.259945 0
-0.897559 1.191088 -1.744482 0
-0.994240 1.257520 -1.168546 0
-0.952808 1.571560 -1.466424 0
-0.859563 1.054398 -1.482314 0
-1.058561 1.453812 -1.198330 0
-0.972538 1.358283 -1.796035 0
-0.975505 1.090699 -1.245999 0
-0.941131 1.590562 -1.311618 0
-0.796137 1.187154 -1.577621 0
-1.072212 1.309297 -1.155696 0
-0.960045 1.536161 -1.595793 0
-0.952688 0.930322 -1.431938 0
-0.994285 1.538719 -1.220451 0
-0.915214 1.241672 -1.822538 0
-0.978822 1.194235 -1.167344 0
-0.943543 1.604305 -1.400369 0
-0.804496 1.093004 -1.521289 0
-1.087763 1.404156 -1.161898 0
-0.975039 1.447163 -1.766170 0
-0.967775 0.995078 -1.295021 0
-0.956421 1.592218 -1.265949 0
-0.802912 1.203972 -1.668251 0
-1.018364 1.275276 -1.130077 0
-0.952627 1.589882 -1.524482 0
-0.848964 1.002669 -1.447207 0
-1.029342 1.508150 -1.182446 0
-0.970121 1.296380 -1.924062 0
-0.975439 1.105370 -1.187605 0
-0.935062 1.621929 -1.334622 0
-0.758855 1.152250 -1.553789 0
-1.053612 1.365065 -1.123283 0
-0.954842 1.534016 -1.676357 0
-0.965265 0.877990 -1.379856 0
-0.987179 1.579398 -1.224976 0
-0.838579 1.223447 -1.791421 0
-0.984925 1.221920 -1.122860 0
-0.942772 1.626672 -1.445944 0
-0.791305 1.037680 -1.496482 0
-1.069601 1.459094 -1.145591 0
-0.963291 1.411793 -1.869831 0
-0.967468 1.004205 -1.230492 0
-0.974342 1.335815 -1.386369 0
-0.972196 1.355060 -1.414220 0
-0.972486 1.283079 -1.381410 0
-0.984946 1.389609 -1.351741 0
-0.970932 1.300770 -1.470634 0
-0.984653 1.304334 -1.319434 0
-0.974449 1.415835 -1.408924 0
-0.971504 1.223405 -1.442012 0
-1.003050 1.379468 -1.303673 0
-0.971040 1.352746 -1.502993 0
-0.975625 1.237475 -1.334323 0
-0.982317 1.449636 -1.352519 0
-0.977814 1.216268 -1.535620 0
-1.002400 1.326198 -1.270397 0
-0.968040 1.431852 -1.464889 0
-0.976056 1.161737 -1.414835 0
-1.005052 1.434260 -1.293617 0
-0.981515 1.286563 -1.589381 0
-0.981719 1.250823 -1.274618 0
-0.969781 1.484824 -1.386732 0
-0.950502 1.159077 -1.511925 0
-1.039020 1.364184 -1.253994 0
-0.968833 1.403945 -1.545605 0
-0.971882 1.155715 -1.343430 0
-0.985177 1.488535 -1.306487 0
-0.965686 1.204565 -1.624242 0
-0.998246 1.290986 -1.228399 0
-0.963725 1.491939 -1.450167 0
-0.944110 1.109780 -1.456804 0
-1.041922 1.427545 -1.253376 0
-0.984373 1.325285 -1.651275 0
-0.973239 1.188803 -1.267190 0
-0.961581 1.526730 -1.341407 0
-0.903725 1.167490 -1.556561 0
-1.057029 1.326975 -1.214391 0
-0.963401 1.466321 -1.538956 0
-0.968594 1.071250 -1.388102 0
-0.999189 1.498058 -1.262950 0
-0.971704 1.222682 -1.711429 0
-0.982920 1.245549 -1.206833 0
-0.959596 1.538941 -1.410658 0
-0.896501 1.103305 -1.499863 0
-1.077724 1.396507 -1.215104 0
-0.977192 1.394063 -1.659569 0
-0.968597 1.111381 -1.288904 0
-0.959501 1.547983 -1.292940 0
-0.879302 1.190000 -1.614147 0
-1.034397 1.292102 -1.178815 0
-0.960769 1.523756 -1.505450 0
-0.939706 1.020391 -1.443868 0
-1.026470 1.485117 -1.223317 0
-0.976065 1.279040 -1.764381 0
-0.980680 1.175025 -1.209572 0
-0.944426 1.572714 -1.352307 0
-0.836458 1.146873 -1.524544 0
-1.088753 1.354437 -1.175943 0
-0.965887 1.469906 -1.626650 0
-0.967027 1.019182 -1.340616 0
-0.975049 1.550305 -1.250470 0
-0.903733 1.194950 -1.724981 0
-0.998330 1.254041 -1.157089 0
-0.956234 1.570332 -1.452479 0
-0.869091 1.048631 -1.475278 0
-1.067510 1.450052 -1.186992 0
-0.985164 1.356154 -1.783828 0
-0.972444 1.095412 -1.232033 0
-0.946115 1.588950 -1.301442 0
-0.800937 1.191010 -1.562742 0
-1.057530 1.316768 -1.139969 0
-0.958602 1.536589 -1.572876 0
-0.964027 0.920259 -1.424366 0
-1.010020 1.534564 -1.212821 0
-0.927842 1.240037 -1.810496 0
-0.976553 1.195989 -1.154813 0
-0.940276 1.603430 -1.383190 0
-0.813847 1.088481 -1.514798 0
-1.084924 1.404329 -1.147740 0
-0.965100 1.453652 -1.723634 0
-0.967371 0.998426 -1.281318 0
-0.964458 1.590237 -1.257063 0
-0.813263 1.202249 -1.659289 0
-1.015044 1.276613 -1.117188 0
-0.953598 1.588826 -1.506715 0
-0.859333 0.993830 -1.441715 0
-1.049660 1.502131 -1.174078 0
-0.983949 1.294856 -1.909796 0
-0.972099 1.109175 -1.174515 0
-0.937125 1.620501 -1.322654 0
-0.767837 1.149447 -1.546995 0
-1.031626 1.374677 -1.108132 0
-0.959611 1.533302 -1.657524 0
-0.965893 0.882715 -1.365097 0
-0.999526 1.576707 -1.216617 0
-0.853667 1.218689 -1.786523 0
-0.983126 1.222463 -1.110721 0
-0.940287 1.625285 -1.427833 0
-0.801154 1.030851 -1.491511 0
-1.063881 1.459816 -1.131603 0
-0.974503 1.410850 -1.853191 0
-0.963315 1.010950 -1.216444 0
-0.973517 1.338149 -1.369924 0
-0.972628 1.356746 -1.397910 0
-0.973168 1.284878 -1.366078 0
-0.984632 1.390650 -1.336304 0
-0.970134 1.304580 -1.451759 0
-0.985789 1.304800 -1.305386 0
-0.972505 1.417892 -1.391080 0
-0.970663 1.227912 -1.424040 0
-1.002648 1.380089 -1.288880 0
-0.968308 1.357240 -1.481284 0
-0.975370 1.239651 -1.319413 0
-0.977211 1.451954 -1.334393 0
-0.980617 1.219150 -1.517832 0
-1.004187 1.325522 -1.256998 0
-0.966438 1.433978 -1.445507 0
-0.973298 1.168306 -1.396293 0
-1.007794 1.433130 -1.280342 0
-0.983479 1.290004 -1.568905 0
-0.982166 1.251436 -1.260978 0
-0.963140 1.487229 -1.366536 0
-0.954045 1.161645 -1.495850 0
-1.032843 1.367128 -1.237414 0
-0.968085 1.406802 -1.524003 0
-0.971924 1.158390 -1.328546 0
-0.977614 1.490595 -1.288567 0
-0.971249 1.206719 -1.606635 0
-0.999825 1.289997 -1.215394 0
-0.963502 1.492533 -1.432369 0
-0.950545 1.108280 -1.444682 0
-1.032928 1.430557 -1.235873 0
-0.975942 1.335290 -1.616580 0
-0.972032 1.191081 -1.253107 0
-0.953378 1.528378 -1.322052 0
-0.913607 1.164539 -1.546692 0
-1.051088 1.329768 -1.198420 0
-0.963251 1.467789 -1.518140 0
-0.974796 1.068329 -1.376306 0
-0.991269 1.499691 -1.246108 0
-0.981083 1.222793 -1.695525 0
-0.982777 1.245650 -1.193779 0
-0.950999 1.540564 -1.388115 0
-0.904672 1.100786 -1.489536 0
-1.061031 1.402679 -1.196173 0
-0.971086 1.400614 -1.626813 0
-0.967225 1.114790 -1.274411 0
-0.959670 1.547265 -1.279360 0
-0.889511 1.188023 -1.603792 0
-1.031668 1.293149 -1.164507 0
-0.958462 1.524608 -1.483903 0
-0.952839 1.009371 -1.437545 0
-1.027883 1.483897 -1.209880 0
-0.983809 1.280784 -1.744309 0
-0.980704 1.175156 -1.196532 0
-0.937393 1.573058 -1.333278 0
-0.848585 1.139861 -1.519866 0
-1.060482 1.366898 -1.156137 0
-0.964163 1.472339 -1.600401 0
-0.970769 1.017954 -1.327927 0
-0.970552 1.550290 -1.235582 0
-0.912408 1.196687 -1.708382 0
-0.996592 1.254547 -1.143846 0
-0.948559 1.570932 -1.428656 0
-0.878368 1.043468 -1.467244 0
-1.051895 1.454196 -1.169474 0
-0.978864 1.365091 -1.743409 0
-0.972022 1.096630 -1.218717 0
-0.940309 1.588658 -1.284908 0
-0.811120 1.187876 -1.555545 0
-1.022256 1.335568 -1.121490 0
-0.955720 1.537510 -1.547798 0
-0.966740 0.922687 -1.409693 0
-1.006899 1.534205 -1.198574 0
-0.948728 1.231951 -1.809783 0
-0.976831 1.194961 -1.142321 0
-0.930940 1.603195 -1.361333 0
-0.824625 1.082146 -1.509388 0
-1.044075 1.419305 -1.127803 0
-0.979203 1.451008 -1.713258 0
-0.975077 0.990423 -1.270947 0
-0.962981 1.589305 -1.243371 0
-0.822570 1.202730 -1.647117 0
-1.001733 1.284393 -1.102806 0
-0.952224 1.588173 -1.485918 0
-0.872014 0.981204 -1.437806 0
-1.038345 1.503812 -1.158109 0
-0.980693 1.305557 -1.865476 0
-0.968844 1.112249 -1.161144 0
-0.932893 1.619456 -1.306361 0
-0.777584 1.146116 -1.540518 0
-1.001818 1.387867 -1.092538 0
-0.960455 1.533715 -1.632676 0
-0.964227 0.890212 -1.348810 0
-0.998284 1.575703 -1.203059 0
-0.868947 1.214902 -1.779519 0
-0.980501 1.223187 -1.097989 0
-0.935908 1.624084 -1.407631 0
-0.809014 1.028171 -1.483225 0
-1.033214 1.468213 -1.114250 0
-0.971752 1.416834 -1.812888 0
-0.966578 1.007212 -1.204574 0
-0.974429 1.342305 -1.354796 0
-0.970035 1.363070 -1.379722 0
-0.974197 1.289481 -1.351186 0
-0.986924 1.393099 -1.322430 0
-0.968560 1.312054 -1.432555 0
-0.986781 1.308226 -1.291505 0
-0.974854 1.420747 -1.376282 0
-0.971594 1.234285 -1.407698 0
-1.007743 1.380606 -1.276650 0
-0.966959 1.363963 -1.461126 0
-0.977048 1.243371 -1.305876 0
-0.977667 1.454687 -1.319605 0
-0.981870 1.226963 -1.498745 0
-1.007326 1.326744 -1.244321 0
-0.966606 1.438171 -1.427720 0
-0.974751 1.174373 -1.381098 0
-1.001436 1.438110 -1.263338 0
-0.971198 1.306689 -1.534562 0
-0.984088 1.253840 -1.248317 0
-0.956659 1.492098 -1.346845 0
-0.960979 1.164700 -1.482838 0
-1.037112 1.367458 -1.224630 0
-0.968101 1.412341 -1.503373 0
-0.973439 1.163093 -1.314917 0
-0.978960 1.492309 -1.275028 0
-0.976351 1.213206 -1.588357 0
-1.004285 1.289770 -1.203571 0
-0.963862 1.495657 -1.415083 0
-0.959765 1.107803 -1.434696 0
-1.036231 1.431304 -1.222712 0
-0.978390 1.341893 -1.594866 0
-0.974598 1.193059 -1.241062 0
-0.952760 1.530555 -1.307196 0
-0.928653 1.160247 -1.541791 0
-1.047807 1.333695 -1.183696 0
-0.963420 1.472083 -1.497806 0
-0.976248 1.074993 -1.361702 0
-0.994521 1.500488 -1.233595 0
-0.975965 1.238896 -1.661292 0
-0.987223 1.244927 -1.182444 0
-0.943362 1.544473 -1.366729 0
-0.915620 1.099216 -1.481510 0
-1.055478 1.406690 -1.180696 0
-0.975188 1.405412 -1.606450 0
-0.968410 1.118991 -1.261708 0
-0.954390 1.549881 -1.263240 0
-0.911212 1.177894 -1.607360 0
-1.027515 1.297675 -1.150526 0
-0.959326 1.527470 -1.465362 0
-0.967040 1.001899 -1.431627 0
-1.020523 1.487501 -1.194086 0
-0.974032 1.298750 -1.700949 0
-0.980475 1.178596 -1.184083 0
-0.935195 1.574989 -1.317365 0
-0.863429 1.133850 -1.517348 0
-1.044633 1.375869 -1.139802 0
-0.963429 1.477531 -1.575714 0
-0.971444 1.024862 -1.314065 0
-0.975858 1.550587 -1.224226 0
-0.932611 1.191167 -1.707841 0
-0.993462 1.258716 -1.131033 0
-0.945478 1.573421 -1.408868 0
-0.890866 1.038480 -1.461862 0
-1.047899 1.456784 -1.154865 0
-0.967567 1.380106 -1.697789 0
-0.972762 1.100081 -1.206554 0
-0.942155 1.589663 -1.272176 0
-0.823216 1.186537 -1.549914 0
-0.996951 1.351076 -1.105958 0
-0.954748 1.540935 -1.525082 0
-0.970719 0.928322 -1.396337 0
-1.010526 1.534612 -1.186114 0
-0.965473 1.232277 -1.800525 0
-0.976914 1.196955 -1.130495 0
-0.927543 1.604814 -1.343801 0
-0.836381 1.079332 -1.504082 0
-1.026240 1.427396 -1.112382 0
-0.965479 1.462417 -1.666715 0
-0.973032 0.999504 -1.256974 0
-0.970999 1.589455 -1.233098 0
-0.833464 1.205487 -1.636481 0
-0.990665 1.293059 -1.089704 0
-0.947667 1.590640 -1.462497 0
-0.884533 0.974420 -1.433011 0
-1.035212 1.505607 -1.143994 0
-0.972408 1.323205 -1.814947 0
-0.966446 1.117675 -1.148939 0
-0.935974 1.620262 -1.294002 0
-0.789387 1.144241 -1.535850 0
-0.997048 1.390968 -1.079907 0
-0.960131 1.537547 -1.606823 0
-0.964876 0.899204 -1.334737 0
-1.001584 1.576224 -1.190616 0
-0.886270 1.213679 -1.774325 0
-0.983294 1.221988 -1.086470 0
-0.929576 1.625479 -1.386185 0
-0.819052 1.026905 -1.476797 0
-1.012293 1.475630 -1.099153 0
-0.977457 1.422590 -1.786453 0
-0.966322 1.012069 -1.192505 0
-0.978180 1.345247 -1.340921 0
-0.971357 1.367527 -1.363894 0
-0.977528 1.293050 -1.337086 0
-0.985650 1.397792 -1.306386 0
-0.965883 1.320564 -1.412224 0
-0.986253 1.313325 -1.276467 0
-0.970714 1.426833 -1.357119 0
-0.967842 1.245051 -1.387439 0
-1.006193 1.385045 -1.261233 0
-0.965776 1.370762 -1.440943 0
-0.977888 1.248543 -1.291267 0
-0.972616 1.459888 -1.301876 0
-0.967740 1.247638 -1.465849 0
-1.011762 1.327965 -1.231572 0
-0.964554 1.443479 -1.408194 0
-0.972458 1.184709 -1.362671 0
-1.004905 1.439756 -1.250263 0
-0.968350 1.316775 -1.509766 0
-0.982845 1.259542 -1.233876 0
-0.958073 1.494727 -1.332196 0
-0.967171 1.169240 -1.467891 0
-1.038008 1.370208 -1.210397 0
-0.963987 1.419847 -1.479003 0
-0.975647 1.168088 -1.300792 0
-0.976487 1.495628 -1.259785 0
-0.968997 1.230523 -1.556191 0
-1.008853 1.290386 -1.191151 0
-0.959181 1.500467 -1.394203 0
-0.962982 1.115024 -1.418557 0
-1.030437 1.436167 -1.206646 0
-0.967068 1.356604 -1.558414 0
-0.976845 1.196368 -1.228129 0
-0.949481 1.533690 -1.291081 0
-0.940191 1.160708 -1.531106 0
-1.044399 1.338523 -1.168750 0
-0.959817 1.477704 -1.474206 0
-0.972827 1.088235 -1.343115 0
-0.990620 1.503805 -1.218553 0
-0.980455 1.246982 -1.638571 0
-0.992321 1.244735 -1.170564 0
-0.937144 1.548230 -1.346872 0
-0.925712 1.099921 -1.470800 0
-1.045943 1.413067 -1.164449 0
-0.965480 1.416609 -1.570959 0
-0.970368 1.123553 -1.248431 0
-0.957208 1.551292 -1.250909 0
-0.928150 1.174080 -1.602093 0
-1.016606 1.307365 -1.135247 0
-0.954521 1.531734 -1.442263 0
-0.966153 1.015636 -1.412295 0
-1.021561 1.489304 -1.180619 0
-0.975398 1.308409 -1.672677 0
-0.977334 1.185854 -1.170300 0
-0.935478 1.576810 -1.303144 0
-0.879434 1.127765 -1.513801 0
-1.028899 1.385576 -1.123905 0
-0.961915 1.482814 -1.550519 0
-0.966632 1.039906 -1.296300 0
-0.983032 1.551056 -1.213331 0
-0.945345 1.193792 -1.694092 0
-0.987004 1.266388 -1.117457 0
-0.937542 1.576728 -1.385968 0
-0.906178 1.031155 -1.456957 0
-1.037491 1.462207 -1.139287 0
-0.967114 1.388654 -1.667451 0
-0.976849 1.101206 -1.194523 0
-0.945457 1.590860 -1.260209 0
-0.838466 1.182188 -1.546509 0
-0.991053 1.356481 -1.092877 0
-0.952489 1.544541 -1.501542 0
-0.975125 0.934954 -1.381638 0
-1.010094 1.536464 -1.172606 0
-0.970110 1.242814 -1.771248 0
-0.973327 1.203410 -1.117602 0
-0.923625 1.606669 -1.326425 0
-0.849281 1.076357 -1.497848 0
-1.010234 1.435541 -1.097730 0
-0.972444 1.465659 -1.647153 0
-0.964759 1.018089 -1.239576 0
-0.977906 1.590206 -1.222242 0
-0.852627 1.198969 -1.636948 0
-0.977850 1.303915 -1.076602 0
-0.938702 1.593590 -1.436069 0
-0.901819 0.962048 -1.430169 0
-1.019444 1.511231 -1.128153 0
-0.971792 1.334929 -1.777422 0
-0.965351 1.123044 -1.136353 0
-0.941359 1.621258 -1.282926 0
-0.802765 1.141329 -1.531125 0
-0.999672 1.391366 -1.067550 0
-0.956278 1.541899 -1.577589 0
-0.966471 0.908511 -1.319751 0
-0.999304 1.578035 -1.176795 0
-0.908812 1.207749 -1.775233 0
-0.986196 1.221906 -1.074368 0
-0.924675 1.626928 -1.366537 0
-0.829228 1.027269 -1.468218 0
-1.003096 1.480105 -1.085698 0
-0.967550 1.434592 -1.737951 0
-0.965335 1.019487 -1.179275 0
-0.973122 1.350826 -1.322123 0
-0.968030 1.371987 -1.345417 0
-0.972366 1.299780 -1.318316 0
-0.985136 1.399650 -1.290866 0
-0.964673 1.325215 -1.393558 0
-0.988711 1.313807 -1.262721 0
-0.964981 1.431146 -1.337488 0
-0.967339 1.250005 -1.369948 0
-1.004287 1.387188 -1.245721 0
-0.964373 1.374946 -1.421186 0
-0.972484 1.255717 -1.273796 0
-0.969343 1.462116 -1.285383 0
-0.966147 1.254640 -1.444918 0
-1.014388 1.327702 -1.217897 0
-0.961455 1.446742 -1.388439 0
-0.969424 1.192346 -1.344234 0
-0.997022 1.443520 -1.232910 0
-0.966617 1.323017 -1.487006 0
-0.982853 1.261468 -1.219802 0
-0.945797 1.499405 -1.309948 0
-0.959361 1.183808 -1.441724 0
-1.035170 1.372310 -1.194946 0
-0.963713 1.422905 -1.458818 0
-0.969868 1.177425 -1.282791 0
-0.973086 1.497059 -1.244315 0
-0.969288 1.237725 -1.533352 0
-1.010663 1.290209 -1.177592 0
-0.948495 1.504737 -1.369827 0
-0.969228 1.115287 -1.404974 0
-1.023327 1.439196 -1.190355 0
-0.965420 1.362446 -1.533618 0
-0.974740 1.200541 -1.213471 0
-0.944370 1.535166 -1.274357 0
-0.945993 1.163748 -1.514796 0
-1.034446 1.344338 -1.152421 0
-0.956976 1.480565 -1.452086 0
-0.972600 1.094034 -1.326778 0
-0.990655 1.503914 -1.204842 0
-0.970046 1.263194 -1.600065 0
-0.989691 1.247790 -1.156485 0
-0.929075 1.550245 -1.326475 0
-0.934085 1.099082 -1.458670 0
-1.032387 1.418716 -1.147648 0
-0.965416 1.420376 -1.547231 0
-0.966606 1.130732 -1.232775 0
-0.955862 1.551511 -1.236817 0
-0.938353 1.174070 -1.588674 0
-1.001653 1.316984 -1.119519 0
-0.947438 1.534216 -1.418147 0
-0.970209 1.018668 -1.397121 0
-1.014274 1.491339 -1.165118 0
-0.968095 1.320441 -1.635403 0
-0.980823 1.183958 -1.157781 0
-0.929703 1.577536 -1.285847 0
-0.892183 1.122601 -1.506433 0
-1.003036 1.397674 -1.107201 0
-0.959308 1.485874 -1.525184 0
-0.968972 1.042040 -1.282298 0
-0.986094 1.550288 -1.200808 0
-0.951284 1.199414 -1.671856 0
-0.978545 1.272865 -1.103508 0
-0.927551 1.578207 -1.362450 0
-0.913419 1.031514 -1.444434 0
-1.016038 1.469025 -1.122371 0
-0.967419 1.393724 -1.639536 0
-0.973116 1.107404 -1.179890 0
-0.947306 1.590285 -1.247517 0
-0.852274 1.176663 -1.541153 0
-0.986873 1.358580 -1.079749 0
-0.949334 1.545981 -1.477975 0
-0.968863 0.952032 -1.360278 0
-1.007050 1.536806 -1.158436 0
-0.972892 1.251057 -1.741101 0
-0.969985 1.206722 -1.104418 0
-0.919219 1.606595 -1.309181 0
-0.859537 1.073670 -1.488757 0
-1.003208 1.437969 -1.084063 0
-0.963596 1.471869 -1.609717 0
-0.970814 1.014094 -1.227693 0
-0.980825 1.589436 -1.209755 0
-0.871376 1.190164 -1.636394 0
-0.979727 1.302238 -1.064049 0
-0.933380 1.593965 -1.413638 0
-0.919075 0.945733 -1.426880 0
-1.007132 1.513923 -1.113209 0
-0.971829 1.342681 -1.743111 0
-0.961755 1.127771 -1.122946 0
-0.942465 1.620544 -1.269617 0
-0.812841 1.140069 -1.522022 0
-1.087690 1.347965 -1.055814 0
-0.955755 1.543054 -1.553117 0
-0.959218 0.926211 -1.300184 0
-0.995799 1.578028 -1.162712 0
-0.925007 1.205238 -1.765274 0
-1.025409 1.188762 -1.062543 0
-0.919269 1.626403 -1.347118 0
-0.838957 1.024161 -1.459646 0
-1.006075 1.478711 -1.072916 0
-0.965784 1.439887 -1.703463 0
-0.966648 1.020000 -1.166256 0
-0.979040 1.348377 -1.309039 0
-0.973764 1.369904 -1.332064 0
-0.978222 1.297249 -1.305173 0
-0.985578 1.399618 -1.275457 0
-0.969628 1.324225 -1.378856 0
-0.988809 1.314335 -1.247461 0
-0.963278 1.432235 -1.320209 0
-0.968194 1.252178 -1.352972 0
-1.003662 1.387286 -1.230343 0
-0.962627 1.377716 -1.401029 0
-0.976986 1.253496 -1.260416 0
-0.968390 1.462120 -1.269850 0
-0.965190 1.259330 -1.424324 0
-1.016941 1.326024 -1.203560 0
-0.958159 1.448584 -1.368526 0
-0.968183 1.196531 -1.326577 0
-1.003618 1.440310 -1.220408 0
-0.966133 1.326672 -1.465261 0
-0.984111 1.260918 -1.205590 0
-0.951152 1.497246 -1.297592 0
-0.968897 1.179836 -1.429423 0
-1.026453 1.375872 -1.177721 0
-0.962386 1.424842 -1.437605 0
-0.974251 1.175342 -1.269169 0
-0.974073 1.495885 -1.230383 0
-0.965306 1.246482 -1.506290 0
-1.007642 1.291778 -1.162307 0
-0.945819 1.505183 -1.351191 0
-0.968566 1.121090 -1.385761 0
-1.019490 1.439655 -1.174772 0
-0.970735 1.362504 -1.515491 0
-0.979326 1.197093 -1.200393 0
-0.946800 1.533587 -1.261185 0
-0.954907 1.161781 -1.500795 0
-1.015221 1.353767 -1.134477 0
-0.960514 1.479687 -1.435166 0
-0.972176 1.098082 -1.309814 0
-0.999497 1.500325 -1.193320 0
-0.976259 1.264386 -1.580449 0
-0.986717 1.249596 -1.141846 0
-0.929516 1.549148 -1.311426 0
-0.941468 1.097606 -1.444761 0
-1.022982 1.421360 -1.131658 0
-0.962800 1.423571 -1.520911 0
-0.972144 1.126313 -1.219973 0
-0.958491 1.549707 -1.224068 0
-0.941355 1.179550 -1.566122 0
-0.981941 1.328225 -1.103371 0
-0.945835 1.533924 -1.398520 0
-0.970424 1.024421 -1.378601 0
-1.016798 1.489304 -1.151523 0
-0.972413 1.322718 -1.612318 0
-0.976710 1.187411 -1.142930 0
-0.929757 1.576125 -1.271647 0
-0.905943 1.114651 -1.498861 0
-0.992471 1.401325 -1.092579 0
-0.958463 1.486688 -1.501651 0
-0.967346 1.046999 -1.265742 0
-0.989505 1.548207 -1.187991 0
-0.960449 1.200019 -1.653207 0
-0.972290 1.276291 -1.089517 0
-0.926234 1.577034 -1.345261 0
-0.930139 1.016708 -1.439337 0
-1.007804 1.470315 -1.107568 0
-0.966260 1.397629 -1.609960 0
-0.970629 1.110401 -1.165016 0
-0.950775 1.588266 -1.235224 0
-0.872352 1.162141 -1.542279 0
-1.028930 1.333284 -1.068068 0
-0.950279 1.545003 -1.458129 0
-0.967564 0.959573 -1.341762 0
-1.005436 1.535637 -1.144381 0
-0.973349 1.258883 -1.707836 0
-0.974791 1.201206 -1.091417 0
-0.917869 1.604972 -1.293814 0
-0.871493 1.066805 -1.480541 0
-1.016900 1.431011 -1.071206 0
-0.965182 1.472520 -1.584774 0
-0.963142 1.025597 -1.210087 0
-0.984903 1.587284 -1.197278 0
-0.890612 1.179671 -1.634359 0
-1.158601 1.177728 -1.052238 0
-0.933056 1.592339 -1.395321 0
-0.936401 0.927557 -1.421958 0
-0.997145 1.514888 -1.098721 0
-0.970684 1.348967 -1.707548 0
-0.963341 1.125193 -1.109610 0
-0.943971 1.618527 -1.256306 0
-0.825181 1.133984 -1.515035 0
-0.957071 1.542148 -1.530501 0
-0.965675 0.920914 -1.287161 0
-0.998278 1.576045 -1.149755 0
-0.938449 1.203738 -1.749296 0
-0.913753 1.624559 -1.327878 0
-0.849163 1.018466 -1.450649 0
-1.082824 1.452793 -1.061395 0
-0.964761 1.442875 -1.670369 0
-0.959963 1.028679 -1.150592 0
-0.980771 1.347892 -1.293097 0
-0.979458 1.367081 -1.318132 0
-0.979935 1.297242 -1.288764 0
-0.991181 1.396789 -1.262172 0
-0.970415 1.324846 -1.360650 0
-0.993163 1.312240 -1.232951 0
-0.970077 1.428802 -1.307900 0
-0.974098 1.249625 -1.337700 0
-1.012719 1.382800 -1.217950 0
-0.966946 1.375710 -1.385314 0
-0.978040 1.254157 -1.244067 0
-0.977525 1.457975 -1.259152 0
-0.967685 1.259867 -1.405401 0
-1.018122 1.325707 -1.188052 0
-0.964431 1.445287 -1.355572 0
-0.973397 1.194565 -1.310700 0
-1.013790 1.435858 -1.208897 0
-0.971994 1.324281 -1.448618 0
-0.989892 1.257606 -1.191316 0
-0.954796 1.494914 -1.284872 0
-0.968763 1.183911 -1.407508 0
-1.028055 1.375060 -1.162884 0
-0.963622 1.423831 -1.419173 0
-0.972776 1.179203 -1.250841 0
-0.981082 1.492816 -1.219152 0
-0.975779 1.241268 -1.491851 0
-1.002310 1.295855 -1.145765 0
-0.947603 1.503157 -1.336568 0
-0.976019 1.117755 -1.369533 0
-1.026949 1.436415 -1.162000 0
-0.968654 1.364431 -1.490653 0
-0.978325 1.199590 -1.183693 0
-0.953919 1.530456 -1.250922 0
-0.956968 1.164981 -1.478114 0
-0.992980 1.365865 -1.116634 0
-0.960321 1.478329 -1.416323 0
-0.975374 1.098509 -1.292027 0
-1.000428 1.499193 -1.180013 0
-0.985180 1.260764 -1.562828 0
-0.982798 1.253397 -1.125867 0
-0.933965 1.546323 -1.299888 0
-0.955985 1.086906 -1.433489 0
-1.007962 1.427249 -1.115459 0
-0.965723 1.421751 -1.501164 0
-0.971991 1.128997 -1.202601 0
-0.967260 1.546576 -1.214384 0
-0.950712 1.176080 -1.548911 0
-0.964707 1.339211 -1.087720 0
-0.947578 1.531352 -1.382968 0
-0.977209 1.022032 -1.360963 0
-1.016852 1.488654 -1.137971 0
-0.980301 1.319503 -1.593376 0
-0.973626 1.191436 -1.126614 0
-0.932076 1.573812 -1.259912 0
-0.916450 1.109323 -1.484363 0
-0.998036 1.398593 -1.079349 0
-0.963656 1.483218 -1.485345 0
-0.974888 1.041919 -1.249954 0
-0.994549 1.546087 -1.176473 0
-0.963488 1.202874 -1.625783 0
-0.980422 1.270612 -1.075555 0
-0.922729 1.575092 -1.328455 0
-0.947845 1.000552 -1.430147 0
-0.997673 1.473249 -1.093379 0
-0.976182 1.392693 -1.594253 0
-0.973135 1.109723 -1.148819 0
-0.956627 1.585747 -1.225066 0
-0.883656 1.156401 -1.528924 0
-1.109824 1.287776 -1.054136 0
-0.950947 1.542174 -1.439966 0
-0.971852 0.960210 -1.322594 0
-1.004664 1.534963 -1.131460 0
-0.979386 1.258264 -1.682410 0
-0.990109 1.188256 -1.077075 0
-0.919955 1.602313 -1.282086 0
-0.883471 1.058977 -1.468158 0
-1.016287 1.431088 -1.057482 0
-0.968667 1.469552 -1.563793 0
-0.966859 1.024382 -1.193145 0
-0.985715 1.585686 -1.185086 0
-0.901580 1.175501 -1.617787 0
-0.929665 1.589654 -1.376862 0
-0.954269 0.909446 -1.411631 0
-0.996754 1.514482 -1.086145 0
-0.976678 1.346842 -1.683106 0
-0.967172 1.122397 -1.094066 0
-0.946333 1.616104 -1.245014 0
-0.839697 1.123023 -1.507181 0
-0.956346 1.539252 -1.508229 0
-0.966806 0.925396 -1.267028 0
-0.996515 1.575205 -1.137164 0
-0.946241 1.203328 -1.723711 0
-0.910794 1.621682 -1.312605 0
-0.865090 1.002989 -1.442859 0
-1.211863 1.411960 -1.046635 0
-0.969433 1.439788 -1.646930 0
-0.968879 1.019868 -1.135010 0
-0.983501 1.343172 -1.286984 0
-0.977883 1.364858 -1.309715 0
-0.982484 1.292430 -1.282443 0
-0.990098 1.394040 -1.254607 0
-0.976478 1.318046 -1.356370 0
-0.992305 1.309537 -1.225437 0
-0.973688 1.423988 -1.302532 0
-0.972983 1.247726 -1.329025 0
-1.011508 1.380011 -1.210486 0
-0.970370 1.370863 -1.379414 0
-0.980609 1.248972 -1.237733 0
-0.977232 1.454752 -1.252240 0
-0.967234 1.257715 -1.396340 0
-1.013320 1.325105 -1.179646 0
-0.965621 1.441544 -1.348632 0
-0.971573 1.193363 -1.301825 0
-1.012475 1.432942 -1.201641 0
-0.970072 1.322877 -1.437844 0
-0.987781 1.255799 -1.183576 0
-0.953487 1.491967 -1.277518 0
-0.975390 1.175363 -1.403360 0
-1.022512 1.374304 -1.154735 0
-0.968676 1.418389 -1.414409 0
-0.972125 1.176633 -1.243043 0
-0.989253 1.486950 -1.215441 0
-0.978932 1.236546 -1.484553 0
-0.993575 1.298165 -1.137189 0
-0.944481 1.500683 -1.327478 0
-0.973314 1.118106 -1.359125 0
-1.022120 1.434791 -1.154239 0
-0.972239 1.359619 -1.484011 0
-0.982479 1.192363 -1.177552 0
-0.953385 1.527158 -1.244400 0
-0.962859 1.157316 -1.473440 0
-0.985737 1.366379 -1.109121 0
-0.959967 1.475023 -1.407648 0
-0.975789 1.094997 -1.284162 0
-1.003136 1.495015 -1.174299 0
-0.980293 1.262377 -1.546631 0
-0.978555 1.253067 -1.118297 0
-0.931912 1.543265 -1.292201 0
-0.959194 1.081286 -1.426671 0
-1.003784 1.425579 -1.108440 0
-0.968960 1.417162 -1.494207 0
-0.978429 1.118668 -1.197083 0
-0.967941 1.542988 -1.208519 0
-0.951327 1.174151 -1.538474 0
-0.976968 1.328031 -1.082206 0
-0.945805 1.528137 -1.373974 0
-0.975475 1.021582 -1.351051 0
-1.010563 1.487068 -1.130546 0
-0.976674 1.319500 -1.577654 0
-0.970095 1.190866 -1.118990 0
-0.931974 1.570305 -1.253798 0
-0.920205 1.103627 -1.478146 0
-1.002655 1.392987 -1.073081 0
-0.961260 1.480480 -1.473674 0
-0.971165 1.042951 -1.240504 0
-0.993439 1.542839 -1.170069 0
-0.964870 1.200405 -1.614771 0
-0.998043 1.253679 -1.069490 0
-0.920073 1.571834 -1.320039 0
-0.960872 0.980906 -1.431150 0
-0.998647 1.469623 -1.087255 0
-0.985834 1.384902 -1.592893 0
-0.970989 1.108039 -1.140980 0
-0.957432 1.582089 -1.219414 0
-0.890077 1.148156 -1.525792 0
-0.946809 1.539230 -1.427958 0
-0.972167 0.956717 -1.314137 0
-1.003072 1.531915 -1.125116 0
-0.983398 1.253588 -1.673550 0
-1.029291 1.149032 -1.071587 0
-0.920151 1.598615 -1.276068 0
-0.890422 1.048200 -1.465696 0
-1.178515 1.363070 -1.052364 0
-0.969659 1.465680 -1.553743 0
-0.968072 1.018805 -1.185750 0
-0.986311 1.582081 -1.179288 0
-0.903283 1.173385 -1.607427 0
-0.925358 1.586246 -1.366322 0
-0.961873 0.895612 -1.407917 0
-0.998864 1.510687 -1.080269 0
-0.987223 1.338175 -1.682482 0
-0.985103 1.098822 -1.088248 0
-0.947030 1.612354 -1.239378 0
-0.847830 1.111404 -1.507154 0
-0.956258 1.535281 -1.498273 0
-0.973131 0.912311 -1.261458 0
-0.992376 1.572357 -1.130596 0
-0.951444 1.197957 -1.716015 0
-0.911683 1.617766 -1.306770 0
-0.867540 0.998210 -1.436190 0
-0.982739 1.430959 -1.649949 0
-0.964836 1.020468 -1.126627 0
-0.984773 1.339360 -1.280170 0
-0.978247 1.361707 -1.302334 0
-0.979180 1.291692 -1.273588 0
-0.989464 1.391063 -1.247135 0
-0.976788 1.315233 -1.348545 0
-0.992132 1.306233 -1.218315 0
-0.966430 1.424117 -1.291370 0
-0.973443 1.244696 -1.321637 0
-1.009072 1.377665 -1.202601 0
-0.972935 1.366838 -1.372820 0
-0.977391 1.248159 -1.229520 0
-0.977977 1.451147 -1.245454 0
-0.969757 1.253564 -1.389750 0
-1.008607 1.324183 -1.171450 0
-0.961402 1.440336 -1.338119 0
-0.971706 1.190369 -1.294532 0
-1.009788 1.430402 -1.193784 0
-0.970916 1.320196 -1.429455 0
-0.988942 1.251176 -1.177025 0
-0.954644 1.488356 -1.270967 0
-0.974914 1.173769 -1.394612 0
-1.018074 1.372688 -1.146840 0
-0.963487 1.418105 -1.401754 0
-0.971720 1.173613 -1.235920 0
-0.982741 1.485425 -1.206419 0
-0.984301 1.230611 -1.479500 0
-0.993709 1.294139 -1.130441 0
-0.944915 1.497413 -1.320152 0
-0.972379 1.116670 -1.350702 0
-1.017315 1.432869 -1.146330 0
-0.973874 1.356586 -1.475571 0
-0.978544 1.191946 -1.169761 0
-0.956701 1.522941 -1.238941 0
-0.964885 1.154012 -1.465923 0
-0.987819 1.361366 -1.102773 0
-0.958777 1.472504 -1.398017 0
-0.973501 1.094280 -1.275858 0
-1.002054 1.491657 -1.167201 0
-0.978909 1.262141 -1.534456 0
-0.982797 1.245587 -1.112234 0
-0.934027 1.539483 -1.286221 0
-0.963080 1.075122 -1.421236 0
-0.996285 1.424868 -1.100920 0
-0.972253 1.413260 -1.487021 0
-0.973264 1.120057 -1.188729 0
-0.970950 1.538820 -1.202817 0
-0.952105 1.172771 -1.528888 0
-0.988658 1.316517 -1.076394 0
-0.942122 1.525817 -1.363199 0
-0.973221 1.021711 -1.341992 0
-1.003244 1.485464 -1.122695 0
-0.978726 1.316757 -1.568243 0
-0.978723 1.178481 -1.113574 0
-0.935166 1.566334 -1.248513 0
-0.927812 1.093694 -1.476440 0
-1.030125 1.375801 -1.067461 0
-0.963388 1.476927 -1.465657 0
-0.968326 1.042523 -1.232472 0
-0.992721 1.539293 -1.163207 0
-0.967183 1.198056 -1.605404 0
-1.079826 1.187481 -1.065346 0
-0.919971 1.568455 -1.312600 0
-0.966369 0.971704 -1.427089 0
-1.014867 1.460382 -1.081774 0
-0.974346 1.388806 -1.568675 0
-0.972447 1.101797 -1.134560 0
-0.959583 1.578197 -1.213530 0
-0.894437 1.143081 -1.520841 0
-0.945989 1.536156 -1.418187 0
-0.971023 0.954946 -1.306191 0
-0.994369 1.530024 -1.117266 0
-0.987541 1.249988 -1.665102 0
-1.251970 0.942852 -1.071883 0
-0.922340 1.594850 -1.270324 0
-0.896828 1.038569 -1.463566 0
-0.973274 1.461776 -1.545994 0
-0.976691 1.003077 -1.181357 0
-0.984879 1.578522 -1.172277 0
-0.906658 1.170376 -1.599942 0
-0.923754 1.582935 -1.357112 0
-0.967383 0.884883 -1.403976 0
-1.012694 1.503374 -1.074495 0
-0.984622 1.338587 -1.665302 0
-0.987187 1.091299 -1.081505 0
-0.948993 1.608522 -1.233455 0
-0.852919 1.104787 -1.503990 0
-0.958129 1.531641 -1.489583 0
-0.960097 0.927315 -1.248886 0
-0.988084 1.569218 -1.123436 0
-0.956843 1.193698 -1.709001 0
-0.910900 1.614170 -1.299126 0
-0.873432 0.987879 -1.434169 0
-0.982142 1.429085 -1.635757 0
-0.957630 1.024362 -1.118825 0
-0.979308 1.344050 -1.268281 0
-0.976321 1.364103 -1.291807 0
-0.979162 1.293596 -1.264081 0
-0.986712 1.393352 -1.237185 0
-0.971069 1.320857 -1.334775 0
-0.990964 1.308537 -1.208988 0
-0.964118 1.425903 -1.281123 0
-0.973388 1.247323 -1.311334 0
-1.005448 1.380416 -1.192886 0
-0.965521 1.372359 -1.357525 0
-0.977168 1.250452 -1.220273 0
-0.976178 1.452330 -1.236181 0
-0.969216 1.256794 -1.378126 0
-1.009259 1.325058 -1.162978 0
-0.956145 1.443176 -1.325380 0
-0.972170 1.192996 -1.284637 0
-1.004949 1.432918 -1.184050 0
-0.969140 1.323486 -1.416478 0
-0.988446 1.253389 -1.168148 0
-0.953160 1.489059 -1.261734 0
-0.975792 1.176750 -1.383508 0
-1.006430 1.379326 -1.136402 0
-0.960711 1.420348 -1.389074 0
-0.973753 1.174586 -1.227202 0
-0.982415 1.485793 -1.198190 0
-0.968296 1.246886 -1.453058 0
-0.989563 1.298253 -1.121487 0
-0.941311 1.498668 -1.309015 0
-0.973164 1.120115 -1.339933 0
-1.009172 1.436550 -1.136721 0
-0.971592 1.359697 -1.461342 0
-0.979817 1.193122 -1.161246 0
-0.955657 1.523189 -1.230438 0
-0.968641 1.154880 -1.455993 0
-0.982611 1.365063 -1.094341 0
-0.955493 1.474055 -1.385294 0
-0.974222 1.097490 -1.265911 0
-0.997367 1.493232 -1.158184 0
-0.979724 1.264791 -1.521293 0
-0.983618 1.246552 -1.104070 0
-0.931835 1.539783 -1.276690 0
-0.969267 1.073421 -1.413300 0
-0.998290 1.424587 -1.093340 0
-0.965371 1.417539 -1.468756 0
-0.976109 1.120185 -1.180323 0
-0.971300 1.538692 -1.195108 0
-0.956091 1.173702 -1.518482 0
-0.999075 1.310972 -1.068992 0
-0.935771 1.527262 -1.349398 0
-0.974526 1.025539 -1.331236 0
-0.994137 1.488415 -1.113693 0
-0.977709 1.320002 -1.552809 0
-0.976993 1.182174 -1.104914 0
-0.934553 1.566100 -1.240371 0
-0.932207 1.094446 -1.466841 0
-1.129465 1.329242 -1.062290 0
-0.959199 1.478714 -1.450588 0
-0.972071 1.042272 -1.223944 0
-0.991278 1.539587 -1.155179 0
-0.970335 1.199934 -1.592958 0
-1.271915 1.045180 -1.060458 0
-0.917941 1.568327 -1.302859 0
-0.973585 0.968952 -1.419372 0
-1.024912 1.457456 -1.074594 0
-0.973510 1.390818 -1.553782 0
-0.972618 1.104506 -1.125807 0
-0.960397 1.577786 -1.206130 0
-0.904416 1.137312 -1.517295 0
-0.940548 1.537118 -1.403562 0
-0.972648 0.958748 -1.295784 0
-0.987176 1.531635 -1.108825 0
-0.987444 1.253990 -1.647951 0
-0.921357 1.594366 -1.261919 0
-0.907177 1.031230 -1.459825 0
-0.969786 1.463618 -1.529378 0
-0.970214 1.015543 -1.170124 0
-0.980377 1.578866 -1.163621 0
-0.913596 1.168780 -1.592176 0
-0.917534 1.583086 -1.343716 0
-0.971233 0.887177 -1.393536 0
-1.026761 1.500070 -1.067532 0
-0.973534 1.347638 -1.635423 0
-0.949742 1.607936 -1.226086 0
-0.861200 1.100472 -1.499028 0
-0.953835 1.532370 -1.473999 0
-0.968374 0.921082 -1.241761 0
-0.980791 1.570140 -1.115030 0
-0.960572 1.195736 -1.695155 0
-0.908942 1.613479 -1.289877 0
-0.886243 0.975435 -1.432943 0
-0.981986 1.430245 -1.620269 0
-0.958039 1.027396 -1.110099 0
-0.978837 1.350693 -1.256905 0
-0.971162 1.372988 -1.277875 0
-0.980831 1.299739 -1.253415 0
-0.980568 1.401760 -1.224414 0
-0.973457 1.326398 -1.323721 0
-0.989241 1.316404 -1.197924 0
-0.956762 1.434081 -1.266762 0
-0.971560 1.257198 -1.297884 0
-0.995274 1.390949 -1.180000 0
-0.967174 1.377627 -1.346083 0
-0.973648 1.261036 -1.208175 0
-0.965126 1.460996 -1.221878 0
-0.967380 1.266809 -1.363125 0
-1.008109 1.332110 -1.152746 0
-0.952835 1.449335 -1.312063 0
-0.969155 1.205202 -1.270899 0
-0.995038 1.441650 -1.171704 0
-0.964453 1.333765 -1.398925 0
-0.989483 1.260187 -1.158218 0
-0.945429 1.495495 -1.248104 0
-0.967759 1.194624 -1.363646 0
-0.999266 1.388286 -1.125703 0
-0.960778 1.425700 -1.376410 0
-0.971600 1.186149 -1.215078 0
-0.972648 1.492895 -1.185705 0
-0.970495 1.254427 -1.439279 0
-0.991542 1.303526 -1.112311 0
-0.930847 1.505663 -1.292396 0
-0.968057 1.137131 -1.323021 0
-0.997219 1.445836 -1.125373 0
-0.968295 1.368279 -1.443884 0
-0.977096 1.204222 -1.150397 0
-0.944561 1.529442 -1.216600 0
-0.970719 1.164576 -1.441206 0
-1.002134 1.360133 -1.087171 0
-0.948426 1.480898 -1.368110 0
-0.968805 1.115080 -1.251070 0
-0.993840 1.498419 -1.148166 0
-0.972021 1.279545 -1.497055 0
-0.984926 1.252902 -1.094861 0
-0.921764 1.545226 -1.261649 0
-0.968127 1.088453 -1.396374 0
-1.007815 1.425589 -1.085224 0
-0.962798 1.424325 -1.452190 0
-0.971970 1.134946 -1.168440 0
-0.963221 1.543890 -1.183447 0
-0.961307 1.180459 -1.505418 0
-1.007150 1.312166 -1.060333 0
-0.925694 1.533184 -1.331620 0
-0.970025 1.045396 -1.314327 0
-0.984752 1.495258 -1.103590 0
-0.972914 1.330961 -1.530719 0
-0.992701 1.176615 -1.097217 0
-0.929204 1.569994 -1.228750 0
-0.942280 1.096714 -1.458303 0
-1.279258 1.266320 -1.055230 0
-0.950946 1.485899 -1.430296 0
-0.968936 1.058953 -1.210921 0
-0.983887 1.544728 -1.144592 0
-0.972364 1.209492 -1.575322 0
-0.910434 1.572389 -1.288420 0
-0.968931 0.992218 -1.398838 0
-1.083439 1.443308 -1.068442 0
-0.973640 1.397180 -1.537339 0
-0.968848 1.119009 -1.115272 0
-0.957886 1.581306 -1.196202 0
-0.916319 1.137182 -1.511009 0
-0.934248 1.541947 -1.386723 0
-0.967083 0.982440 -1.279081 0
-0.979822 1.536904 -1.099240 0
-0.980626 1.269045 -1.619411 0
-0.916494 1.597528 -1.250182 0
-0.920161 1.029998 -1.453653 0
-0.961835 1.471320 -1.506414 0
-0.964711 1.035630 -1.157790 0
-0.977664 1.582576 -1.154112 0
-0.929508 1.164964 -1.590603 0
-0.907805 1.586987 -1.326576 0
-0.968624 0.910848 -1.374694 0
-1.108870 1.484476 -1.061554 0
-0.981482 1.350742 -1.625486 0
-0.949175 1.610870 -1.216795 0
-0.870573 1.103294 -1.490045 0
-0.950332 1.536823 -1.457488 0
-0.962300 0.946723 -1.226504 0
-0.972064 1.574729 -1.105272 0
-0.966330 1.202775 -1.679404 0
-0.906855 1.616007 -1.279148 0
-0.908032 0.960049 -1.434729 0
-0.970461 1.440682 -1.589547 0
-0.963151 1.033443 -1.100940 0
-0.979072 1.354710 -1.245896 0
-0.973213 1.375796 -1.267578 0
-0.974532 1.308780 -1.239505 0
-0.983956 1.403639 -1.215121 0
-0.973580 1.330984 -1.311638 0
-0.991568 1.319412 -1.188079 0
-0.958504 1.436435 -1.256748 0
-0.973454 1.261421 -1.286773 0
-1.001952 1.391331 -1.171631 0
-0.968206 1.381055 -1.334486 0
-0.975548 1.264885 -1.197998 0
-0.967181 1.463013 -1.212425 0
-0.968882 1.271440 -1.351002 0
-1.007665 1.336523 -1.142548 0
-0.952449 1.452429 -1.300481 0
-0.971581 1.209528 -1.260119 0
-1.000621 1.442556 -1.163198 0
-0.965039 1.338166 -1.385998 0
-0.990819 1.264301 -1.148239 0
-0.946668 1.497469 -1.238343 0
-0.969360 1.200245 -1.351187 0
-0.999089 1.391843 -1.116016 0
-0.961266 1.428833 -1.364294 0
-0.974431 1.190085 -1.204897 0
-0.973996 1.494946 -1.176337 0
-0.970765 1.260457 -1.424935 0
-0.985407 1.311867 -1.101781 0
-0.932612 1.507364 -1.282583 0
-0.969331 1.143800 -1.310671 0
-0.996469 1.449021 -1.115755 0
-0.966903 1.373345 -1.428812 0
-0.975345 1.211637 -1.139727 0
-0.946479 1.531006 -1.207501 0
-0.969977 1.173272 -1.425447 0
-1.027254 1.350673 -1.079847 0
-0.945058 1.484586 -1.353756 0
-0.971282 1.120450 -1.240146 0
-0.995154 1.500533 -1.138914 0
-0.971647 1.285782 -1.481174 0
-1.001397 1.245466 -1.086913 0
-0.924114 1.546498 -1.252623 0
-0.975052 1.090147 -1.386617 0
-1.043335 1.414666 -1.078729 0
-0.961740 1.428253 -1.437554 0
-0.969841 1.144248 -1.157197 0
-0.964100 1.545683 -1.174180 0
-0.966797 1.183372 -1.494149 0
-1.190830 1.204341 -1.056810 0
-0.924611 1.535312 -1.319729 0
-0.971903 1.052935 -1.301994 0
-0.995525 1.494735 -1.095741 0
-0.971675 1.336853 -1.513637 0
-1.000520 1.175701 -1.088173 0
-0.931036 1.571292 -1.219780 0
-0.948977 1.098883 -1.448093 0
-0.949483 1.488925 -1.416099 0
-0.972861 1.063198 -1.200698 0
-0.984312 1.546713 -1.135371 0
-0.973374 1.216281 -1.558625 0
-0.912326 1.573531 -1.279123 0
-0.972774 0.998804 -1.386279 0
-1.215061 1.405084 -1.064132 0
-0.970786 1.402566 -1.518991 0
-0.978080 1.116468 -1.106557 0
-0.957835 1.582946 -1.186701 0
-0.925248 1.136705 -1.503071 0
-0.931879 1.544235 -1.372966 0
-0.973618 0.984722 -1.269206 0
-0.991378 1.536771 -1.091556 0
-0.978699 1.276976 -1.598963 0
-0.918535 1.598598 -1.241346 0
-0.927197 1.032327 -1.443425 0
-0.958783 1.475189 -1.489063 0
-0.964687 1.044654 -1.146953 0
-0.978816 1.584220 -1.145135 0
-0.937571 1.165818 -1.581239 0
-0.907399 1.588260 -1.315488 0
-0.969645 0.922776 -1.360112 0
-1.207443 1.464234 -1.054582 0
-0.984030 1.354294 -1.610718 0
-0.950792 1.612140 -1.207868 0
-0.883078 1.097647 -1.486416 0
-0.947136 1.539399 -1.441547 0
-0.963200 0.956893 -1.214626 0
-0.980949 1.575483 -1.097512 0
-0.970365 1.207533 -1.664097 0
-0.909279 1.616901 -1.270454 0
-0.925222 0.947191 -1.433419 0
-0.967325 1.445307 -1.569793 0
-0.972390 1.030670 -1.091970 0
-0.980171 1.356140 -1.235711 0
-0.974134 1.377159 -1.257261 0
-0.980925 1.307003 -1.231362 0
-0.986571 1.404137 -1.205845 0
-0.975980 1.331666 -1.301650 0
-0.993141 1.320839 -1.178223 0
-0.966474 1.434500 -1.250021 0
-0.974845 1.263201 -1.276089 0
-1.006062 1.391263 -1.162757 0
-0.969104 1.382285 -1.323697 0
-0.981320 1.263449 -1.189285 0
-0.969545 1.463448 -1.203331 0
-0.973099 1.270977 -1.341744 0
-1.002309 1.341874 -1.131522 0
-0.953481 1.453207 -1.290315 0
-0.972662 1.211955 -1.249251 0
-1.002454 1.443390 -1.153950 0
-0.964835 1.340309 -1.373804 0
-0.990802 1.267222 -1.138013 0
-0.948229 1.497967 -1.228997 0
-0.966884 1.205860 -1.337296 0
-0.995964 1.395277 -1.105975 0
-0.959855 1.430681 -1.351896 0
-0.976034 1.192215 -1.194501 0
-0.977798 1.494989 -1.167855 0
-0.969523 1.264123 -1.411152 0
-0.995658 1.307882 -1.093393 0
-0.932900 1.508063 -1.272361 0
-0.970282 1.146857 -1.299079 0
-0.992554 1.452011 -1.105795 0
-0.965913 1.375494 -1.415689 0
