ply
format ascii 1.0
element vertex 1601
property float x
property float y
property float z
property uchar label
end_header
0.092006 0.023077 0.286774 0
-0.439722 0.040888 0.513495 0
-0.127990 0.031406 0.008789 0
0.003365 0.034990 0.532364 0
-0.546858 0.027031 0.246787 0
0.108305 0.028961 0.121232 0
-0.316674 0.027093 0.666411 0
-0.326569 0.031502 -0.015852 0
0.155382 0.028573 0.401215 0
-0.618597 0.028891 0.474731 0
0.006736 0.028578 -0.031186 0
-0.081175 0.029517 0.684010 0
-0.565617 0.025244 0.090872 0
0.214045 0.030413 0.200943 0
-0.503179 0.042221 0.697748 0
-0.204745 0.022650 -0.112611 0
0.143103 0.025038 0.559178 0
-0.731608 0.030553 0.335294 0
0.148021 0.023991 -0.000716 0
-0.250861 0.023903 0.811779 0
-0.474882 0.038203 -0.068799 0
0.273666 0.029921 0.336245 0
-0.705802 0.044954 0.638965 0
-0.039161 0.023759 -0.149236 0
0.053390 0.028139 0.729856 0
-0.741481 0.039841 0.137991 0
0.271119 0.032082 0.090422 0
-0.486456 0.020120 0.877426 0
-0.323911 0.031975 -0.187447 0
0.273145 0.031257 0.510321 0
-0.874354 0.031138 0.487139 0
0.131967 0.029517 -0.120296 0
-0.123972 0.021723 0.893756 0
-0.666586 0.023820 -0.061048 0
0.351702 0.030211 0.234765 0
-0.730313 0.039548 0.829854 0
-0.130194 0.031892 -0.243441 0
0.196272 0.021835 0.712752 0
-0.922062 0.037899 0.253448 0
0.279682 0.023122 -0.029877 0
-0.373844 0.029252 0.998496 0
-0.487435 0.031237 -0.220884 0
0.376619 0.027782 0.421618 0
-0.924157 0.067816 0.663436 0
0.070711 0.036181 -0.230135 0
0.035218 0.023791 0.909897 0
-0.840703 0.050509 0.002861 0
0.391934 0.034711 0.112674 0
-0.672982 0.036234 1.009879 0
-0.262032 0.039925 -0.310621 0
0.332148 0.034812 0.634183 0
0.248640 0.024320 -0.152651 0
-0.206484 0.046154 1.056930 0
-0.678328 0.036120 -0.208433 0
0.450041 0.034534 0.301236 0
-0.035020 0.030967 -0.326325 0
0.199028 0.022032 0.870722 0
-1.045106 0.044885 0.129573 0
0.394567 0.034174 -0.017332 0
-0.506020 0.083251 1.109511 0
-0.444364 0.025674 -0.348975 0
0.441562 0.027637 0.528990 0
0.180077 0.029872 -0.269091 0
-0.023547 0.041918 1.070373 0
-0.893147 0.038995 -0.143633 0
0.489125 0.034123 0.166997 0
-0.177638 0.031238 -0.401696 0
0.356244 0.070584 0.752700 0
0.360738 0.030166 -0.148770 0
-0.303114 0.118923 1.156542 0
-0.644222 0.037073 -0.343837 0
0.521569 0.033652 0.393067 0
0.075861 0.038414 -0.372675 0
0.161378 0.025224 1.034710 0
-1.104753 0.053853 -0.019458 0
0.493795 0.034311 0.025035 0
-0.178072 0.695653 0.649113 0
-0.353037 0.039224 -0.448138 0
0.477697 0.046724 0.644944 0
0.291452 0.028164 -0.275964 0
-0.101075 0.111666 1.177988 0
-0.874856 0.042830 -0.290713 0
0.567749 0.038590 0.243902 0
-0.146264 0.042138 0.312074 0
-0.227662 0.045196 0.281323 0
-0.028973 0.035226 0.268544 0
-0.227811 0.052178 0.450016 0
-0.182546 0.036830 0.150793 0
0.014059 0.043183 0.405925 0
-0.380193 0.047698 0.359416 0
0.001892 0.035073 0.137537 0
-0.143936 0.039248 0.565456 0
-0.341045 0.037149 0.142798 0
0.120029 0.032372 0.303562 0
-0.398521 0.056641 0.528693 0
-0.099801 0.038332 0.029506 0
0.036140 0.050774 0.545579 0
-0.503112 0.043906 0.265987 0
0.133457 0.032917 0.139763 0
-0.263133 0.068809 0.665728 0
-0.291484 0.045002 0.006283 0
0.183416 0.037322 0.417311 0
-0.571753 0.046422 0.490648 0
0.034492 0.040510 -0.011650 0
-0.045159 0.047602 0.695345 0
-0.521744 0.042244 0.112863 0
0.238122 0.029727 0.219545 0
-0.478304 0.030960 0.726782 0
-0.171689 0.038473 -0.090072 0
0.175728 0.047300 0.568734 0
-0.698532 0.027997 0.360448 0
0.170807 0.023019 0.018468 0
-0.213388 0.037184 0.825782 0
-0.449977 0.031258 -0.043526 0
0.299599 0.034790 0.353067 0
-0.662448 0.054784 0.656833 0
-0.010047 0.039232 -0.127723 0
0.083962 0.034348 0.747545 0
-0.714799 0.030027 0.165404 0
0.294403 0.033255 0.108152 0
-0.453319 0.019978 0.900806 0
-0.289031 0.046600 -0.162513 0
0.301233 0.040757 0.525321 0
-0.794026 0.076646 0.492041 0
0.154070 0.029305 -0.100777 0
-0.084515 0.043150 0.901670 0
-0.610399 0.053218 -0.035917 0
0.376608 0.037069 0.250601 0
-0.698243 0.034724 0.856351 0
-0.103356 0.038979 -0.220074 0
0.229733 0.046553 0.719431 0
-0.869613 0.051949 0.275579 0
0.302771 0.029201 -0.012338 0
-0.341439 0.029032 1.022395 0
-0.451109 0.041824 -0.193837 0
0.403522 0.039571 0.435371 0
0.091656 0.033431 -0.209730 0
0.073904 0.051503 0.913019 0
-0.815158 0.038205 0.031531 0
0.414750 0.032031 0.130069 0
-0.235127 0.043334 -0.285412 0
0.361221 0.047116 0.647475 0
0.269933 0.024440 -0.134141 0
-0.168502 0.059634 1.069851 0
-0.647695 0.033210 -0.180250 0
0.474863 0.035350 0.318114 0
-0.015386 0.023946 -0.304792 0
0.233043 0.043571 0.878273 0
-1.014336 0.034406 0.159377 0
0.416250 0.032197 -0.000354 0
-0.470254 0.086447 1.130572 0
-0.413875 0.029514 -0.321027 0
0.468765 0.031929 0.545644 0
0.201054 0.031175 -0.249324 0
0.011372 0.052956 1.085463 0
-0.856438 0.037723 -0.113948 0
0.512673 0.034083 0.183342 0
-0.147758 0.044990 -0.374498 0
0.392730 0.153746 0.721417 0
0.382113 0.036319 -0.131394 0
0.049318 0.675360 0.658068 0
-0.594028 0.060594 -0.311083 0
0.547401 0.035683 0.409547 0
0.092217 0.023649 -0.353635 0
0.195226 0.038235 1.048358 0
-1.052977 0.061502 0.009808 0
0.515942 0.032655 0.041189 0
-0.163714 0.686982 0.672025 0
-0.321513 0.048782 -0.418793 0
0.505906 0.059846 0.657176 0
0.311496 0.028607 -0.257461 0
0.172507 0.677950 0.664691 0
-0.817731 0.064015 -0.257220 0
0.592160 0.038885 0.259873 0
-0.122325 0.033516 0.328342 0
-0.203999 0.035594 0.298166 0
-0.001788 0.037206 0.281242 0
-0.193258 0.062624 0.459395 0
-0.152686 0.042351 0.164208 0
0.039240 0.037974 0.420633 0
-0.346613 0.052240 0.372381 0
0.024713 0.027604 0.152286 0
-0.108166 0.054079 0.571638 0
-0.307427 0.044677 0.156879 0
0.145565 0.031819 0.316189 0
-0.364590 0.060033 0.540980 0
-0.071491 0.044828 0.043264 0
0.060136 0.039521 0.563495 0
-0.467591 0.048539 0.280328 0
0.157910 0.032934 0.152334 0
-0.240034 0.054496 0.686835 0
-0.263351 0.045572 0.022180 0
0.211128 0.044687 0.426748 0
-0.528821 0.058027 0.500283 0
0.056757 0.034921 0.002438 0
-0.018175 0.041848 0.711630 0
-0.480682 0.055206 0.127478 0
0.262933 0.031270 0.231077 0
-0.437485 0.041109 0.734547 0
-0.144942 0.040606 -0.074451 0
0.200924 0.038739 0.585221 0
-0.642794 0.051966 0.368459 0
0.193924 0.021393 0.031267 0
-0.185863 0.029173 0.844388 0
-0.412662 0.042354 -0.026589 0
0.324670 0.033240 0.365215 0
-0.614181 0.069397 0.662817 0
0.012052 0.034592 -0.113179 0
0.115130 0.042369 0.755819 0
-0.651574 0.063215 0.176312 0
0.317728 0.032484 0.119852 0
-0.399839 0.049411 0.893847 0
-0.266927 0.037783 -0.145544 0
0.327834 0.041235 0.537081 0
-0.748784 0.084104 0.503748 0
0.176102 0.026649 -0.087639 0
-0.051508 0.048829 0.911128 0
-0.585681 0.042358 -0.016538 0
0.400589 0.033348 0.262671 0
-0.647907 0.049818 0.859621 0
-0.079869 0.037333 -0.204243 0
0.257558 0.045262 0.732932 0
-0.824819 0.057447 0.291330 0
0.326031 0.034526 -0.001080 0
-0.305583 0.032596 1.033197 0
-0.418866 0.046167 -0.174755 0
0.429028 0.036037 0.448106 0
-0.828833 0.083606 0.691857 0
0.114302 0.034542 -0.195587 0
0.098707 0.034240 0.938990 0
-0.755874 0.062381 0.048339 0
0.438359 0.036543 0.140085 0
-0.213857 0.035012 -0.268606 0
0.388437 0.045588 0.660540 0
0.292204 0.027378 -0.121892 0
-0.140463 0.050721 1.091035 0
-0.603269 0.047478 -0.159238 0
0.499699 0.035448 0.328845 0
0.011800 0.036339 -0.287606 0
0.261573 0.039443 0.894624 0
-0.935841 0.069204 0.171852 0
0.438600 0.033610 0.010309 0
-0.435016 0.086405 1.143548 0
-0.379987 0.038586 -0.300008 0
0.495589 0.033267 0.556657 0
0.221977 0.029543 -0.236214 0
0.041539 0.049747 1.102409 0
-0.798567 0.059055 -0.092707 0
0.536374 0.037590 0.192858 0
-0.126763 0.038819 -0.357997 0
0.417356 0.129395 0.748831 0
0.402987 0.032101 -0.120221 0
0.075420 0.685009 0.657075 0
-0.571632 0.048474 -0.291109 0
0.573172 0.034018 0.420911 0
0.116232 0.032778 -0.337321 0
0.226692 0.042158 1.059668 0
-0.999568 0.070648 0.030234 0
0.538470 0.031631 0.051359 0
-0.137433 0.690373 0.675979 0
-0.299927 0.040875 -0.400523 0
0.532749 0.200464 0.592517 0
0.332516 0.031726 -0.244966 0
0.198820 0.693969 0.657921 0
-0.772695 0.073007 -0.233536 0
0.616938 0.033581 0.271253 0
-0.096131 0.030533 0.329223 0
-0.178081 0.030726 0.299975 0
0.021274 0.029348 0.283299 0
-0.178768 0.032525 0.470531 0
-0.130815 0.031863 0.167457 0
0.064326 0.034016 0.421085 0
-0.311876 0.059069 0.370252 0
0.048073 0.023403 0.153612 0
-0.085290 0.039990 0.576491 0
-0.283928 0.035431 0.160545 0
0.170439 0.032131 0.315398 0
-0.343980 0.040684 0.548395 0
-0.054262 0.025809 0.047005 0
0.087948 0.041807 0.560569 0
-0.443389 0.036613 0.284967 0
0.180999 0.030875 0.152709 0
-0.207319 0.057117 0.682643 0
-0.246820 0.025669 0.026891 0
0.234809 0.038414 0.427717 0
-0.502110 0.046587 0.504365 0
0.078158 0.028647 0.004135 0
0.010043 0.039947 0.709899 0
-0.448097 0.057230 0.130062 0
0.287057 0.035203 0.229427 0
-0.411491 0.027063 0.739451 0
-0.125522 0.028475 -0.071288 0
0.226120 0.034101 0.585364 0
-0.602991 0.056597 0.367810 0
0.217533 0.025955 0.031127 0
-0.148293 0.041238 0.832585 0
-0.390171 0.031993 -0.021915 0
0.349224 0.037389 0.362486 0
-0.575226 0.071010 0.659285 0
0.032499 0.027229 -0.111126 0
0.144367 0.047299 0.749886 0
-0.629131 0.047655 0.182616 0
0.340250 0.033094 0.119172 0
-0.356356 0.062461 0.879905 0
-0.246080 0.028139 -0.141643 0
0.352750 0.039875 0.535715 0
-0.737032 0.052494 0.516879 0
0.198858 0.030500 -0.086843 0
-0.027232 0.032218 0.918532 0
-0.543938 0.055213 -0.012551 0
0.423803 0.035346 0.260863 0
-0.606855 0.051215 0.853699 0
-0.059489 0.030311 -0.201497 0
0.283965 0.043425 0.731233 0
-0.782022 0.060902 0.292669 0
0.347224 0.031457 -0.001126 0
-0.257678 0.056216 1.008819 0
-0.396672 0.037031 -0.169737 0
0.453287 0.037605 0.445669 0
-0.807012 0.061049 0.701476 0
0.134602 0.030083 -0.194110 0
0.128498 0.035614 0.933895 0
-0.733829 0.046128 0.055321 0
0.460527 0.037612 0.138736 0
-0.193211 0.027452 -0.264818 0
0.414021 0.045426 0.658197 0
-0.911011 0.069939 0.457633 0
0.313545 0.029709 -0.121644 0
-0.104482 0.057694 1.079226 0
-0.568896 0.051343 -0.152655 0
0.522956 0.037069 0.326619 0
0.028831 0.022556 -0.286305 0
0.289201 0.038095 0.892040 0
-0.891326 0.072238 0.175517 0
0.460014 0.036071 0.009171 0
-0.389936 0.097707 1.125552 0
-0.346693 0.049826 -0.292521 0
0.520336 0.029130 0.556362 0
0.243420 0.034038 -0.234779 0
0.072758 0.050728 1.096166 0
-0.755365 0.066971 -0.085847 0
0.558641 0.038966 0.190918 0
-0.101920 0.043934 -0.352736 0
0.438992 0.075489 0.780012 0
0.423509 0.031794 -0.120710 0
0.091208 0.674305 0.662397 0
-0.540100 0.050763 -0.283271 0
0.596639 0.041154 0.416256 0
0.134330 0.023688 -0.336426 0
0.257659 0.051818 1.047448 0
-0.953845 0.074151 0.036413 0
0.559897 0.032595 0.049736 0
-0.121858 0.677609 0.682186 0
-0.274982 0.041604 -0.394174 0
0.556187 0.172679 0.605433 0
0.352226 0.029716 -0.244887 0
0.214700 0.684225 0.663034 0
-0.751493 0.058163 -0.226137 0
0.639878 0.032278 0.269574 0
-0.066550 0.031098 0.319075 0
-0.145955 0.034548 0.289304 0
0.048606 0.028808 0.273809 0
-0.140399 0.047052 0.453254 0
-0.104315 0.026892 0.160047 0
0.092122 0.033772 0.410270 0
-0.290834 0.037889 0.366939 0
0.075990 0.028282 0.144109 0
-0.050809 0.048952 0.559560 0
-0.253358 0.034700 0.152743 0
0.196558 0.032162 0.305379 0
-0.302970 0.050780 0.531074 0
-0.026606 0.027995 0.039224 0
0.117004 0.044065 0.547271 0
-0.403655 0.043977 0.273815 0
0.205323 0.027656 0.144385 0
-0.173342 0.058005 0.667701 0
-0.211650 0.037057 0.019096 0
0.259745 0.031923 0.419201 0
-0.460202 0.052074 0.489716 0
0.103898 0.031019 -0.003740 0
0.041363 0.042594 0.694235 0
-0.430161 0.033352 0.126877 0
0.311340 0.032842 0.220436 0
-0.374746 0.024573 0.724916 0
-0.098827 0.028120 -0.077671 0
0.254548 0.040581 0.570024 0
-0.563986 0.056312 0.357652 0
0.242209 0.028968 0.022503 0
-0.111086 0.048994 0.811156 0
-0.357054 0.034876 -0.027816 0
0.373502 0.031134 0.354088 0
-0.543440 0.058389 0.650879 0
0.058859 0.032226 -0.117970 0
0.171630 0.040695 0.739532 0
-0.594510 0.043113 0.176046 0
0.363695 0.030549 0.110488 0
-0.338703 0.027992 0.885144 0
-0.214018 0.036075 -0.146775 0
0.378516 0.039283 0.524344 0
-0.684293 0.062674 0.499666 0
0.221425 0.026312 -0.094499 0
0.014072 0.056789 0.884305 0
-0.525263 0.033485 -0.016217 0
0.447687 0.032254 0.251754 0
-0.571720 0.039664 0.842440 0
-0.035813 0.026688 -0.207595 0
0.313011 0.054329 0.711433 0
-0.744985 0.054050 0.285623 0
0.369788 0.026845 -0.009427 0
-0.239099 0.020773 1.016009 0
-0.368379 0.033944 -0.174111 0
0.477881 0.031023 0.437243 0
-0.772141 0.046487 0.693006 0
0.156545 0.024884 -0.201390 0
0.159435 0.037825 0.915723 0
-0.692928 0.047816 0.049712 0
0.483717 0.034787 0.129789 0
-0.509030 0.044276 1.011158 0
-0.165485 0.030441 -0.269238 0
0.439162 0.031615 0.652949 0
-0.867276 0.065004 0.447641 0
0.335250 0.023073 -0.129845 0
-0.071983 0.052497 1.063240 0
-0.552704 0.027708 -0.156778 0
0.547040 0.031137 0.318103 0
0.055050 0.030440 -0.291394 0
0.321468 0.065036 0.858438 0
-0.872857 0.044823 0.174171 0
0.482607 0.033998 0.000292 0
-0.357334 0.084790 1.113482 0
-0.335564 0.020769 -0.299588 0
0.545604 0.023699 0.547232 0
0.264852 0.029589 -0.242606 0
0.103673 0.047050 1.079908 0
-0.741239 0.038961 -0.088630 0
0.581905 0.039860 0.180949 0
-0.086160 0.023510 -0.360880 0
0.464808 0.070215 0.769892 0
0.445487 0.028673 -0.129391 0
-0.170317 0.112774 1.168803 0
-0.525382 0.026956 -0.288360 0
0.621429 0.031823 0.408928 0
0.157090 0.024912 -0.342798 0
0.285626 0.043565 1.036605 0
-0.948350 0.034788 0.036158 0
0.582756 0.029293 0.040598 0
-0.114021 0.650537 0.691417 0
-0.251806 0.035762 -0.398594 0
0.580589 0.142853 0.610200 0
0.373493 0.025205 -0.253407 0
0.226323 0.659990 0.672460 0
-0.713411 0.059317 -0.227618 0
0.662870 0.039778 0.257479 0
-0.041995 0.043155 0.292037 0
-0.121955 0.041998 0.263817 0
0.070384 0.039682 0.248337 0
-0.118693 0.047964 0.427275 0
-0.077950 0.043043 0.135174 0
0.109511 0.030856 0.387139 0
-0.267610 0.038039 0.341803 0
0.096044 0.036240 0.121361 0
-0.030424 0.048757 0.532794 0
-0.225733 0.046708 0.128404 0
0.212528 0.027620 0.284086 0
-0.281582 0.045574 0.505641 0
-0.005715 0.035117 0.017688 0
0.135784 0.046050 0.520579 0
-0.368832 0.060705 0.245471 0
0.222628 0.030852 0.122732 0
-0.152449 0.053915 0.640444 0
-0.191506 0.037221 -0.001881 0
0.275472 0.027036 0.397372 0
-0.428990 0.058538 0.459431 0
0.118727 0.023236 -0.023606 0
0.060603 0.041277 0.666251 0
-0.389382 0.059930 0.100382 0
0.327115 0.031591 0.199345 0
-0.321364 0.068783 0.668658 0
-0.075457 0.039880 -0.098069 0
0.271296 0.040485 0.544604 0
-0.534915 0.057999 0.331261 0
0.257705 0.025307 0.002517 0
-0.089356 0.047213 0.780323 0
-0.326359 0.050197 -0.049363 0
0.389108 0.030929 0.331787 0
-0.513532 0.058450 0.619597 0
0.073090 0.023355 -0.137967 0
0.187776 0.032699 0.715370 0
-0.563143 0.049100 0.151518 0
0.379612 0.033630 0.089572 0
-0.296097 0.054698 0.832313 0
-0.195295 0.035130 -0.166703 0
0.393178 0.029680 0.504198 0
-0.656918 0.057555 0.472865 0
0.236946 0.023275 -0.114360 0
0.026489 0.032982 0.867735 0
-0.485078 0.056268 -0.038648 0
0.462775 0.030589 0.230968 0
-0.538642 0.041042 0.805695 0
-0.020876 0.020094 -0.227787 0
0.327730 0.043873 0.690012 0
-0.709772 0.059154 0.258901 0
0.385605 0.029471 -0.029532 0
-0.199601 0.047477 0.958519 0
-0.346642 0.035569 -0.193892 0
0.492833 0.032004 0.414103 0
-0.715035 0.071146 0.646218 0
0.172453 0.023450 -0.221159 0
0.177247 0.034614 0.885687 0
-0.666013 0.047162 0.027745 0
0.498760 0.034820 0.109536 0
-0.478128 0.042747 0.972578 0
-0.145317 0.034822 -0.288202 0
0.454591 0.037317 0.624339 0
-0.829576 0.067499 0.417994 0
0.351270 0.026090 -0.149487 0
-0.045159 0.062305 1.018021 0
-0.510423 0.053872 -0.175843 0
0.561676 0.032198 0.296431 0
0.068636 0.021177 -0.312115 0
0.346454 0.130219 0.785669 0
-0.815547 0.071226 0.145195 0
0.497737 0.033916 -0.019413 0
-0.340387 0.064710 1.089055 0
-0.302673 0.043809 -0.315892 0
0.559921 0.031879 0.519893 0
0.280079 0.026813 -0.262426 0
0.123881 0.048461 1.042400 0
-0.707034 0.047408 -0.109408 0
0.596664 0.036924 0.161301 0
-0.063245 0.037609 -0.377804 0
0.478839 0.057459 0.750471 0
0.460932 0.031281 -0.148884 0
-0.156825 0.088737 1.149140 0
-0.497020 0.036104 -0.306559 0
0.635709 0.030648 0.387469 0
0.175017 0.033051 -0.361028 0
0.304399 0.055155 0.993842 0
-0.892427 0.058566 0.011557 0
0.597527 0.032968 0.020539 0
-0.233820 0.035481 -0.417786 0
0.597933 0.047435 0.636438 0
0.389127 0.026864 -0.272826 0
0.044230 0.100755 1.158238 0
-0.688085 0.059603 -0.246899 0
0.677332 0.037982 0.237495 0
-0.034312 0.035692 0.266061 0
-0.109292 0.045418 0.235128 0
0.077390 0.031644 0.222991 0
-0.107473 0.046231 0.398056 0
-0.071172 0.034945 0.109912 0
0.121223 0.038191 0.355960 0
-0.249729 0.046996 0.309911 0
0.102977 0.029390 0.096243 0
-0.017620 0.052080 0.500216 0
-0.219808 0.036471 0.103193 0
0.220715 0.025683 0.257220 0
-0.261260 0.056394 0.469615 0
0.004084 0.036873 -0.008152 0
0.145347 0.045455 0.490414 0
-0.362072 0.050044 0.219897 0
0.229529 0.024306 0.097774 0
-0.136080 0.059921 0.603966 0
-0.176827 0.046443 -0.028381 0
0.284329 0.030370 0.367802 0
-0.412542 0.059423 0.427893 0
0.126685 0.021448 -0.048989 0
0.072284 0.043427 0.631882 0
-0.383459 0.049777 0.075029 0
0.334758 0.030627 0.173315 0
-0.317506 0.047924 0.645118 0
-0.069023 0.033704 -0.123389 0
0.279974 0.041794 0.513653 0
-0.515687 0.062415 0.300345 0
0.265370 0.023801 -0.022658 0
-0.072100 0.056269 0.738802 0
-0.327650 0.029819 -0.074528 0
0.396653 0.032155 0.304123 0
-0.484987 0.072455 0.578374 0
0.080764 0.021375 -0.163255 0
0.199036 0.039816 0.677697 0
-0.544091 0.055193 0.122783 0
0.387016 0.032767 0.064368 0
-0.276213 0.059977 0.790829 0
-0.183313 0.040836 -0.191799 0
0.400966 0.034227 0.472878 0
-0.628829 0.068587 0.436394 0
0.245259 0.025623 -0.139330 0
0.043366 0.046912 0.821002 0
-0.480571 0.045671 -0.064262 0
0.469890 0.031850 0.204544 0
-0.511781 0.049662 0.761797 0
-0.012507 0.020418 -0.253097 0
0.334840 0.037414 0.660825 0
-0.689752 0.062277 0.228991 0
0.393075 0.029209 -0.054370 0
-0.187629 0.039055 0.923667 0
-0.330703 0.045992 -0.218708 0
0.499617 0.036575 0.384603 0
-0.718492 0.041512 0.625797 0
0.180461 0.024322 -0.246118 0
0.189946 0.045561 0.841011 0
-0.643076 0.057854 -0.000035 0
0.505733 0.031991 0.084786 0
-0.451017 0.051518 0.923670 0
-0.136065 0.036979 -0.313195 0
0.461086 0.032166 0.595800 0
-0.803641 0.072741 0.384430 0
0.358837 0.026050 -0.174234 0
-0.042306 0.034223 0.997823 0
-0.506455 0.044351 -0.201929 0
0.567936 0.040379 0.267826 0
0.076614 0.021972 -0.337307 0
0.344060 0.054185 0.800388 0
-0.823687 0.044083 0.121718 0
0.504889 0.031341 -0.043884 0
-0.339517 0.033269 1.069474 0
-0.298423 0.036227 -0.342403 0
0.565817 0.037806 0.488322 0
0.288017 0.028965 -0.287070 0
0.134579 0.046427 1.002457 0
-0.684383 0.058825 -0.135421 0
0.603299 0.035785 0.136303 0
-0.061487 0.023165 -0.405995 0
0.486720 0.104853 0.689904 0
-0.942316 0.073017 0.288466 0
0.468140 0.026641 -0.173562 0
-0.151818 0.064394 1.124350 0
-0.484696 0.040126 -0.331616 0
0.641030 0.037745 0.357966 0
0.180364 0.024285 -0.387806 0
0.312170 0.050686 0.957834 0
-0.869535 0.065287 -0.015985 0
0.604503 0.032022 -0.003935 0
-0.222231 0.042970 -0.441755 0
0.603642 0.041079 0.609014 0
0.396605 0.026291 -0.297684 0
0.047723 0.072888 1.137726 0
-0.697494 0.035170 -0.275076 0
0.683480 0.037190 0.212147 0
-0.032988 0.028789 0.236238 0
-0.112371 0.028587 0.207584 0
0.078566 0.025102 0.193632 0
-0.109863 0.029234 0.370561 0
-0.069634 0.029975 0.080269 0
0.120962 0.025890 0.327779 0
-0.255069 0.026490 0.282964 0
0.103983 0.023208 0.067290 0
-0.019325 0.035106 0.472821 0
-0.217831 0.032102 0.073010 0
0.223108 0.025475 0.226601 0
-0.262680 0.041346 0.440782 0
0.002763 0.025250 -0.036937 0
0.146154 0.036340 0.460423 0
-0.365113 0.035679 0.190993 0
0.231149 0.020889 0.068809 0
-0.137785 0.042470 0.575890 0
-0.185857 0.021172 -0.057127 0
0.285397 0.024567 0.338002 0
-0.422378 0.032305 0.403064 0
0.129390 0.022276 -0.078181 0
0.075722 0.040992 0.596705 0
-0.387384 0.035989 0.045674 0
0.336700 0.031235 0.143759 0
-0.307103 0.051077 0.605479 0
-0.071385 0.021570 -0.153146 0
0.280546 0.033224 0.483650 0
-0.530067 0.032200 0.275338 0
0.267555 0.023779 -0.051398 0
-0.073346 0.038323 0.710044 0
-0.328965 0.021710 -0.104912 0
0.398072 0.032688 0.273553 0
-0.491255 0.049490 0.551935 0
0.082806 0.020445 -0.192493 0
0.200534 0.033636 0.644088 0
-0.563357 0.021253 0.096043 0
0.388375 0.028467 0.036291 0
-0.281270 0.034579 0.765303 0
-0.191229 0.019793 -0.223004 0
0.401972 0.033553 0.440573 0
-0.636508 0.046699 0.409086 0
0.248039 0.028564 -0.167812 0
0.047814 0.045165 0.781586 0
-0.493476 0.021522 -0.094580 0
0.471163 0.034110 0.174880 0
-0.511037 0.034050 0.729605 0
-0.004732 0.035758 -0.281001 0
0.336498 0.038953 0.624026 0
-0.714800 0.023235 0.204577 0
0.394941 0.028283 -0.082486 0
-0.182021 0.032979 0.883788 0
-0.345024 0.017943 -0.251355 0
0.500100 0.034965 0.354183 0
-0.697681 0.050702 0.582060 0
0.182973 0.025788 -0.274887 0
0.189907 0.031916 0.809256 0
-0.661377 0.029078 -0.029545 0
0.507080 0.031351 0.056614 0
-0.452256 0.031066 0.892812 0
-0.142134 0.019830 -0.345746 0
0.461135 0.027218 0.563715 0
-0.827117 0.035774 0.361495 0
0.361059 0.026626 -0.202417 0
-0.032846 0.041174 0.947220 0
-0.522064 0.018762 -0.234636 0
0.568531 0.035435 0.239733 0
0.082066 0.033353 -0.364983 0
0.344297 0.046584 0.766268 0
-0.809487 0.051234 0.087881 0
0.506642 0.032127 -0.071664 0
-0.325720 0.036647 1.018069 0
-0.307778 0.017170 -0.376273 0
0.565514 0.037348 0.456365 0
0.290200 0.028804 -0.315713 0
0.134750 0.031839 0.968473 0
-0.690308 0.047398 -0.166808 0
0.604279 0.032741 0.108612 0
-0.062028 0.018111 -0.437458 0
0.485468 0.075333 0.671121 0
0.470156 0.024012 -0.201566 0
-0.154972 0.038204 1.096689 0
-0.487224 0.034392 -0.363577 0
0.640739 0.037314 0.328016 0
0.183485 0.028905 -0.416367 0
0.314004 0.052641 0.913570 0
-0.874388 0.054272 -0.047246 0
0.605888 0.032586 -0.031493 0
-0.231944 0.022473 -0.477512 0
0.603074 0.029641 0.580506 0
0.399303 0.030148 -0.325504 0
0.044824 0.046740 1.110849 0
-0.701349 0.028076 -0.307561 0
0.684203 0.031647 0.184856 0
-0.034198 0.037913 0.200666 0
-0.113453 0.036735 0.172290 0
0.074813 0.029525 0.159929 0
-0.112062 0.033523 0.334064 0
-0.073929 0.032098 0.047286 0
0.115804 0.025851 0.293887 0
-0.256066 0.032234 0.246663 0
0.099255 0.025223 0.035011 0
-0.024694 0.031955 0.437953 0
-0.224393 0.029531 0.039980 0
0.218977 0.032081 0.192650 0
-0.259587 0.052575 0.400376 0
-0.002791 0.025067 -0.069139 0
0.139733 0.031633 0.426867 0
-0.371382 0.032851 0.157100 0
0.227171 0.028082 0.036475 0
-0.139500 0.045370 0.536632 0
-0.192421 0.019762 -0.090241 0
0.280096 0.028291 0.303491 0
-0.423350 0.035193 0.365508 0
0.124895 0.025651 -0.109851 0
0.073235 0.047378 0.556045 0
-0.395794 0.031557 0.012180 0
0.330734 0.029905 0.112626 0
-0.307330 0.053754 0.565371 0
-0.078312 0.019240 -0.185937 0
0.274694 0.034501 0.447888 0
-0.527251 0.041223 0.237377 0
0.263283 0.029786 -0.082550 0
-0.076159 0.038952 0.669390 0
-0.339226 0.015411 -0.138831 0
0.391358 0.028874 0.242326 0
-0.491082 0.051496 0.512508 0
0.081289 0.033705 -0.223590 0
0.195809 0.037281 0.603987 0
-0.570949 0.018528 0.061300 0
0.383152 0.032660 0.005330 0
-0.273171 0.051077 0.713685 0
-0.198373 0.018853 -0.256626 0
0.395543 0.038034 0.404749 0
-0.647295 0.036134 0.375515 0
0.243597 0.032640 -0.198610 0
0.044610 0.047413 0.738812 0
-0.498868 0.023933 -0.129169 0
0.464673 0.030788 0.144513 0
-0.496260 0.054284 0.676432 0
-0.016732 0.019807 -0.315684 0
0.328803 0.032186 0.589888 0
-0.698252 0.048069 0.163560 0
0.389461 0.026685 -0.112764 0
-0.180197 0.039607 0.834874 0
-0.353773 0.016031 -0.286057 0
0.492804 0.031769 0.322481 0
-0.698705 0.049603 0.542927 0
0.179383 0.033081 -0.305697 0
0.187423 0.044619 0.759667 0
-0.669605 0.027724 -0.064672 0
0.501082 0.030548 0.026575 0
-0.435785 0.053754 0.832357 0
-0.148795 0.020511 -0.379613 0
0.453601 0.031464 0.525735 0
-0.796802 0.071016 0.313224 0
0.356243 0.028383 -0.232849 0
-0.033745 0.045906 0.898138 0
-0.523785 0.028138 -0.268962 0
0.561488 0.033610 0.209017 0
-0.680073 0.070050 0.719150 0
0.075307 0.030301 -0.398240 0
0.338019 0.052591 0.722453 0
-0.827682 0.038394 0.053879 0
0.501175 0.029933 -0.101340 0
-0.322763 0.040161 0.967101 0
-0.313501 0.021455 -0.410596 0
0.557379 0.036207 0.422961 0
-0.853987 0.085663 0.499580 0
0.284905 0.026846 -0.347351 0
0.127825 0.024280 0.927822 0
-0.714112 0.029795 -0.203078 0
0.597774 0.031784 0.078772 0
-0.064670 0.028338 -0.469370 0
0.476273 0.050754 0.646739 0
0.465419 0.027791 -0.231350 0
-0.161722 0.025532 1.056596 0
-0.504114 0.023793 -0.401331 0
0.632893 0.034978 0.296893 0
0.176911 0.023776 -0.450132 0
0.304651 0.037506 0.880002 0
-0.911457 0.025061 -0.082191 0
0.600256 0.029699 -0.060700 0
-0.240141 0.022508 -0.513151 0
0.593861 0.030578 0.544147 0
0.394518 0.028206 -0.356605 0
0.041283 0.046173 1.061044 0
-0.713471 0.026176 -0.344367 0
0.676789 0.032029 0.154551 0
-0.044886 0.025435 0.172225 0
-0.120665 0.033594 0.141770 0
0.070417 0.034582 0.128628 0
-0.114387 0.040150 0.299810 0
-0.078522 0.035923 0.016409 0
0.113146 0.037419 0.259532 0
-0.256372 0.041712 0.212342 0
0.094799 0.030855 0.004635 0
-0.032483 0.025432 0.407114 0
-0.226890 0.037123 0.008140 0
0.212474 0.030878 0.162830 0
-0.275840 0.031453 0.374395 0
-0.006967 0.031089 -0.099425 0
0.134427 0.034189 0.393400 0
-0.366372 0.050551 0.122057 0
0.221227 0.029067 0.007073 0
-0.145131 0.042743 0.503155 0
-0.189193 0.040307 -0.121390 0
0.273627 0.028852 0.272523 0
-0.430366 0.031568 0.333029 0
0.121215 0.034579 -0.139368 0
0.065879 0.041505 0.524365 0
-0.394298 0.044908 -0.020557 0
0.324296 0.029534 0.083494 0
-0.314637 0.047240 0.532976 0
-0.080654 0.030166 -0.216065 0
0.267115 0.029726 0.417265 0
-0.543993 0.026073 0.207889 0
0.257149 0.029196 -0.111472 0
-0.082247 0.034863 0.634870 0
-0.336660 0.032888 -0.170239 0
0.384412 0.028228 0.212607 0
-0.498284 0.046012 0.479630 0
0.074088 0.031067 -0.253769 0
0.188807 0.034381 0.570478 0
-0.552283 0.052978 0.024979 0
0.376393 0.027439 -0.022810 0
-0.278492 0.046680 0.678396 0
-0.205833 0.019418 -0.288287 0
0.387838 0.034073 0.374688 0
-0.635105 0.056587 0.334617 0
0.237227 0.030381 -0.227871 0
0.035191 0.034549 0.708590 0
-0.494342 0.042428 -0.161214 0
0.458042 0.034462 0.115082 0
-0.497454 0.055303 0.638355 0
-0.018452 0.033708 -0.344675 0
0.320917 0.028314 0.557304 0
-0.719861 0.030636 0.133550 0
0.383529 0.026429 -0.141175 0
-0.185345 0.035301 0.797539 0
-0.345855 0.043629 -0.315085 0
0.485387 0.037807 0.290528 0
-0.702842 0.047839 0.507551 0
0.173045 0.031890 -0.335702 0
0.179601 0.038166 0.725730 0
-0.677744 0.028717 -0.097794 0
0.494685 0.032769 -0.001711 0
-0.442278 0.045697 0.797157 0
-0.155291 0.023591 -0.411262 0
0.445425 0.030434 0.493140 0
-0.828886 0.042298 0.287526 0
0.351126 0.032515 -0.261173 0
-0.038710 0.043561 0.858603 0
-0.521624 0.044667 -0.300181 0
0.554071 0.031389 0.180579 0
-0.705269 0.041289 0.696921 0
0.068487 0.029574 -0.429433 0
0.328948 0.041877 0.691934 0
-0.813505 0.062432 0.018028 0
0.495132 0.025687 -0.129209 0
-0.329903 0.030063 0.931109 0
-0.312895 0.038441 -0.440261 0
0.548946 0.035880 0.391898 0
-0.862410 0.079884 0.466512 0
0.279661 0.029038 -0.376599 0
0.127494 0.043786 0.872667 0
-0.726581 0.027740 -0.237023 0
0.590831 0.031872 0.050844 0
-0.070950 0.031611 -0.500999 0
0.466866 0.034223 0.620383 0
0.460059 0.029642 -0.259367 0
-0.152847 0.049335 0.992798 0
-0.501568 0.042516 -0.431620 0
0.624483 0.037091 0.266880 0
0.171767 0.027475 -0.480254 0
0.296098 0.031619 0.843701 0
-0.925526 0.021715 -0.116459 0
0.593956 0.031713 -0.088201 0
-0.253736 0.014293 -0.549577 0
0.584309 0.036462 0.508648 0
0.389801 0.033209 -0.384788 0
0.033488 0.036643 1.023437 0
-0.706654 0.048319 -0.375318 0
0.668880 0.034556 0.126046 0
-0.050164 0.032204 0.144161 0
-0.131328 0.027870 0.115828 0
0.057956 0.020522 0.104732 0
-0.127780 0.027504 0.275697 0
-0.092070 0.023408 -0.009020 0
0.104961 0.036579 0.233185 0
-0.275010 0.022395 0.188902 0
0.086133 0.028438 -0.020914 0
-0.040955 0.023434 0.379442 0
-0.242796 0.023432 -0.017895 0
0.202492 0.022139 0.138656 0
-0.284328 0.029665 0.346229 0
-0.019481 0.019599 -0.125619 0
0.126114 0.033253 0.366109 0
-0.389190 0.028010 0.097934 0
0.211985 0.022547 -0.017663 0
-0.153804 0.039549 0.475070 0
-0.210577 0.015549 -0.148757 0
0.265591 0.030399 0.245920 0
-0.440748 0.027658 0.305235 0
0.108043 0.016005 -0.165477 0
0.056330 0.036127 0.497555 0
-0.417942 0.023009 -0.047063 0
0.315638 0.025003 0.059086 0
-0.328618 0.034959 0.508190 0
-0.094913 0.017011 -0.243995 0
0.258282 0.028313 0.390257 0
-0.556376 0.021282 0.180069 0
0.247723 0.019724 -0.136535 0
-0.089376 0.034886 0.603894 0
-0.357643 0.014514 -0.199095 0
0.376116 0.029791 0.186862 0
-0.510301 0.038886 0.452378 0
0.061338 0.016171 -0.281569 0
0.182182 0.041748 0.537656 0
-0.583322 0.025330 -0.000887 0
0.368255 0.023847 -0.047127 0
-0.286275 0.043908 0.648021 0
-0.218225 0.013863 -0.317027 0
0.378729 0.032536 0.348535 0
-0.664265 0.030838 0.313063 0
0.228728 0.025250 -0.253600 0
0.027131 0.033278 0.677490 0
-0.521387 0.019846 -0.190758 0
0.449504 0.029762 0.091275 0
-0.519852 0.032365 0.618331 0
-0.033759 0.015981 -0.374841 0
0.312708 0.034491 0.525519 0
-0.730840 0.029673 0.104466 0
0.375959 0.024607 -0.165665 0
-0.193013 0.032544 0.765583 0
-0.375562 0.012527 -0.348412 0
0.476112 0.031779 0.266627 0
-0.712525 0.044553 0.478057 0
0.163096 0.022271 -0.363337 0
0.172717 0.044583 0.690373 0
-0.693386 0.024097 -0.127149 0
0.486781 0.031661 -0.025584 0
-0.465831 0.018523 0.779862 0
-0.168004 0.016937 -0.441237 0
0.436100 0.035629 0.463192 0
-0.841848 0.038367 0.258695 0
0.343283 0.026378 -0.286622 0
-0.043454 0.049101 0.820584 0
-0.551890 0.019840 -0.333137 0
0.545223 0.032072 0.155911 0
-0.708260 0.044020 0.662389 0
0.057005 0.018962 -0.459172 0
0.318206 0.033043 0.665856 0
-0.857587 0.028370 -0.008454 0
0.487729 0.024260 -0.153148 0
-0.335232 0.029695 0.895081 0
-0.337939 0.014443 -0.475495 0
0.539122 0.038174 0.364817 0
0.271139 0.020609 -0.403962 0
0.118661 0.041420 0.839827 0
-0.712632 0.059119 -0.264210 0
0.582545 0.031662 0.027147 0
-0.616802 0.066769 0.823076 0
-0.086022 0.017341 -0.533726 0
0.456259 0.027858 0.593985 0
0.453258 0.030410 -0.283516 0
-0.167687 0.030585 0.969689 0
-0.519304 0.035434 -0.463734 0
0.615153 0.033082 0.243039 0
0.162165 0.018807 -0.509692 0
0.295883 0.087281 0.774407 0
-0.945113 0.016195 -0.147243 0
0.586580 0.026530 -0.111532 0
-0.477712 0.073479 0.960299 0
-0.257273 0.027761 -0.576015 0
0.573901 0.029263 0.484028 0
0.382443 0.025454 -0.411438 0
0.027341 0.040286 0.982957 0
-0.743617 0.022284 -0.411437 0
0.660089 0.032864 0.102584 0
-0.071151 0.026244 0.126381 0
-0.153254 0.022044 0.097692 0
0.044609 0.034514 0.083982 0
-0.140319 0.041273 0.253133 0
-0.107045 0.032866 -0.028888 0
0.088532 0.040555 0.213637 0
-0.281852 0.046392 0.164903 0
0.069158 0.031050 -0.039795 0
-0.052467 0.040368 0.354628 0
-0.257095 0.035008 -0.038277 0
0.187294 0.031546 0.118598 0
-0.294250 0.047166 0.321731 0
-0.037690 0.020801 -0.145096 0
0.106613 0.026843 0.349106 0
-0.397343 0.049233 0.075457 0
0.194421 0.021110 -0.036018 0
-0.163563 0.057795 0.448443 0
-0.220502 0.036184 -0.168480 0
0.247695 0.027408 0.228059 0
-0.445078 0.053110 0.278940 0
0.089658 0.013950 -0.184787 0
0.040569 0.042081 0.475421 0
-0.427560 0.042874 -0.068192 0
0.298612 0.024839 0.040952 0
-0.342017 0.045472 0.484412 0
-0.110264 0.026525 -0.263558 0
0.241279 0.030996 0.370095 0
-0.579636 0.021813 0.160349 0
0.231061 0.021276 -0.155067 0
-0.098439 0.055586 0.573697 0
-0.384736 0.007186 -0.220874 0
0.359047 0.030375 0.168479 0
-0.512887 0.064919 0.423349 0
0.043077 0.015733 -0.301628 0
0.162572 0.033644 0.521231 0
-0.611625 0.021019 -0.021112 0
0.351478 0.023198 -0.065095 0
-0.295385 0.060896 0.619260 0
-0.227663 0.036169 -0.335423 0
0.360513 0.026127 0.331554 0
-0.684001 0.036414 0.292257 0
0.211781 0.024950 -0.272622 0
0.014508 0.047730 0.648831 0
-0.543091 0.024256 -0.212334 0
0.432614 0.029934 0.073381 0
-0.536135 0.038830 0.595647 0
-0.048349 0.027236 -0.393915 0
0.294697 0.032617 0.506182 0
-0.760437 0.026405 0.084772 0
0.359729 0.026160 -0.183699 0
-0.208103 0.038818 0.740757 0
-0.398423 0.013307 -0.371036 0
0.458727 0.032284 0.248012 0
-0.740732 0.039747 0.461164 0
0.145868 0.022338 -0.383277 0
0.155626 0.046637 0.667987 0
-0.718901 0.026440 -0.148989 0
0.470184 0.030318 -0.043078 0
-0.481504 0.024757 0.755562 0
-0.182121 0.030382 -0.460644 0
0.418643 0.040375 0.441593 0
-0.879876 0.027492 0.242015 0
0.326805 0.024780 -0.305413 0
-0.063030 0.044316 0.801759 0
-0.580168 0.016998 -0.357016 0
0.528034 0.031024 0.138211 0
-0.707459 0.071044 0.628961 0
0.038588 0.018205 -0.480681 0
0.300140 0.032476 0.644707 0
-0.898273 0.017164 -0.029029 0
0.471479 0.023717 -0.170823 0
-0.351212 0.034025 0.870373 0
-0.349562 0.033582 -0.494556 0
0.521285 0.037132 0.346144 0
0.255000 0.022465 -0.423230 0
0.102310 0.045870 0.814231 0
-0.773838 0.022524 -0.291419 0
0.565746 0.032020 0.009712 0
-0.632433 0.072844 0.799338 0
-0.100580 0.029472 -0.553139 0
0.437691 0.024218 0.574695 0
0.437281 0.028341 -0.301786 0
-0.184475 0.032675 0.944981 0
-0.561292 0.014011 -0.493816 0
0.597304 0.036269 0.224049 0
0.145063 0.019169 -0.530716 0
0.267923 0.029137 0.788559 0
-0.972461 0.021424 -0.170185 0
0.570277 0.025862 -0.128796 0
-0.513259 0.050241 0.956419 0
-0.287493 0.013266 -0.605290 0
0.555329 0.033948 0.462051 0
0.366398 0.023509 -0.430863 0
0.006445 0.031051 0.965744 0
-0.773945 0.022233 -0.436887 0
0.642766 0.033481 0.085030 0
-0.100399 0.023954 0.119324 0
-0.183814 0.019699 0.090378 0
0.014866 0.026046 0.077587 0
-0.178902 0.021585 0.251547 0
-0.137914 0.027790 -0.036976 0
0.058433 0.029108 0.209214 0
-0.315623 0.042026 0.158709 0
0.042861 0.031387 -0.047952 0
-0.083426 0.033411 0.350580 0
-0.296934 0.019082 -0.046162 0
0.160380 0.026278 0.112052 0
-0.336850 0.028329 0.321558 0
-0.067880 0.014597 -0.154298 0
0.079250 0.024428 0.343099 0
-0.445470 0.027116 0.070592 0
0.167905 0.016699 -0.043715 0
-0.204102 0.035511 0.451772 0
-0.253669 0.030689 -0.178454 0
0.221881 0.025628 0.221267 0
-0.482068 0.049206 0.274095 0
0.065071 0.019216 -0.193481 0
0.008609 0.028569 0.474727 0
-0.462792 0.041257 -0.077465 0
0.273751 0.024784 0.033410 0
-0.383024 0.031520 0.485493 0
-0.141583 0.020403 -0.274399 0
0.213845 0.022828 0.365779 0
-0.592426 0.053529 0.147193 0
0.206213 0.021775 -0.163355 0
-0.130913 0.046992 0.572535 0
-0.409155 0.021525 -0.230834 0
0.334003 0.028318 0.161553 0
-0.568406 0.038460 0.428992 0
0.017409 0.018389 -0.311150 0
0.136471 0.034572 0.514133 0
-0.637554 0.036682 -0.031379 0
0.326943 0.022282 -0.072758 0
-0.344976 0.030371 0.630942 0
-0.260361 0.031739 -0.347500 0
0.336323 0.033558 0.321943 0
-0.725620 0.034426 0.287287 0
0.186170 0.021695 -0.281856 0
-0.015423 0.041248 0.646488 0
-0.564619 0.044661 -0.222386 0
0.408058 0.027462 0.066336 0
-0.561684 0.052721 0.585594 0
-0.077250 0.023905 -0.405560 0
0.269346 0.034326 0.498230 0
-0.781263 0.049980 0.073471 0
0.336136 0.029760 -0.191490 0
-0.237535 0.040389 0.735504 0
-0.417586 0.035860 -0.379841 0
0.433586 0.025468 0.242311 0
-0.785080 0.036199 0.459055 0
0.119052 0.016888 -0.394126 0
0.124477 0.029613 0.670664 0
-0.739386 0.050237 -0.159588 0
0.446056 0.027808 -0.050338 0
-0.512625 0.030180 0.749725 0
-0.210631 0.032378 -0.472610 0
0.393200 0.036538 0.435527 0
-0.924158 0.028687 0.235776 0
0.302906 0.025464 -0.313835 0
-0.092379 0.042228 0.797941 0
-0.595849 0.045706 -0.365774 0
0.503659 0.031889 0.130713 0
-0.774517 0.040836 0.643252 0
0.011235 0.015517 -0.492576 0
0.275392 0.039101 0.633818 0
-0.941480 0.020509 -0.039130 0
0.447736 0.024053 -0.178376 0
-0.381709 0.037226 0.865291 0
-0.386462 0.026830 -0.510274 0
0.496354 0.033591 0.339625 0
0.231819 0.027874 -0.431553 0
0.069522 0.027456 0.819778 0
-0.798878 0.042357 -0.302518 0
0.541730 0.030307 0.002644 0
-0.128387 0.030227 -0.565743 0
0.412820 0.033605 0.562282 0
0.413747 0.027458 -0.309863 0
-0.216541 0.028829 0.943689 0
-0.603436 0.008197 -0.510734 0
0.572828 0.031716 0.217621 0
0.120290 0.020450 -0.541230 0
0.242428 0.033434 0.778349 0
-0.988697 0.052676 -0.181302 0
0.546552 0.024755 -0.136021 0
-0.310564 0.028106 -0.615194 0
0.530080 0.028733 0.456042 0
0.343232 0.026460 -0.439053 0
-0.023277 0.026826 0.963114 0
-0.789420 0.052735 -0.445954 0
0.618431 0.033567 0.077791 0
-0.130241 0.020297 0.122819 0
-0.211760 0.022821 0.092806 0
-0.011359 0.027324 0.079679 0
-0.205817 0.026470 0.254510 0
-0.169724 0.021376 -0.034825 0
0.028357 0.017423 0.214832 0
-0.351843 0.034323 0.164183 0
0.011617 0.017444 -0.045771 0
-0.114832 0.025121 0.357862 0
-0.324548 0.025767 -0.044625 0
0.134910 0.025222 0.114281 0
-0.366710 0.031898 0.326106 0
-0.093223 0.020809 -0.153339 0
0.051155 0.017647 0.348884 0
-0.475679 0.033136 0.073175 0
0.142858 0.017745 -0.042469 0
-0.230583 0.041377 0.455549 0
-0.286562 0.026672 -0.177961 0
0.196557 0.022658 0.224303 0
-0.537935 0.020338 0.288084 0
0.037290 0.014853 -0.193098 0
-0.016448 0.032660 0.477897 0
-0.507375 0.027242 -0.075235 0
0.249355 0.024733 0.034855 0
-0.416388 0.030778 0.493450 0
-0.171848 0.017713 -0.274768 0
0.189556 0.024569 0.368183 0
-0.655251 0.022207 0.158000 0
0.182118 0.025550 -0.162510 0
-0.165147 0.034360 0.585331 0
-0.442894 0.021501 -0.230757 0
0.309941 0.027452 0.163418 0
-0.617742 0.022655 0.443343 0
-0.007286 0.024466 -0.310522 0
0.110689 0.032275 0.519354 0
-0.681289 0.030809 -0.028447 0
0.302526 0.020623 -0.071694 0
-0.384839 0.017829 0.646368 0
-0.301534 0.013304 -0.351234 0
0.310302 0.018396 0.328776 0
-0.774303 0.025960 0.296927 0
0.161078 0.022115 -0.281585 0
-0.047107 0.028471 0.659560 0
-0.605588 0.039645 -0.222670 0
0.384476 0.028312 0.067452 0
-0.609709 0.038282 0.603088 0
-0.105758 0.022899 -0.406714 0
0.244734 0.031569 0.502606 0
-0.832160 0.041305 0.079021 0
0.311641 0.026806 -0.190974 0
-0.269513 0.036733 0.746671 0
-0.463707 0.017593 -0.384621 0
0.409996 0.024743 0.244005 0
-0.822741 0.041719 0.466889 0
0.094391 0.021077 -0.393770 0
0.099931 0.031983 0.674496 0
-0.797366 0.032214 -0.159167 0
0.422315 0.025807 -0.049314 0
-0.548789 0.029466 0.761897 0
-0.244505 0.025046 -0.476247 0
0.368235 0.022391 0.443154 0
-0.962378 0.037349 0.240923 0
0.278119 0.022913 -0.313909 0
-0.129657 0.020662 0.819850 0
-0.655382 0.018734 -0.372112 0
0.480224 0.028509 0.132376 0
-0.013562 0.021743 -0.492278 0
0.249143 0.026841 0.643916 0
-0.980132 0.029279 -0.036789 0
0.424006 0.023727 -0.177688 0
-0.431278 0.011196 0.894955 0
-0.421896 0.023534 -0.513959 0
0.472827 0.025319 0.343640 0
0.205833 0.022586 -0.432974 0
0.039494 0.014608 0.834613 0
-0.862183 0.021279 -0.306402 0
0.518375 0.031367 0.003396 0
-0.160211 0.023740 -0.570031 0
0.388090 0.018963 0.571533 0
0.390008 0.028294 -0.309330 0
-0.254508 0.013154 0.965844 0
-0.627024 0.026825 -0.509360 0
0.549667 0.027386 0.219538 0
0.095662 0.024750 -0.541155 0
0.214005 0.013381 0.795363 0
0.523045 0.025493 -0.135279 0
-0.332463 0.044830 -0.613079 0
0.506827 0.023856 0.459305 0
0.318550 0.022957 -0.439831 0
-0.050729 0.025220 0.972785 0
-0.868067 0.015162 -0.457864 0
0.595196 0.032638 0.078628 0
-0.159645 0.017940 0.143248 0
-0.242194 0.021565 0.113392 0
-0.038566 0.025568 0.098391 0
-0.233659 0.029234 0.276089 0
-0.196602 0.026380 -0.016498 0
0.006639 0.028441 0.231644 0
-0.385499 0.032251 0.187153 0
-0.015153 0.017446 -0.028497 0
-0.141858 0.025852 0.380333 0
-0.355427 0.027884 -0.025053 0
0.109917 0.023838 0.131985 0
-0.401078 0.028969 0.352198 0
-0.120078 0.024498 -0.136158 0
0.026090 0.016957 0.369828 0
-0.513962 0.028939 0.096194 0
0.117253 0.016542 -0.026066 0
-0.262550 0.036312 0.483196 0
-0.326210 0.012772 -0.160234 0
0.172419 0.020009 0.242782 0
-0.578623 0.015205 0.316091 0
0.011519 0.018409 -0.176820 0
-0.039801 0.037488 0.498971 0
-0.538931 0.033552 -0.054861 0
0.226108 0.027722 0.050416 0
-0.447376 0.034590 0.520431 0
-0.201949 0.017506 -0.258047 0
0.165585 0.020227 0.388965 0
-0.690250 0.028265 0.182186 0
0.155036 0.018565 -0.147279 0
-0.195070 0.029743 0.614482 0
-0.477587 0.021731 -0.212239 0
0.287460 0.028822 0.179324 0
-0.650437 0.030547 0.470477 0
-0.038308 0.016068 -0.295825 0
0.087191 0.031143 0.541888 0
-0.722248 0.030436 -0.005826 0
0.278319 0.019761 -0.056664 0
-0.423263 0.008820 0.682424 0
-0.332380 0.015849 -0.334042 0
0.288004 0.016453 0.346935 0
-0.813704 0.030658 0.324753 0
0.135653 0.024485 -0.266332 0
-0.075000 0.021969 0.689501 0
-0.645316 0.038136 -0.203425 0
0.361945 0.029965 0.082156 0
-0.651670 0.034398 0.638696 0
-0.135792 0.021352 -0.391360 0
0.222377 0.027794 0.524302 0
-0.875868 0.042913 0.104352 0
0.286245 0.021502 -0.176710 0
-0.304710 0.026825 0.784187 0
-0.496108 0.021958 -0.366729 0
0.388635 0.027567 0.259029 0
-0.894343 0.014634 0.511991 0
0.066742 0.019337 -0.379100 0
0.075604 0.026700 0.701833 0
-0.838497 0.035114 -0.137734 0
0.398695 0.021436 -0.034880 0
-0.587458 0.027298 0.799483 0
-0.280704 0.016417 -0.462523 0
0.348201 0.028943 0.458422 0
-1.007162 0.042272 0.269710 0
0.253237 0.025625 -0.299201 0
-0.148305 0.037461 0.839277 0
-0.696115 0.017640 -0.354250 0
0.458407 0.030017 0.146500 0
-0.043313 0.018538 -0.478014 0
0.227309 0.022300 0.668085 0
-1.028887 0.030372 -0.012118 0
0.399735 0.020637 -0.163920 0
-0.464810 0.011369 0.932093 0
-0.456494 0.023613 -0.497976 0
0.452253 0.027440 0.358709 0
0.181086 0.029522 -0.417089 0
0.021080 0.028638 0.853233 0
-0.903182 0.025970 -0.286153 0
0.495899 0.033751 0.016731 0
-0.195051 0.014801 -0.557553 0
0.368435 0.022279 0.588850 0
0.364969 0.026058 -0.295760 0
-0.286269 0.008064 1.005413 0
-0.675459 0.015278 -0.495797 0
0.528545 0.024636 0.234371 0
0.066772 0.020679 -0.527626 0
0.195653 0.024234 0.812902 0
0.499547 0.024842 -0.121984 0
-0.380321 0.020605 -0.606044 0
0.487053 0.025332 0.474961 0
0.293024 0.024866 -0.425320 0
-0.074030 0.027798 1.002956 0
-0.912999 0.015750 -0.439902 0
0.573380 0.030439 0.092089 0
-0.180622 0.021401 0.172702 0
-0.265520 0.022497 0.143529 0
-0.059005 0.026487 0.126904 0
-0.257769 0.029336 0.308533 0
-0.219535 0.025937 0.012045 0
-0.013465 0.028983 0.261385 0
-0.410625 0.034598 0.218850 0
-0.031676 0.027814 -0.001872 0
-0.161933 0.031723 0.411657 0
-0.381256 0.026734 0.004375 0
0.091971 0.027667 0.159262 0
-0.425255 0.034494 0.385545 0
-0.142729 0.021858 -0.108971 0
0.010173 0.029088 0.397398 0
-0.541728 0.030241 0.127824 0
0.098872 0.019229 0.000445 0
-0.287383 0.037318 0.519242 0
-0.342170 0.026650 -0.131958 0
0.153980 0.019674 0.271687 0
-0.607431 0.018855 0.351203 0
-0.008910 0.017488 -0.150428 0
-0.062666 0.033355 0.535367 0
-0.568550 0.031709 -0.024770 0
0.207464 0.024937 0.077240 0
-0.476280 0.035779 0.559094 0
-0.222950 0.019813 -0.230900 0
0.148420 0.024520 0.418240 0
-0.722010 0.030074 0.216298 0
0.135368 0.015782 -0.121423 0
-0.217543 0.033595 0.651158 0
-0.501054 0.025675 -0.183740 0
0.269423 0.024419 0.207427 0
-0.683493 0.032385 0.509834 0
-0.059610 0.013946 -0.269791 0
0.068718 0.033400 0.574930 0
-0.751944 0.033637 0.025568 0
0.260907 0.022802 -0.031256 0
-0.451373 0.011709 0.723900 0
-0.357542 0.013109 -0.307225 0
0.271873 0.021433 0.374461 0
-0.851129 0.031065 0.362971 0
0.115806 0.021788 -0.241031 0
-0.095404 0.026204 0.726204 0
-0.671907 0.041356 -0.174425 0
0.344602 0.026962 0.108384 0
-0.685578 0.036837 0.681802 0
-0.155744 0.023873 -0.364631 0
0.205372 0.029092 0.556125 0
-0.909777 0.046408 0.138036 0
0.268160 0.022007 -0.151597 0
-0.330380 0.029989 0.826466 0
-0.522700 0.020594 -0.339479 0
0.372170 0.025417 0.286786 0
-0.900605 0.050745 0.539272 0
0.048039 0.022129 -0.352906 0
0.055956 0.025878 0.739939 0
-0.874971 0.032527 -0.107162 0
0.381570 0.022741 -0.009987 0
-0.621756 0.028499 0.847038 0
-0.296687 0.027862 -0.433392 0
0.332026 0.027267 0.489188 0
0.234218 0.023168 -0.274420 0
-0.176499 0.028666 0.889134 0
-0.724633 0.018347 -0.325929 0
0.442085 0.027593 0.172550 0
-0.062335 0.021663 -0.451185 0
0.210193 0.021908 0.703471 0
0.382220 0.022602 -0.139280 0
-0.503141 0.002904 0.989258 0
-0.479066 0.026128 -0.470456 0
0.436775 0.025890 0.387001 0
0.160763 0.024025 -0.392788 0
-0.001077 0.023807 0.898579 0
-0.937883 0.025272 -0.256864 0
0.479283 0.031227 0.041474 0
-0.214785 0.017941 -0.530083 0
0.353017 0.022122 0.621009 0
0.346712 0.025371 -0.271205 0
-0.314298 0.007890 1.056247 0
-0.700697 0.018178 -0.467598 0
0.513113 0.029574 0.258932 0
0.047615 0.022035 -0.501285 0
0.178559 0.025029 0.851133 0
0.482299 0.024926 -0.097847 0
-0.407544 0.013685 -0.581351 0
0.472251 0.020870 0.505856 0
0.274022 0.023061 -0.400549 0
-0.098546 0.023355 1.054062 0
-0.942858 0.018556 -0.411021 0
0.557379 0.032583 0.116140 0
-0.196639 0.022042 0.208724 0
-0.281681 0.024673 0.179552 0
-0.073930 0.026116 0.161531 0
-0.279444 0.022306 0.349480 0
-0.232341 0.032723 0.045915 0
-0.032061 0.017734 0.300405 0
-0.443251 0.015081 0.262401 0
-0.047578 0.023912 0.031660 0
-0.182752 0.023027 0.454672 0
-0.394559 0.034610 0.039242 0
0.078840 0.027926 0.192889 0
-0.453414 0.023814 0.431131 0
-0.159604 0.018386 -0.075565 0
-0.006145 0.022907 0.437497 0
-0.560799 0.033382 0.165550 0
0.085843 0.020298 0.032701 0
-0.311709 0.028238 0.566510 0
-0.361147 0.023596 -0.097533 0
0.140224 0.014861 0.307734 0
-0.627112 0.024750 0.391992 0
-0.020737 0.023808 -0.118103 0
-0.081539 0.024594 0.580652 0
-0.581894 0.041352 0.011051 0
0.193433 0.017615 0.110417 0
-0.513985 0.015063 0.615314 0
-0.237331 0.022255 -0.197442 0
0.137025 0.027900 0.453793 0
-0.740784 0.037723 0.255528 0
0.123543 0.021083 -0.089985 0
-0.239721 0.026118 0.700819 0
-0.521384 0.023346 -0.148691 0
0.257079 0.020064 0.241300 0
-0.708997 0.034583 0.555744 0
-0.069122 0.026109 -0.236404 0
0.053301 0.026479 0.619010 0
-0.775280 0.034522 0.064006 0
0.248835 0.024219 -0.000405 0
-0.465619 0.025494 0.765884 0
-0.370053 0.019737 -0.272499 0
0.260409 0.018985 0.410380 0
-0.867410 0.045065 0.403119 0
0.101699 0.019634 -0.209866 0
-0.106413 0.037914 0.765247 0
-0.693172 0.040975 -0.138509 0
0.332835 0.023722 0.140159 0
-0.727523 0.021659 0.742187 0
-0.172601 0.019512 -0.332515 0
0.194254 0.029748 0.594637 0
-0.960665 0.024224 0.183788 0
0.255058 0.019703 -0.121102 0
-0.356032 0.022838 0.883074 0
-0.538234 0.023847 -0.304344 0
0.362018 0.027622 0.318977 0
0.034585 0.023280 -0.321033 0
0.041974 0.023943 0.785900 0
-0.893029 0.039500 -0.069450 0
0.369375 0.017954 0.020693 0
-0.655180 0.022691 0.907034 0
-0.315314 0.022257 -0.401010 0
0.320455 0.015561 0.530606 0
0.221959 0.027335 -0.243471 0
-0.197893 0.021984 0.945769 0
-0.744528 0.018854 -0.289990 0
0.431555 0.026338 0.203803 0
-0.075731 0.023666 -0.418261 0
0.200849 0.028857 0.741540 0
-1.090767 0.038123 0.061287 0
0.369997 0.022962 -0.109494 0
-0.529988 0.002380 1.049072 0
-0.498323 0.022295 -0.436889 0
0.427114 0.021682 0.422165 0
0.147329 0.024451 -0.361508 0
-0.016462 0.021178 0.950432 0
-0.956039 0.031177 -0.219192 0
0.468160 0.027160 0.071644 0
-0.227598 0.021646 -0.495563 0
0.345189 0.032980 0.653979 0
0.334569 0.030903 -0.240825 0
-0.330333 0.018043 1.107124 0
-0.719319 0.018328 -0.432018 0
0.503541 0.025836 0.291199 0
-1.091163 0.117842 0.762433 0
0.032412 0.018103 -0.469977 0
0.166090 0.019314 0.901422 0
0.470756 0.031437 -0.068891 0
-0.420449 0.017783 -0.545495 0
0.463942 0.023844 0.539787 0
0.260454 0.022270 -0.369984 0
-0.112397 0.029838 1.104952 0
-0.966403 0.017368 -0.374477 0
0.547237 0.029499 0.146206 0
-0.208365 0.019507 0.253376 0
-0.294302 0.022460 0.224553 0
-0.083773 0.024442 0.203893 0
-0.290675 0.023263 0.396359 0
-0.245809 0.027248 0.088971 0
-0.041804 0.014699 0.344999 0
-0.449930 0.025712 0.307016 0
-0.056269 0.024788 0.072004 0
-0.188508 0.032796 0.498727 0
-0.409967 0.029528 0.083791 0
0.070387 0.025306 0.234215 0
-0.462996 0.031440 0.478872 0
-0.168313 0.020909 -0.034734 0
-0.012251 0.028166 0.481080 0
-0.575092 0.034095 0.212522 0
0.078304 0.022104 0.071649 0
-0.329560 0.019625 0.623051 0
-0.366474 0.033455 -0.055238 0
0.134846 0.019778 0.348069 0
-0.646945 0.021737 0.445162 0
-0.030580 0.021727 -0.078734 0
-0.085818 0.035806 0.624766 0
-0.600945 0.034862 0.057179 0
0.188567 0.027123 0.147493 0
-0.519202 0.031274 0.662898 0
-0.247495 0.022394 -0.156259 0
0.130542 0.026575 0.498622 0
