ply
format ascii 1.0
element vertex 1595
property float x
property float y
property float z
property uchar label
end_header
-0.215421 0.046257 1.109734 0
-0.831037 0.042598 -0.089346 0
0.357795 0.035787 0.302335 0
-0.190196 0.030129 -0.270228 0
0.164641 0.014110 0.887380 0
0.272153 0.034821 -0.004071 0
-0.138136 0.633282 0.693056 0
-0.605687 0.033006 -0.253603 0
0.371349 0.034680 0.521900 0
-1.014017 0.243989 0.698009 0
0.031723 0.025382 -0.233536 0
-0.034291 0.036786 1.104894 0
-1.046190 0.045755 -0.002571 0
0.383096 0.030550 0.168177 0
-0.345539 0.645651 0.683403 0
-0.347635 0.022576 -0.334069 0
0.308364 0.047010 0.764774 0
0.224998 0.027037 -0.130753 0
0.000996 0.676153 0.685228 0
-0.814630 0.039984 -0.229686 0
0.436569 0.037546 0.383285 0
-0.085046 0.030886 -0.328015 0
0.141925 0.007687 1.057864 0
0.374318 0.037346 0.027668 0
-0.143865 0.771286 0.640629 0
-0.529794 0.036129 -0.363760 0
0.417805 0.030690 0.641248 0
0.145032 0.034886 -0.249661 0
0.108015 0.637885 0.714734 0
-1.056383 0.038374 -0.153678 0
0.467924 0.032602 0.236054 0
-0.293745 0.020653 0.358340 0
-0.380889 0.025531 0.335021 0
-0.172068 0.024291 0.299905 0
-0.362154 0.035144 0.503902 0
-0.343874 0.023380 0.196989 0
-0.114957 0.031163 0.432811 0
-0.527158 0.037426 0.426169 0
-0.150712 0.029433 0.165002 0
-0.260520 0.030103 0.605674 0
-0.512525 0.021690 0.204292 0
-0.015855 0.024096 0.319445 0
-0.535082 0.036062 0.602822 0
-0.269550 0.024969 0.066705 0
-0.082164 0.029855 0.572621 0
-0.670185 0.029914 0.345315 0
-0.016195 0.027722 0.155035 0
-0.397817 0.013748 0.744617 0
-0.471494 0.033744 0.060275 0
0.058043 0.026464 0.426373 0
-0.714560 0.037420 0.577654 0
-0.132357 0.031713 0.012946 0
-0.155302 0.017089 0.734608 0
-0.711172 0.023013 0.191835 0
0.097054 0.026631 0.223906 0
-0.596925 0.013744 0.806964 0
-0.353986 0.030204 -0.048811 0
0.063059 0.031464 0.578161 0
-0.833945 0.054312 0.445776 0
0.015665 0.036846 0.028959 0
-0.310481 0.020069 0.874107 0
-0.643262 0.023335 0.022732 0
0.167491 0.015434 0.354202 0
-0.805277 0.030384 0.763632 0
-0.188009 0.034057 -0.100645 0
-0.013669 0.020202 0.761614 0
-0.882418 0.045921 0.255819 0
0.144024 0.030281 0.108870 0
-0.539105 0.023349 0.961183 0
-0.491808 0.027070 -0.112867 0
0.186476 0.033824 0.518609 0
-0.977109 0.041466 0.617590 0
-0.016483 0.027162 -0.087375 0
-0.172272 0.022427 0.935840 0
-0.812900 0.046524 0.045546 0
0.238226 0.032040 0.242196 0
-0.797327 0.038986 0.946987 0
-0.299536 0.022744 -0.187622 0
0.128289 0.020021 0.725294 0
-1.074383 0.029066 0.395872 0
0.142027 0.027802 -0.011562 0
-0.418965 0.019599 1.075744 0
-0.660587 0.033918 -0.131538 0
0.280483 0.034321 0.420172 0
-0.985200 0.099716 0.785549 0
-0.091943 0.026376 -0.192235 0
-0.014083 0.016994 0.937987 0
-1.012424 0.046740 0.131133 0
0.266883 0.036582 0.118682 0
-0.694631 0.065008 1.092310 0
-0.448123 0.022602 -0.244844 0
0.254528 0.023690 0.638989 0
0.101239 0.037194 -0.130006 0
-0.235695 0.050533 1.100776 0
-0.861751 0.036133 -0.101066 0
0.341083 0.030537 0.298888 0
-0.205435 0.032453 -0.278884 0
0.144341 0.012084 0.882962 0
0.257283 0.035068 -0.009429 0
-0.026045 0.818655 0.521068 0
-0.622691 0.038483 -0.264574 0
0.353439 0.028486 0.519477 0
0.017698 0.028243 -0.240577 0
-0.057564 0.031166 1.103732 0
-1.085153 0.036248 -0.014116 0
0.367531 0.032837 0.163039 0
-0.360263 0.031626 -0.342930 0
0.287395 0.025356 0.772097 0
0.210582 0.027238 -0.136589 0
-0.017598 0.668240 0.690107 0
-0.836604 0.042554 -0.242215 0
0.419790 0.037337 0.378677 0
-0.099703 0.032215 -0.336308 0
0.121237 0.008483 1.051192 0
0.359491 0.037893 0.022827 0
-0.151001 0.780766 0.629391 0
-0.554428 0.028665 -0.377180 0
0.399456 0.026881 0.637989 0
0.129569 0.028344 -0.257039 0
0.096032 0.642718 0.707001 0
-1.077951 0.045255 -0.166914 0
0.451903 0.033777 0.231353 0
-0.309081 0.026305 0.347913 0
-0.398769 0.027206 0.325550 0
-0.189647 0.023238 0.291672 0
-0.384763 0.028860 0.497937 0
-0.361466 0.024374 0.187468 0
-0.137206 0.018145 0.429261 0
-0.544120 0.042511 0.415394 0
-0.166510 0.031131 0.156002 0
-0.283628 0.021005 0.601710 0
-0.528657 0.027266 0.193316 0
-0.030755 0.028582 0.310171 0
-0.546391 0.050126 0.587667 0
-0.288302 0.021617 0.057530 0
-0.098750 0.032427 0.563412 0
-0.687112 0.036330 0.333747 0
-0.030577 0.031792 0.146124 0
-0.414016 0.020623 0.732416 0
-0.490876 0.033070 0.049984 0
0.042249 0.028803 0.417748 0
-0.741354 0.032506 0.571089 0
-0.150714 0.025407 0.004278 0
-0.173356 0.018291 0.725701 0
-0.728170 0.029463 0.180001 0
0.080018 0.020105 0.217502 0
-0.604836 0.033597 0.786682 0
-0.374979 0.023857 -0.059054 0
0.045510 0.029292 0.571280 0
-0.878237 0.031940 0.444552 0
-0.002479 0.026197 0.021425 0
-0.333806 0.013433 0.870129 0
-0.656041 0.034208 0.010615 0
0.154121 0.028570 0.342719 0
-0.820950 0.040316 0.749560 0
-0.203609 0.034624 -0.110401 0
-0.032510 0.017622 0.754886 0
-0.902032 0.051276 0.243879 0
0.129654 0.032292 0.100909 0
-0.555915 0.030749 0.947775 0
-0.507037 0.032568 -0.124180 0
0.170255 0.034832 0.510582 0
-1.027557 0.017330 0.620355 0
-0.031906 0.025108 -0.096246 0
-0.194525 0.015438 0.932256 0
-0.845007 0.036484 0.034553 0
0.222709 0.029171 0.235551 0
-0.822786 0.037805 0.940023 0
-0.314996 0.024983 -0.198290 0
0.110806 0.020119 0.717143 0
-1.091180 0.039534 0.382045 0
0.127406 0.026309 -0.019387 0
-0.437690 0.023723 1.064142 0
-0.675935 0.041049 -0.143711 0
0.264820 0.035750 0.412379 0
-0.984251 0.126200 0.761292 0
-0.106268 0.027853 -0.201782 0
-0.034697 0.011011 0.933545 0
-1.056106 0.029982 0.121535 0
0.252528 0.037336 0.111396 0
-0.720891 0.061457 1.087662 0
-0.463872 0.026230 -0.256477 0
0.237405 0.022311 0.631871 0
0.085792 0.030763 -0.138555 0
-0.259984 0.041369 1.099780 0
-0.887673 0.033814 -0.114367 0
0.325972 0.032351 0.291397 0
-0.222807 0.028112 -0.290210 0
0.126768 0.015132 0.872421 0
0.243323 0.034603 -0.016734 0
0.169606 1.112440 0.250578 0
-0.638831 0.043715 -0.277095 0
0.337071 0.027682 0.512439 0
0.003897 0.028830 -0.249720 0
-0.073820 0.039967 1.087616 0
-1.103870 0.044682 -0.028098 0
0.353100 0.035064 0.155842 0
-0.377996 0.029791 -0.355375 0
0.268986 0.017440 0.768559 0
0.196471 0.023644 -0.144529 0
-0.029784 0.669146 0.684402 0
-0.871408 0.029605 -0.258017 0
0.404187 0.035828 0.372255 0
-0.112206 0.037186 -0.345787 0
0.102690 0.010370 1.040612 0
0.345427 0.034241 0.016265 0
-0.170235 0.773398 0.633276 0
-0.571879 0.030787 -0.390414 0
0.382793 0.034506 0.626577 0
0.116998 0.031795 -0.265216 0
0.067517 0.603736 0.738187 0
-1.115846 0.035493 -0.182536 0
0.437025 0.034221 0.224670 0
-0.321966 0.027709 0.336022 0
-0.412636 0.027460 0.313609 0
-0.199175 0.030955 0.278704 0
-0.398602 0.029975 0.485763 0
-0.372185 0.029174 0.174684 0
-0.149323 0.020991 0.417432 0
-0.559874 0.041583 0.403427 0
-0.179327 0.029685 0.145266 0
-0.296570 0.023945 0.588834 0
-0.542765 0.027817 0.180526 0
-0.042891 0.029281 0.299693 0
-0.559636 0.053455 0.573956 0
-0.297244 0.028752 0.045046 0
-0.110318 0.037849 0.550216 0
-0.703108 0.036348 0.320712 0
-0.043230 0.028661 0.136309 0
-0.424836 0.028405 0.716038 0
-0.505189 0.032243 0.037187 0
0.029226 0.027527 0.408099 0
-0.756368 0.034867 0.557130 0
-0.163131 0.023320 -0.006771 0
-0.185264 0.024481 0.710871 0
-0.742574 0.031513 0.165961 0
0.069515 0.024970 0.206705 0
-0.616468 0.040284 0.770148 0
-0.389141 0.021165 -0.071651 0
0.034563 0.038103 0.556982 0
-0.893561 0.034759 0.429960 0
-0.013998 0.024546 0.011224 0
-0.347153 0.017601 0.855219 0
-0.679462 0.023162 -0.002635 0
0.140714 0.022202 0.335035 0
-0.830359 0.049949 0.731033 0
-0.217245 0.029510 -0.122244 0
-0.044379 0.025274 0.739382 0
-0.940448 0.029381 0.234611 0
0.118663 0.032194 0.091410 0
-0.569400 0.035308 0.931800 0
-0.522753 0.029063 -0.137930 0
0.157690 0.036727 0.500045 0
-1.037840 0.026579 0.602113 0
-0.042440 0.025362 -0.106953 0
-0.209723 0.015862 0.919815 0
-0.865507 0.032461 0.020022 0
0.211536 0.031423 0.225952 0
-0.828668 0.051846 0.916995 0
-0.328324 0.021993 -0.211327 0
0.098537 0.027914 0.702262 0
-1.103897 0.046380 0.365334 0
0.117124 0.026955 -0.029060 0
-0.451092 0.028808 1.047195 0
-0.692060 0.039421 -0.158519 0
0.251568 0.028727 0.405589 0
-1.007656 0.122096 0.750988 0
-0.117618 0.025599 -0.213425 0
-0.044374 0.027864 0.910111 0
-1.077203 0.028328 0.106198 0
0.241377 0.034543 0.102912 0
-0.737909 0.062291 1.073793 0
-0.478091 0.023801 -0.270802 0
0.224707 0.028731 0.618778 0
0.074430 0.024992 -0.148849 0
-0.276486 0.040303 1.087810 0
-0.907080 0.031357 -0.130334 0
0.314274 0.032870 0.282560 0
-0.236245 0.022388 -0.303604 0
0.115869 0.033198 0.849473 0
0.232006 0.026003 -0.025298 0
-0.039335 0.828175 0.502359 0
-0.667888 0.023943 -0.295096 0
0.324447 0.032689 0.501180 0
-0.006086 0.028103 -0.260696 0
-0.090667 0.036744 1.077634 0
-1.149141 0.021120 -0.043941 0
0.342102 0.034569 0.147535 0
-0.391907 0.025870 -0.370073 0
0.256210 0.030745 0.750419 0
0.187050 0.024914 -0.153904 0
-0.097823 0.568791 0.770472 0
-0.890849 0.026626 -0.275129 0
0.391991 0.036363 0.363557 0
-0.125632 0.027965 -0.359489 0
0.091708 0.030382 1.013257 0
0.334956 0.030083 0.008176 0
-0.190279 0.761673 0.637792 0
-0.589451 0.024658 -0.407276 0
0.369128 0.034206 0.617260 0
0.106102 0.024317 -0.276340 0
0.038349 0.559873 0.770406 0
-1.128484 0.042211 -0.199798 0
0.425643 0.034886 0.216448 0
-0.332531 0.029873 0.322746 0
-0.423259 0.029852 0.299913 0
-0.209527 0.032581 0.266225 0
-0.409884 0.031901 0.471938 0
-0.382729 0.030821 0.161464 0
-0.160484 0.021716 0.405123 0
-0.572009 0.042690 0.389471 0
-0.189082 0.031559 0.132972 0
-0.307517 0.026765 0.574613 0
-0.553514 0.030281 0.166325 0
-0.052833 0.031672 0.287664 0
-0.589041 0.030288 0.570845 0
-0.307676 0.029351 0.032261 0
-0.121662 0.038964 0.537619 0
-0.715284 0.038209 0.305937 0
-0.052972 0.029733 0.124815 0
-0.436037 0.031552 0.700669 0
-0.515797 0.034172 0.023191 0
0.018412 0.028444 0.396503 0
-0.768302 0.037727 0.541462 0
-0.172976 0.023684 -0.018916 0
-0.196658 0.027106 0.696506 0
-0.754489 0.033746 0.150840 0
0.059617 0.026023 0.195669 0
-0.627788 0.043736 0.753840 0
-0.399762 0.021710 -0.085215 0
0.023237 0.039216 0.544870 0
-0.905273 0.038461 0.413710 0
-0.023460 0.024780 -0.000069 0
-0.358202 0.021770 0.838575 0
-0.689901 0.026553 -0.017771 0
0.130479 0.024357 0.323723 0
-0.842249 0.053310 0.714398 0
-0.232861 0.016679 -0.135283 0
-0.055491 0.029394 0.724430 0
-0.954716 0.030578 0.218815 0
0.109304 0.032982 0.080821 0
-0.582046 0.037225 0.915724 0
-0.533578 0.030260 -0.152411 0
0.146196 0.036081 0.489306 0
-1.048594 0.032069 0.584110 0
-0.051760 0.024848 -0.118574 0
-0.221526 0.019228 0.903552 0
-0.877523 0.035332 0.003988 0
0.201525 0.031784 0.215730 0
-0.838978 0.057145 0.898164 0
-0.338286 0.022407 -0.224953 0
0.086514 0.029179 0.689539 0
-1.116165 0.050668 0.348180 0
0.108353 0.028047 -0.039677 0
-0.463456 0.031381 1.030130 0
-0.704583 0.039876 -0.174079 0
0.240491 0.027937 0.395474 0
-1.003148 0.141210 0.724622 0
-0.126379 0.026351 -0.225692 0
-0.056359 0.031322 0.894271 0
-1.091729 0.030372 0.089299 0
0.231897 0.034119 0.093110 0
-0.488378 0.024961 -0.285510 0
0.213186 0.032053 0.605922 0
0.065673 0.024344 -0.159882 0
-0.289653 0.041455 1.071914 0
-0.919901 0.033582 -0.147034 0
0.304010 0.033755 0.272567 0
-0.245084 0.023511 -0.316871 0
0.099829 0.019614 0.845392 0
0.223063 0.025234 -0.035211 0
-0.113223 0.736193 0.576446 0
-0.679135 0.025581 -0.311074 0
0.312987 0.033321 0.490523 0
-0.014234 0.028870 -0.272362 0
-0.103466 0.039219 1.061056 0
-1.162996 0.024418 -0.061799 0
0.332523 0.035113 0.138057 0
-0.401556 0.026742 -0.384676 0
0.243687 0.032203 0.737769 0
0.178847 0.025385 -0.164214 0
-0.087809 0.602018 0.729170 0
-0.903746 0.028520 -0.292415 0
0.381201 0.037454 0.353588 0
-0.134066 0.028247 -0.372344 0
0.078289 0.031471 0.998582 0
0.325986 0.028972 -0.001104 0
-0.221548 0.735161 0.655181 0
-0.601214 0.024449 -0.423682 0
0.356915 0.034047 0.606579 0
0.098244 0.024639 -0.287402 0
0.016144 0.530587 0.786850 0
-1.134125 0.052878 -0.217357 0
0.415600 0.034615 0.207398 0
-0.340982 0.029891 0.304967 0
-0.431937 0.029600 0.281638 0
-0.217897 0.031892 0.249599 0
-0.419719 0.030620 0.453693 0
-0.390530 0.031094 0.143551 0
-0.169088 0.021967 0.388108 0
-0.582164 0.041123 0.370528 0
-0.196798 0.030916 0.116610 0
-0.316911 0.026845 0.556016 0
-0.562413 0.029625 0.147340 0
-0.060578 0.032608 0.271658 0
-0.599403 0.029206 0.551063 0
-0.315374 0.028529 0.015004 0
-0.131521 0.037473 0.521107 0
-0.725604 0.036898 0.286002 0
-0.060388 0.029138 0.109418 0
-0.445315 0.032538 0.680155 0
-0.524038 0.033666 0.004385 0
0.009537 0.027742 0.381052 0
-0.778966 0.036733 0.520675 0
-0.180324 0.022202 -0.035237 0
-0.206712 0.027002 0.677977 0
-0.764218 0.033048 0.130443 0
0.052108 0.026166 0.180828 0
-0.638127 0.043303 0.732738 0
-0.408024 0.019771 -0.103436 0
0.013744 0.039119 0.528636 0
-0.915236 0.038585 0.391946 0
-0.030317 0.023735 -0.015252 0
-0.367795 0.023328 0.817083 0
-0.697483 0.027820 -0.038082 0
0.122399 0.025570 0.308699 0
-0.853185 0.052451 0.692563 0
-0.233632 0.029011 -0.151822 0
-0.065209 0.031234 0.705490 0
-0.967063 0.028279 0.197337 0
0.102449 0.032838 0.066606 0
-0.593618 0.035619 0.894564 0
-0.541498 0.029611 -0.171791 0
0.136405 0.033826 0.474959 0
-1.059003 0.032350 0.560848 0
-0.057924 0.024207 -0.134133 0
-0.231869 0.020519 0.882394 0
-0.887889 0.034431 -0.017537 0
0.193758 0.031201 0.202025 0
-0.849306 0.057178 0.874749 0
-0.345042 0.021724 -0.243085 0
0.076030 0.029056 0.672746 0
-1.128258 0.049593 0.325557 0
0.102337 0.028463 -0.053914 0
-0.474721 0.030813 1.007935 0
-0.715312 0.036812 -0.194993 0
0.231433 0.026882 0.381598 0
-1.016517 0.138210 0.703698 0
-0.131642 0.027243 -0.241934 0
-0.067388 0.031866 0.874643 0
-1.104331 0.028702 0.066444 0
0.224873 0.033004 0.079897 0
-0.495767 0.024153 -0.305106 0
0.203321 0.034404 0.589302 0
0.059801 0.022769 -0.174654 0
-0.301569 0.040358 1.050677 0
-0.930876 0.032175 -0.169455 0
0.295859 0.033673 0.259317 0
-0.250880 0.023154 -0.334542 0
0.088305 0.019321 0.827531 0
0.217025 0.025283 -0.048588 0
-0.600518 0.078867 1.135995 0
-0.687667 0.024742 -0.332367 0
0.303370 0.034171 0.475999 0
-0.020196 0.025805 -0.288307 0
-0.114832 0.040571 1.038931 0
-1.175457 0.023396 -0.085797 0
0.325329 0.035408 0.125322 0
-0.409386 0.023723 -0.404507 0
0.232508 0.032304 0.721429 0
0.173654 0.025702 -0.177987 0
-0.110304 0.576624 0.736756 0
-0.914380 0.027195 -0.315512 0
0.372199 0.033506 0.341727 0
-0.137538 0.031940 -0.388468 0
0.066065 0.031511 0.979019 0
0.319619 0.027275 -0.013600 0
-0.245399 0.714809 0.660110 0
-0.610662 0.021201 -0.445563 0
0.346204 0.032877 0.592493 0
0.094138 0.026964 -0.301758 0
0.030465 0.581997 0.724577 0
-1.135465 0.061852 -0.240648 0
0.407748 0.032636 0.195506 0
-0.343106 0.029478 0.280514 0
-0.433625 0.029512 0.256575 0
-0.220140 0.031619 0.226323 0
-0.421266 0.031065 0.427352 0
-0.389379 0.035955 0.118707 0
-0.168620 0.029537 0.361784 0
-0.594325 0.025470 0.348656 0
-0.198736 0.030684 0.094010 0
-0.315928 0.033409 0.526804 0
-0.558530 0.037291 0.120790 0
-0.065740 0.025053 0.251129 0
-0.594406 0.037792 0.519083 0
-0.311587 0.038863 -0.008883 0
-0.136149 0.033670 0.497999 0
-0.726787 0.036531 0.258937 0
-0.063028 0.027309 0.088014 0
-0.443737 0.038208 0.648641 0
-0.533492 0.021403 -0.019737 0
0.005388 0.024652 0.359444 0
-0.779822 0.036070 0.491669 0
-0.178337 0.030461 -0.057737 0
-0.209817 0.027246 0.650909 0
-0.760026 0.039478 0.102778 0
0.048794 0.023114 0.160247 0
-0.655929 0.020171 0.714969 0
-0.407331 0.023337 -0.127336 0
0.005948 0.025546 0.510567 0
-0.907242 0.047327 0.360012 0
-0.029682 0.030796 -0.036724 0
-0.365811 0.031497 0.782292 0
-0.698185 0.028723 -0.064141 0
0.119053 0.025399 0.287461 0
-0.854148 0.050784 0.661968 0
-0.236736 0.024791 -0.174671 0
-0.067343 0.037017 0.676178 0
-0.967684 0.028321 0.168763 0
0.099799 0.030278 0.046575 0
-0.597340 0.031610 0.864722 0
-0.546352 0.024448 -0.197073 0
0.131086 0.028312 0.454675 0
-1.051421 0.038815 0.526395 0
-0.060150 0.020983 -0.155623 0
-0.231659 0.028816 0.847169 0
-0.890243 0.033347 -0.044885 0
0.190061 0.026619 0.182770 0
-0.850440 0.054778 0.842482 0
-0.344148 0.025531 -0.266312 0
0.071970 0.032213 0.646272 0
-1.127307 0.050250 0.295218 0
0.100883 0.028617 -0.074044 0
-0.471472 0.038947 0.968498 0
-0.716391 0.037506 -0.221097 0
0.226652 0.021855 0.362178 0
-0.131599 0.029543 -0.263687 0
-0.071255 0.034260 0.844557 0
-1.098848 0.034895 0.036727 0
0.222093 0.029730 0.060828 0
-0.772584 0.050081 1.007657 0
-0.490729 0.034194 -0.328438 0
0.197767 0.031719 0.567533 0
0.060358 0.028621 -0.194781 0
-0.313921 0.022442 1.031480 0
-0.926435 0.038890 -0.196754 0
0.292378 0.034440 0.239489 0
-0.250142 0.026446 -0.357184 0
0.083355 0.022303 0.798860 0
0.214998 0.022169 -0.067856 0
-0.619863 0.052971 1.121501 0
-0.684714 0.030892 -0.357737 0
0.298815 0.038540 0.453179 0
-0.016435 0.039705 -0.307580 0
-0.127435 0.020113 1.023037 0
-1.168445 0.031393 -0.115290 0
0.322308 0.031945 0.106998 0
-0.405326 0.032638 -0.427186 0
0.224898 0.021170 0.703145 0
0.173547 0.029908 -0.197346 0
-0.396359 0.098799 1.135864 0
-0.910943 0.033371 -0.342547 0
0.367996 0.036896 0.321139 0
-0.945932 0.380035 0.722253 0
-0.137678 0.032627 -0.410832 0
0.055936 0.015884 0.960976 0
0.317795 0.027651 -0.032201 0
-0.284163 0.669412 0.679896 0
-0.611316 0.022589 -0.471687 0
0.340035 0.028977 0.572252 0
0.094656 0.030496 -0.321704 0
-0.196396 0.078714 1.143997 0
-1.118723 0.079336 -0.267609 0
0.404312 0.032347 0.177037 0
-0.343061 0.024095 0.258989 0
-0.434048 0.023110 0.234747 0
-0.220435 0.025642 0.205906 0
-0.422638 0.023072 0.405586 0
-0.389442 0.030201 0.097312 0
-0.168508 0.025204 0.340830 0
-0.584824 0.032909 0.321473 0
-0.198364 0.025747 0.073710 0
-0.310357 0.039313 0.499666 0
-0.559970 0.029443 0.098585 0
-0.062745 0.029022 0.229410 0
-0.582305 0.048536 0.488198 0
-0.311516 0.033171 -0.029801 0
-0.137249 0.027161 0.477373 0
-0.728267 0.028408 0.235612 0
-0.062087 0.023930 0.068387 0
-0.444625 0.030960 0.625277 0
-0.525664 0.027744 -0.042697 0
0.005079 0.020069 0.339705 0
-0.781025 0.027539 0.467416 0
-0.174918 0.032179 -0.078071 0
-0.210499 0.021932 0.628132 0
-0.760724 0.032775 0.079135 0
0.052707 0.032390 0.139136 0
-0.639001 0.036013 0.677112 0
-0.407049 0.018049 -0.149264 0
0.008691 0.033161 0.485146 0
-0.910189 0.037163 0.335971 0
-0.027008 0.031869 -0.056164 0
-0.367843 0.022676 0.759244 0
-0.698843 0.022463 -0.087698 0
0.121325 0.032469 0.265881 0
-0.857783 0.038767 0.638109 0
-0.232912 0.026581 -0.195185 0
-0.068606 0.031735 0.654274 0
-0.970060 0.019467 0.143948 0
0.101008 0.027767 0.027996 0
-0.599367 0.021662 0.839977 0
-0.538455 0.030950 -0.219059 0
0.130332 0.024427 0.435101 0
-1.053732 0.028474 0.500848 0
-0.054776 0.028915 -0.174777 0
-0.226738 0.036321 0.814295 0
-0.892251 0.025681 -0.069546 0
0.192288 0.034342 0.162638 0
-0.838781 0.059333 0.807123 0
-0.343044 0.021472 -0.288184 0
0.070655 0.028263 0.624909 0
-1.132442 0.038320 0.270251 0
0.104201 0.033427 -0.092608 0
-0.475194 0.026819 0.945328 0
-0.718263 0.030191 -0.245294 0
0.227486 0.027857 0.340740 0
-0.125313 0.037979 -0.282595 0
-0.073324 0.027857 0.821649 0
-1.101416 0.026521 0.010957 0
0.223160 0.027101 0.043025 0
-0.774160 0.039532 0.980797 0
-0.491124 0.028201 -0.351716 0
0.196666 0.029942 0.546749 0
0.063043 0.028427 -0.213572 0
-0.308714 0.028600 0.995101 0
-0.929131 0.031160 -0.222147 0
0.292751 0.034692 0.221135 0
-0.243699 0.033289 -0.376789 0
0.084487 0.031218 0.768344 0
0.217739 0.026778 -0.085799 0
-0.618676 0.046825 1.090895 0
-0.674148 0.040051 -0.379406 0
0.297917 0.037536 0.433820 0
-0.015366 0.033036 -0.327928 0
-0.124714 0.026721 0.987895 0
-1.148051 0.044773 -0.141247 0
0.323619 0.036473 0.088893 0
-0.405858 0.025883 -0.450831 0
0.224701 0.031174 0.674875 0
0.176219 0.029851 -0.215419 0
-0.413116 0.065049 1.130781 0
-0.914318 0.025392 -0.368807 0
0.367518 0.034386 0.303562 0
-0.940068 0.375966 0.695288 0
-0.135374 0.029891 -0.431832 0
0.058686 0.031922 0.921899 0
0.319294 0.024272 -0.049352 0
-0.613009 0.015458 -0.497106 0
0.338233 0.026601 0.552663 0
0.097655 0.029634 -0.340590 0
-0.208418 0.049731 1.135991 0
-1.112259 0.080890 -0.292831 0
0.404686 0.032196 0.159792 0
-0.330382 0.035312 0.235394 0
-0.418640 0.036835 0.210548 0
-0.217048 0.019735 0.186968 0
-0.408666 0.034055 0.379314 0
-0.380807 0.033443 0.076756 0
-0.162336 0.026303 0.319705 0
-0.582582 0.023545 0.301390 0
-0.189129 0.033774 0.053624 0
-0.307902 0.030595 0.480193 0
-0.547328 0.036532 0.076802 0
-0.059429 0.023615 0.211088 0
-0.580450 0.037931 0.468169 0
-0.308635 0.026543 -0.048856 0
-0.128674 0.035097 0.452494 0
-0.726000 0.019138 0.214937 0
-0.054228 0.031854 0.048938 0
-0.431994 0.038268 0.596590 0
-0.523119 0.020492 -0.062699 0
0.008248 0.014783 0.321211 0
-0.760344 0.039246 0.437972 0
-0.171388 0.027022 -0.096659 0
-0.197476 0.037825 0.596541 0
-0.758369 0.024410 0.058338 0
0.056428 0.028699 0.121303 0
-0.635827 0.026067 0.655294 0
-0.395286 0.027383 -0.168311 0
0.011646 0.027814 0.466063 0
-0.888321 0.048262 0.308527 0
-0.023062 0.027946 -0.074141 0
-0.355954 0.030335 0.728282 0
-0.681261 0.034890 -0.108364 0
0.124348 0.027024 0.248380 0
-0.844910 0.038926 0.610429 0
-0.229572 0.021108 -0.214324 0
-0.062044 0.036524 0.628424 0
-0.943593 0.035685 0.118401 0
0.106278 0.030441 0.010032 0
-0.578085 0.037182 0.801147 0
-0.535958 0.024398 -0.239485 0
0.133312 0.020301 0.416428 0
-1.032322 0.035683 0.471096 0
-0.050283 0.026372 -0.192951 0
-0.224570 0.026888 0.793512 0
-0.869296 0.040821 -0.091180 0
0.195952 0.031773 0.145219 0
-0.833491 0.050042 0.782858 0
-0.332540 0.030009 -0.306090 0
0.075450 0.032023 0.600755 0
-1.101966 0.054200 0.241742 0
0.108640 0.031518 -0.110044 0
-0.464067 0.029767 0.913090 0
-0.716678 0.022609 -0.266610 0
0.231167 0.029147 0.321540 0
-0.121534 0.033474 -0.301412 0
-0.070893 0.020629 0.800295 0
-1.079600 0.036546 -0.012442 0
0.228401 0.033930 0.025158 0
-0.760218 0.040285 0.947596 0
-0.483964 0.029551 -0.371095 0
0.199371 0.027067 0.527185 0
0.067777 0.026771 -0.231277 0
-0.307026 0.017130 0.973436 0
-0.928405 0.022529 -0.244258 0
0.296123 0.032743 0.203855 0
-0.240006 0.028959 -0.396449 0
0.087369 0.028395 0.745905 0
0.222253 0.025898 -0.102841 0
-0.619040 0.030129 1.070514 0
-0.672939 0.032695 -0.401115 0
0.300400 0.033225 0.416210 0
-0.010468 0.031490 -0.346086 0
-0.123172 0.016545 0.966514 0
-1.147344 0.035589 -0.163819 0
0.327351 0.034506 0.072201 0
-0.400331 0.025230 -0.470544 0
0.226737 0.026760 0.655085 0
0.180914 0.028067 -0.232697 0
-0.414664 0.046967 1.112780 0
-0.900124 0.032320 -0.388542 0
0.370361 0.030614 0.286729 0
-0.127828 0.035120 -0.449126 0
0.060732 0.025973 0.899466 0
0.323671 0.024359 -0.066056 0
-0.602900 0.020927 -0.515977 0
0.341107 0.036139 0.528440 0
0.103419 0.031672 -0.357777 0
-0.208285 0.035494 1.115938 0
-1.095461 0.087699 -0.313032 0
0.408163 0.036358 0.142227 0
-0.317194 0.029272 0.217420 0
-0.405935 0.028957 0.192766 0
-0.194187 0.037879 0.165108 0
-0.393815 0.028932 0.359770 0
-0.366868 0.029102 0.059119 0
-0.145152 0.032436 0.298532 0
-0.561092 0.025996 0.279708 0
-0.175460 0.032029 0.036385 0
-0.289256 0.034317 0.456831 0
-0.533290 0.030183 0.058929 0
-0.041990 0.035259 0.190600 0
-0.550152 0.052114 0.439771 0
-0.294522 0.024316 -0.065975 0
-0.109589 0.047000 0.427463 0
-0.675137 0.057085 0.186764 0
-0.040636 0.032616 0.031852 0
-0.411351 0.041262 0.571034 0
-0.505661 0.020634 -0.080310 0
0.026369 0.032262 0.297563 0
-0.740602 0.034740 0.416048 0
-0.153598 0.036506 -0.113197 0
-0.174927 0.054032 0.566176 0
-0.733005 0.029839 0.038740 0
0.069817 0.031533 0.103777 0
-0.581644 0.070418 0.606891 0
-0.383066 0.021290 -0.185422 0
0.026109 0.032075 0.444268 0
-0.868879 0.042330 0.287909 0
-0.009351 0.030231 -0.090574 0
-0.333528 0.038235 0.698115 0
-0.653000 0.047211 -0.125599 0
0.138380 0.035650 0.228692 0
-0.812662 0.046115 0.580325 0
-0.208944 0.035792 -0.229380 0
-0.044946 0.045418 0.601583 0
-0.930315 0.023801 0.099852 0
0.118312 0.028972 -0.006301 0
-0.557805 0.034386 0.774312 0
-0.518125 0.026164 -0.255964 0
0.147005 0.027561 0.394802 0
-0.998621 0.040721 0.443840 0
-0.033901 0.036791 -0.208296 0
-0.200799 0.043370 0.757676 0
-0.864813 0.021414 -0.109263 0
0.208837 0.038437 0.127390 0
-0.810501 0.045383 0.755789 0
-0.321743 0.022632 -0.323440 0
0.090795 0.043098 0.574193 0
-1.100035 0.029127 0.225208 0
0.120560 0.029697 -0.126100 0
-0.432540 0.047832 0.871054 0
-0.696626 0.024567 -0.283137 0
0.243659 0.036130 0.301765 0
-0.108915 0.031874 -0.317650 0
-0.045419 0.053443 0.755571 0
-1.065277 0.025480 -0.031067 0
0.239713 0.030426 0.009279 0
-0.725885 0.049996 0.908058 0
-0.465269 0.034590 -0.386268 0
0.213466 0.042969 0.500680 0
0.080975 0.029818 -0.246892 0
-0.278005 0.039023 0.928019 0
-0.904344 0.025385 -0.261067 0
0.307723 0.035845 0.186472 0
-0.220492 0.041840 -0.409706 0
0.103425 0.043233 0.714262 0
0.234105 0.025301 -0.118725 0
-0.570117 0.065088 1.008941 0
-0.661864 0.024446 -0.419096 0
0.311861 0.038004 0.396293 0
0.003713 0.036693 -0.361051 0
-0.100582 0.035804 0.924548 0
-1.122672 0.034778 -0.181737 0
0.338964 0.038409 0.055760 0
-0.383755 0.028857 -0.485682 0
0.239305 0.035465 0.629487 0
0.194203 0.035419 -0.247705 0
-0.382428 0.067286 1.062528 0
-0.865398 0.048632 -0.401360 0
0.381361 0.033031 0.269097 0
-0.907734 0.363122 0.648355 0
-0.115667 0.032983 -0.465657 0
0.077130 0.039627 0.864534 0
0.335504 0.027353 -0.081838 0
-0.579711 0.031265 -0.529009 0
0.352034 0.041077 0.507262 0
0.115481 0.030693 -0.373819 0
-0.181299 0.058644 1.065104 0
-1.077917 0.082235 -0.330090 0
0.419184 0.039362 0.125716 0
-0.293439 0.037690 0.202968 0
-0.372532 0.051915 0.175823 0
-0.178411 0.032820 0.153861 0
-0.361731 0.048629 0.339570 0
-0.349284 0.025757 0.048015 0
-0.127427 0.031826 0.285519 0
-0.537190 0.027052 0.265819 0
-0.158340 0.031734 0.025132 0
-0.270087 0.032045 0.442671 0
-0.515402 0.024608 0.048056 0
-0.023338 0.041783 0.177151 0
-0.524693 0.054461 0.423536 0
-0.275559 0.026269 -0.076667 0
-0.095114 0.037364 0.416682 0
-0.673505 0.027105 0.179894 0
-0.023684 0.035383 0.020357 0
-0.388831 0.041331 0.554297 0
-0.485478 0.020301 -0.090730 0
0.041966 0.029267 0.285442 0
-0.709146 0.040315 0.398556 0
-0.140037 0.029193 -0.123799 0
-0.155157 0.055426 0.549709 0
-0.700853 0.039741 0.026662 0
0.087081 0.038809 0.091181 0
-0.567237 0.054699 0.596816 0
-0.361498 0.027129 -0.194957 0
0.044695 0.038643 0.427772 0
-0.841600 0.040876 0.274202 0
0.006168 0.030326 -0.101330 0
-0.303228 0.054462 0.671256 0
-0.630308 0.048109 -0.135317 0
0.153563 0.034591 0.216644 0
-0.781340 0.048178 0.561236 0
-0.189661 0.042425 -0.238645 0
-0.024109 0.054611 0.581387 0
-0.896749 0.029553 0.087200 0
0.133777 0.031333 -0.017602 0
-0.526603 0.042204 0.749497 0
-0.499893 0.024125 -0.265479 0
0.162520 0.026061 0.381846 0
-0.964928 0.042028 0.426803 0
-0.020232 0.031806 -0.219006 0
-0.176449 0.052780 0.733837 0
-0.841582 0.018722 -0.119137 0
0.223305 0.036499 0.116008 0
-0.767525 0.059869 0.726369 0
-0.304307 0.023289 -0.332782 0
0.108849 0.049813 0.556040 0
-1.073655 0.022904 0.212944 0
0.135743 0.032239 -0.136817 0
-0.401110 0.059944 0.841893 0
-0.675988 0.023138 -0.292092 0
0.258852 0.038352 0.288590 0
-0.089643 0.042705 -0.325834 0
-0.030529 0.042539 0.744313 0
-1.039308 0.021567 -0.041338 0
0.254475 0.033015 -0.002152 0
-0.690114 0.057241 0.879736 0
-0.454379 0.022597 -0.397485 0
0.227596 0.033593 0.490433 0
0.095211 0.028513 -0.257506 0
-0.253084 0.044752 0.902785 0
-0.881589 0.022767 -0.269852 0
0.322105 0.035045 0.174730 0
-0.205260 0.040730 -0.419292 0
0.121187 0.047704 0.695272 0
0.248574 0.026886 -0.129657 0
-0.555218 0.046580 0.998694 0
-0.640261 0.026123 -0.426837 0
0.326982 0.043511 0.381415 0
0.017134 0.032841 -0.371871 0
-0.076924 0.046916 0.896630 0
-1.066070 0.060261 -0.188801 0
0.352986 0.036547 0.044575 0
-0.360901 0.039807 -0.491447 0
0.254802 0.034799 0.614668 0
0.207919 0.033261 -0.258595 0
-0.367476 0.050255 1.052012 0
-0.852369 0.036977 -0.411288 0
0.395758 0.036532 0.256019 0
-0.996171 0.257933 0.696493 0
-0.102697 0.027839 -0.476671 0
0.094386 0.038674 0.846697 0
0.349644 0.029184 -0.092966 0
-0.566655 0.023083 -0.539409 0
0.366707 0.041405 0.493412 0
0.130492 0.035298 -0.383342 0
-0.166231 0.043715 1.054141 0
-1.064659 0.068582 -0.339464 0
0.433184 0.037503 0.114425 0
-0.274797 0.040007 0.192768 0
-0.359440 0.042540 0.167941 0
-0.160368 0.037106 0.143922 0
-0.348598 0.038513 0.331614 0
-0.331979 0.024891 0.039318 0
-0.112435 0.028839 0.276277 0
-0.510811 0.035764 0.252925 0
-0.143816 0.028374 0.016939 0
-0.254423 0.027325 0.432730 0
-0.497984 0.021025 0.039461 0
-0.008956 0.039751 0.168450 0
-0.511731 0.042208 0.415668 0
-0.259656 0.024603 -0.084655 0
-0.079229 0.036949 0.405954 0
-0.635444 0.048236 0.165776 0
-0.009776 0.032438 0.012264 0
-0.371713 0.036891 0.543109 0
-0.463736 0.024937 -0.098698 0
0.058120 0.034578 0.274450 0
-0.690923 0.033181 0.388390 0
-0.124925 0.028386 -0.131584 0
-0.142097 0.046149 0.541672 0
-0.672352 0.048042 0.017159 0
0.101870 0.041451 0.082347 0
-0.537055 0.066335 0.576926 0
-0.345626 0.024630 -0.202518 0
0.059877 0.039785 0.416853 0
-0.821972 0.034152 0.264382 0
0.021144 0.032137 -0.109168 0
-0.290152 0.043133 0.663212 0
-0.617168 0.038035 -0.143153 0
0.167831 0.036137 0.207320 0
-0.761873 0.040697 0.549818 0
-0.173158 0.044887 -0.245617 0
-0.011087 0.046352 0.573324 0
-0.874631 0.025735 0.078023 0
0.147140 0.028661 -0.025564 0
-0.500665 0.048022 0.730082 0
-0.479494 0.027202 -0.272044 0
0.177176 0.028923 0.371020 0
-0.928008 0.050947 0.409959 0
-0.006566 0.029268 -0.226711 0
-0.163349 0.042364 0.725693 0
-0.814819 0.022322 -0.126829 0
0.236926 0.036956 0.107495 0
-0.737123 0.065053 0.706458 0
-0.286320 0.026672 -0.339096 0
0.121894 0.043048 0.547885 0
-1.041952 0.025146 0.201173 0
0.149395 0.031746 -0.144588 0
-0.388111 0.046743 0.833882 0
-0.632564 0.053859 -0.294448 0
0.272782 0.042269 0.278467 0
-0.964621 0.071657 0.583772 0
-0.076444 0.038764 -0.333557 0
-0.016717 0.035576 0.734839 0
-0.985183 0.048568 -0.050695 0
0.267624 0.030780 -0.010082 0
-0.661523 0.061446 0.858131 0
-0.439120 0.018714 -0.404705 0
0.241581 0.034883 0.479584 0
0.109481 0.030544 -0.264779 0
-0.231237 0.051459 0.881726 0
-0.861553 0.018701 -0.276892 0
0.335658 0.039773 0.165349 0
-0.919870 0.099975 0.756938 0
-0.192034 0.036159 -0.427015 0
0.135825 0.048027 0.682826 0
0.261835 0.025720 -0.137511 0
-0.523522 0.058846 0.969820 0
-0.613376 0.036268 -0.430402 0
0.339697 0.035466 0.374688 0
0.032145 0.036535 -0.378361 0
-0.062806 0.039479 0.886366 0
-1.035959 0.063070 -0.195453 0
0.366162 0.037989 0.036352 0
-0.324605 0.077028 -0.487269 0
0.268071 0.030632 0.605623 0
0.221638 0.035649 -0.265903 0
-0.354386 0.036271 1.043866 0
-0.818030 0.050546 -0.413801 0
0.408769 0.034899 0.247744 0
-1.034007 0.197028 0.716924 0
-0.086494 0.032621 -0.482267 0
0.111039 0.046022 0.828141 0
0.362806 0.029396 -0.100838 0
-0.546700 0.025559 -0.544265 0
0.379608 0.035387 0.486012 0
0.143588 0.033298 -0.391121 0
-0.151984 0.034375 1.043694 0
-1.049063 0.058221 -0.346752 0
0.446122 0.038751 0.106084 0
-0.251886 0.042583 0.187145 0
-0.337337 0.041540 0.163214 0
-0.139721 0.038061 0.138953 0
-0.329323 0.031104 0.327528 0
-0.299414 0.045814 0.033412 0
-0.088339 0.039305 0.267952 0
-0.474385 0.053450 0.243042 0
-0.123163 0.030761 0.012664 0
-0.226381 0.039618 0.421316 0
-0.459024 0.044853 0.033479 0
0.010360 0.040969 0.163232 0
-0.477761 0.054901 0.403951 0
-0.237782 0.027375 -0.087987 0
-0.058836 0.037019 0.399437 0
-0.608140 0.048922 0.160839 0
0.013236 0.047772 0.006906 0
-0.339678 0.051190 0.528622 0
-0.440585 0.025041 -0.101475 0
0.077537 0.036966 0.268288 0
-0.638358 0.064537 0.370795 0
-0.102107 0.038561 -0.134678 0
-0.115778 0.058964 0.528408 0
-0.646426 0.046922 0.013921 0
0.119980 0.042407 0.077580 0
-0.512817 0.062373 0.569738 0
-0.323418 0.026690 -0.204749 0
0.079331 0.040826 0.410148 0
-0.765433 0.064595 0.250973 0
0.041147 0.039759 -0.112878 0
-0.257603 0.061504 0.644467 0
-0.601792 0.024266 -0.145627 0
0.187267 0.044971 0.200284 0
-0.704593 0.073274 0.526079 0
-0.153563 0.046457 -0.248071 0
0.010627 0.051490 0.563439 0
-0.836909 0.033456 0.073332 0
0.164650 0.028882 -0.029925 0
-0.474436 0.046791 0.720146 0
-0.445975 0.045113 -0.271358 0
0.196223 0.032838 0.363829 0
-0.871213 0.075767 0.393431 0
0.014835 0.041749 -0.228865 0
-0.134075 0.059900 0.706519 0
-0.782412 0.026683 -0.128463 0
0.255051 0.043446 0.101737 0
-0.709926 0.060078 0.697927 0
-0.260108 0.039783 -0.338716 0
0.142905 0.052472 0.536718 0
-0.984147 0.047994 0.191372 0
0.167554 0.037600 -0.148374 0
-0.352028 0.065571 0.810481 0
-0.622495 0.033863 -0.297887 0
0.290546 0.044230 0.272528 0
-0.941507 0.058782 0.579501 0
-0.058297 0.039578 -0.336056 0
0.009766 0.054594 0.715257 0
-0.953734 0.047355 -0.052759 0
0.284733 0.032098 -0.014743 0
-0.633356 0.058441 0.847132 0
-0.401368 0.046634 -0.399657 0
0.261847 0.051439 0.466705 0
0.126966 0.033057 -0.268050 0
-0.215671 0.033452 0.882860 0
-0.829628 0.022168 -0.276612 0
0.352938 0.042963 0.159710 0
-0.880130 0.104462 0.741270 0
-0.173654 0.035720 -0.428907 0
0.155255 0.048431 0.674826 0
0.279235 0.032201 -0.141629 0
-0.498364 0.053909 0.959773 0
-0.598186 0.024088 -0.433011 0
0.357760 0.043691 0.366298 0
0.049797 0.039033 -0.380828 0
-0.037909 0.049020 0.869695 0
-1.030753 0.035620 -0.197617 0
0.383002 0.040801 0.031300 0
-0.304348 0.078702 -0.487482 0
0.287536 0.039835 0.594295 0
0.238500 0.039005 -0.269440 0
-0.320104 0.051933 1.018135 0
-0.821854 0.014085 -0.420763 0
0.425977 0.041977 0.240788 0
-1.004401 0.189001 0.708598 0
-0.068142 0.035058 -0.483744 0
0.128389 0.033491 0.827252 0
0.379449 0.032745 -0.105424 0
-0.520357 0.031617 -0.541846 0
0.397664 0.046926 0.475324 0
0.160402 0.035494 -0.394103 0
-0.122741 0.049634 1.019555 0
-1.035798 0.039377 -0.348576 0
0.462854 0.040765 0.100810 0
-0.229253 0.058406 0.189267 0
-0.324916 0.034920 0.170066 0
-0.125690 0.037196 0.144246 0
-0.302380 0.051580 0.326493 0
-0.291390 0.031606 0.040781 0
-0.075417 0.034768 0.273782 0
-0.467242 0.037082 0.252616 0
-0.109668 0.029789 0.018238 0
-0.208047 0.045044 0.423885 0
-0.453940 0.025989 0.041863 0
0.022152 0.034559 0.169052 0
-0.463775 0.048699 0.411066 0
-0.222982 0.028435 -0.081679 0
-0.044268 0.036165 0.404075 0
-0.593825 0.043005 0.168319 0
0.025528 0.045419 0.012060 0
-0.317852 0.060229 0.528957 0
-0.424578 0.024954 -0.094229 0
0.093402 0.045944 0.270287 0
-0.623866 0.057869 0.378311 0
-0.088220 0.040621 -0.128746 0
-0.102060 0.054281 0.534589 0
-0.645560 0.022984 0.023252 0
0.132419 0.040596 0.082269 0
-0.499489 0.054167 0.577872 0
-0.297764 0.048330 -0.196016 0
0.092853 0.037683 0.415367 0
-0.751418 0.056576 0.259197 0
0.053116 0.038002 -0.107707 0
-0.244097 0.054640 0.651999 0
-0.586624 0.020711 -0.137525 0
0.200070 0.043334 0.204717 0
-0.690414 0.065123 0.534248 0
-0.141374 0.044346 -0.241741 0
0.025638 0.051421 0.567458 0
-0.818930 0.029684 0.081472 0
0.178382 0.036823 -0.025799 0
-0.444180 0.065201 0.713371 0
-0.441183 0.027322 -0.265268 0
0.211602 0.043241 0.364459 0
-0.857323 0.066341 0.402240 0
0.026481 0.040106 -0.223376 0
-0.120497 0.053113 0.714191 0
-0.750614 0.041097 -0.119342 0
0.267537 0.043163 0.105767 0
-0.696174 0.050600 0.707011 0
-0.251858 0.028478 -0.333039 0
0.156559 0.048262 0.542507 0
-0.973518 0.034573 0.201366 0
0.178914 0.035096 -0.143748 0
-0.337851 0.058518 0.818510 0
-0.606181 0.032333 -0.288825 0
0.303670 0.043955 0.276391 0
-0.925104 0.050789 0.587784 0
-0.044137 0.045687 -0.328677 0
0.026397 0.058281 0.716995 0
-0.946475 0.031226 -0.043166 0
0.297410 0.038638 -0.011107 0
-0.618962 0.049736 0.856097 0
-0.388418 0.043714 -0.391608 0
0.275368 0.047660 0.472012 0
0.139414 0.037692 -0.262328 0
-0.193986 0.043107 0.879894 0
-0.810259 0.021177 -0.266515 0
0.365480 0.041409 0.163653 0
-0.868116 0.092243 0.751975 0
-0.158102 0.042901 -0.419838 0
0.169424 0.043853 0.681194 0
-1.099972 0.054883 0.089216 0
0.290664 0.030856 -0.137468 0
-0.472251 0.063820 0.955388 0
-0.564895 0.047855 -0.417627 0
0.371196 0.042802 0.370248 0
0.060901 0.037972 -0.375101 0
-0.023288 0.043413 0.877240 0
-0.991489 0.051470 -0.186064 0
0.395062 0.040726 0.034914 0
-0.293907 0.073264 -0.480433 0
0.302246 0.042032 0.597084 0
0.249870 0.041268 -0.264575 0
-0.305145 0.044997 1.026726 0
-0.797733 0.019305 -0.408348 0
0.438914 0.040564 0.244599 0
-0.962101 0.204582 0.701667 0
-0.056861 0.033855 -0.477025 0
0.145352 0.039435 0.827377 0
0.390981 0.032154 -0.101711 0
-0.517853 0.011523 -0.537598 0
0.411513 0.043498 0.480363 0
0.171239 0.035322 -0.388809 0
-0.099821 0.064525 1.011429 0
-1.024796 0.027219 -0.338695 0
0.475176 0.041234 0.104075 0
-0.240325 0.029394 0.210995 0
-0.312308 0.054670 0.182546 0
-0.120856 0.043874 0.158077 0
-0.298491 0.053808 0.342309 0
-0.290444 0.029652 0.056949 0
-0.069398 0.043963 0.286362 0
-0.465855 0.035354 0.270447 0
-0.100902 0.048558 0.031387 0
-0.203758 0.047520 0.439303 0
-0.452435 0.025179 0.058985 0
0.024740 0.035081 0.183094 0
-0.470506 0.033429 0.434498 0
-0.215037 0.042790 -0.066435 0
-0.041414 0.034521 0.419960 0
-0.603974 0.025569 0.189693 0
0.027753 0.047206 0.025741 0
-0.312811 0.063543 0.544903 0
-0.412545 0.042629 -0.077588 0
0.096750 0.047581 0.283740 0
-0.635849 0.038249 0.403741 0
-0.086441 0.042262 -0.114121 0
-0.102120 0.043939 0.555469 0
-0.645373 0.020401 0.041761 0
0.134771 0.041968 0.095342 0
-0.494824 0.056614 0.595544 0
-0.302078 0.037481 -0.180680 0
0.096231 0.036381 0.430335 0
-0.764054 0.038514 0.282993 0
0.054666 0.039472 -0.094011 0
-0.244192 0.046255 0.674272 0
-0.564497 0.049923 -0.119067 0
0.203016 0.044585 0.217493 0
-0.684756 0.068940 0.552212 0
-0.139711 0.046474 -0.226474 0
0.029898 0.051535 0.583024 0
-0.811773 0.035351 0.100066 0
0.180087 0.037877 -0.012964 0
-0.452138 0.046681 0.743560 0
-0.429303 0.045009 -0.246215 0
0.214309 0.037141 0.379975 0
-0.876118 0.043108 0.430866 0
0.027363 0.040897 -0.209337 0
-0.115880 0.053598 0.731378 0
-0.760973 0.025968 -0.100542 0
0.269769 0.042979 0.118211 0
-0.690634 0.054015 0.725932 0
-0.246037 0.039369 -0.315262 0
0.160977 0.048129 0.557261 0
-0.975327 0.030258 0.222776 0
0.179750 0.034709 -0.130830 0
-0.332045 0.061747 0.835942 0
-0.589835 0.052975 -0.268032 0
0.306982 0.044408 0.288875 0
-0.915658 0.058288 0.605606 0
-0.045517 0.040588 -0.314834 0
0.030721 0.056243 0.734766 0
-0.939923 0.035613 -0.023252 0
0.298645 0.034714 0.001282 0
-0.612814 0.053681 0.874985 0
-0.386295 0.045955 -0.374084 0
0.279721 0.047702 0.485580 0
0.139782 0.037880 -0.248983 0
-0.188809 0.043951 0.898598 0
-0.805612 0.024225 -0.246564 0
0.368191 0.042315 0.175404 0
-0.864752 0.093366 0.773306 0
-0.160417 0.036783 -0.405484 0
0.174898 0.045346 0.695903 0
-1.092444 0.059562 0.109515 0
0.291624 0.031787 -0.125217 0
-0.477203 0.049888 0.987482 0
-0.579402 0.025164 -0.404139 0
0.375293 0.046540 0.381550 0
0.061154 0.039315 -0.360739 0
-0.017184 0.045482 0.894064 0
-1.012643 0.027694 -0.166806 0
0.396978 0.041765 0.046340 0
-0.294819 0.070796 -0.464463 0
0.307642 0.044882 0.609856 0
0.249588 0.037616 -0.252389 0
-0.298725 0.048108 1.045574 0
-0.795807 0.019307 -0.388350 0
0.442175 0.041763 0.255987 0
-1.007569 0.161428 0.751053 0
-0.056418 0.035988 -0.461207 0
0.151383 0.040174 0.843729 0
0.392109 0.035314 -0.090162 0
-0.504102 0.031470 -0.513094 0
0.416236 0.042519 0.493581 0
0.171029 0.036200 -0.375191 0
-0.101416 0.045047 1.046852 0
-1.018883 0.030513 -0.316993 0
0.477481 0.043701 0.114827 0
-0.234594 0.039138 0.231257 0
-0.319166 0.039547 0.208238 0
-0.122063 0.037263 0.180653 0
-0.308960 0.030982 0.372969 0
-0.282184 0.044329 0.077453 0
-0.070763 0.034965 0.310489 0
-0.464593 0.036151 0.294358 0
-0.104708 0.035475 0.053492 0
-0.204596 0.041885 0.464984 0
-0.438427 0.046860 0.079707 0
0.026811 0.036497 0.203389 0
-0.464254 0.042319 0.456365 0
-0.219954 0.030022 -0.044552 0
-0.038185 0.037557 0.441272 0
-0.592109 0.041425 0.211056 0
0.026248 0.037818 0.046607 0
-0.317042 0.053024 0.574811 0
-0.420304 0.027965 -0.054474 0
0.094845 0.029876 0.309161 0
-0.632819 0.042112 0.428366 0
-0.088396 0.034900 -0.093493 0
-0.100036 0.043267 0.579717 0
-0.626207 0.045373 0.063619 0
0.136223 0.041660 0.114883 0
-0.495014 0.055611 0.622743 0
-0.301452 0.037293 -0.158564 0
0.099362 0.037850 0.451414 0
-0.762214 0.040650 0.308449 0
0.054899 0.037590 -0.074237 0
-0.242344 0.046304 0.700332 0
-0.578672 0.028212 -0.095474 0
0.204955 0.043007 0.237366 0
-0.699367 0.050990 0.588112 0
-0.142897 0.037284 -0.206143 0
0.032366 0.049481 0.607352 0
-0.813688 0.032547 0.126118 0
0.180335 0.033044 0.006386 0
-0.449525 0.049832 0.769881 0
-0.438701 0.027903 -0.224782 0
0.216447 0.031261 0.402485 0
-0.867829 0.052972 0.454779 0
0.025151 0.031821 -0.189944 0
-0.118930 0.038657 0.766221 0
-0.758855 0.027283 -0.075410 0
0.271509 0.042219 0.137028 0
-0.690476 0.055140 0.754695 0
-0.250732 0.028344 -0.294743 0
0.162919 0.039248 0.583702 0
-0.975513 0.030188 0.249966 0
0.179001 0.027228 -0.111926 0
-0.338353 0.047425 0.874248 0
-0.603138 0.032769 -0.246176 0
0.309466 0.040327 0.309253 0
-0.906122 0.069975 0.629035 0
-0.046341 0.037779 -0.294492 0
0.032178 0.048708 0.764323 0
-0.947801 0.026397 0.003580 0
0.300147 0.037632 0.019366 0
-0.610790 0.057134 0.903547 0
-0.396316 0.027045 -0.354371 0
0.283015 0.042814 0.508470 0
0.139626 0.036825 -0.229701 0
-0.187524 0.041025 0.929449 0
-0.805427 0.022712 -0.221051 0
0.370274 0.036440 0.194868 0
-0.865017 0.095349 0.802875 0
-0.162162 0.032188 -0.384530 0
0.177816 0.037475 0.724103 0
0.291871 0.028638 -0.106939 0
-0.477172 0.049302 1.019864 0
-0.568971 0.038385 -0.376810 0
0.378638 0.039741 0.403296 0
0.059470 0.033751 -0.341476 0
-0.015365 0.039146 0.926182 0
-1.017074 0.021717 -0.140198 0
0.398521 0.039691 0.064259 0
-0.312865 0.034857 -0.450649 0
0.311531 0.036090 0.636223 0
0.248920 0.033031 -0.234156 0
-0.295099 0.051560 1.074573 0
-0.793776 0.019555 -0.362182 0
0.445247 0.036290 0.275603 0
-0.058289 0.031281 -0.440849 0
0.155264 0.035259 0.872897 0
0.392840 0.034741 -0.072532 0
-0.512033 0.017457 -0.492155 0
0.420658 0.036904 0.516056 0
0.170458 0.036063 -0.355622 0
-0.096461 0.048873 1.074375 0
-1.018633 0.028588 -0.290084 0
0.479674 0.042435 0.132375 0
-0.239588 0.034699 0.261674 0
-0.324102 0.036700 0.238841 0
-0.124059 0.038647 0.208300 0
-0.306950 0.040883 0.401027 0
-0.291204 0.033325 0.107699 0
-0.076972 0.022167 0.342792 0
-0.464672 0.042809 0.324530 0
-0.107966 0.034628 0.080703 0
-0.203102 0.049982 0.493031 0
-0.448872 0.036618 0.111298 0
0.024825 0.035671 0.230273 0
-0.466934 0.044702 0.489189 0
-0.220205 0.037495 -0.017024 0
-0.040677 0.032899 0.472580 0
-0.599682 0.037885 0.244402 0
0.022795 0.034646 0.072816 0
-0.325127 0.042968 0.613571 0
-0.417487 0.039939 -0.025294 0
0.093163 0.026301 0.337176 0
-0.629810 0.053645 0.459011 0
-0.094583 0.027411 -0.066803 0
-0.099300 0.047595 0.609433 0
-0.640989 0.032285 0.097145 0
0.132608 0.032970 0.141364 0
-0.507588 0.043190 0.665605 0
-0.307297 0.033825 -0.130280 0
0.099572 0.038726 0.479331 0
-0.773431 0.034850 0.345226 0
0.050462 0.032591 -0.048822 0
-0.243441 0.047788 0.734600 0
-0.583280 0.028418 -0.064422 0
0.203074 0.035944 0.264280 0
-0.711463 0.043934 0.629522 0
-0.149953 0.029592 -0.179630 0
0.032013 0.046893 0.639521 0
-0.807843 0.046514 0.157793 0
0.178070 0.033863 0.030688 0
-0.458624 0.041448 0.813608 0
-0.435709 0.040215 -0.194171 0
0.216443 0.028417 0.430172 0
-0.870799 0.058225 0.490239 0
0.021221 0.031264 -0.164408 0
-0.117119 0.044241 0.797843 0
-0.763386 0.028372 -0.042709 0
0.269436 0.034738 0.162274 0
-0.702671 0.048235 0.799594 0
-0.250835 0.037301 -0.265479 0
0.164335 0.039989 0.612648 0
-0.976916 0.036719 0.284891 0
0.175738 0.026851 -0.087666 0
-0.345661 0.038495 0.919877 0
-0.602908 0.039635 -0.214467 0
0.309033 0.032507 0.336344 0
-0.911700 0.073514 0.667561 0
-0.051125 0.036265 -0.268402 0
0.030729 0.039234 0.803623 0
-0.938981 0.042510 0.036890 0
0.298215 0.039075 0.042486 0
-0.621567 0.050604 0.951085 0
-0.397498 0.032840 -0.323822 0
0.282915 0.025923 0.542923 0
0.135024 0.033620 -0.205422 0
-0.188787 0.039324 0.969681 0
-0.804383 0.030060 -0.187536 0
0.369805 0.036346 0.218306 0
-0.162088 0.043495 -0.354806 0
0.179272 0.032488 0.758359 0
0.288820 0.028718 -0.083706 0
-0.494521 0.028631 1.080591 0
-0.575498 0.035551 -0.346294 0
0.380014 0.040742 0.427936 0
0.054974 0.034016 -0.315875 0
-0.014225 0.038009 0.964129 0
-1.010176 0.034869 -0.105083 0
0.396954 0.036643 0.087107 0
-0.319461 0.031093 -0.422316 0
0.314569 0.038962 0.663328 0
0.244277 0.028043 -0.210934 0
-0.292371 0.060046 1.110788 0
-0.791589 0.027884 -0.327664 0
0.445789 0.034030 0.299482 0
-0.062282 0.033994 -0.413208 0
0.156407 0.025017 0.914251 0
0.390192 0.036322 -0.050305 0
-0.504632 0.035957 -0.456149 0
0.423188 0.029942 0.545000 0
0.164675 0.030490 -0.331921 0
-0.091208 0.060129 1.106152 0
-1.024133 0.028600 -0.255235 0
0.479130 0.038175 0.155076 0
-0.236214 0.042552 0.293580 0
-0.323541 0.039211 0.272847 0
-0.124580 0.037014 0.240970 0
-0.308575 0.038451 0.438001 0
-0.290436 0.036568 0.140609 0
-0.073783 0.028642 0.374020 0
-0.475280 0.028184 0.365932 0
-0.106755 0.038784 0.111517 0
-0.206964 0.039948 0.533469 0
-0.444979 0.045322 0.144888 0
0.022220 0.023227 0.264270 0
-0.474147 0.035585 0.531988 0
-0.221312 0.037171 0.015117 0
-0.037768 0.036403 0.505478 0
-0.594001 0.048873 0.279089 0
0.023279 0.036355 0.102608 0
-0.327223 0.039295 0.654842 0
-0.424335 0.030686 0.009391 0
0.095454 0.028069 0.368029 0
-0.637157 0.047560 0.501560 0
-0.092817 0.034835 -0.036172 0
-0.099243 0.042650 0.648836 0
-0.633874 0.044731 0.132190 0
0.133325 0.032731 0.170693 0
-0.517077 0.031598 0.714261 0
-0.305789 0.039417 -0.097357 0
0.103028 0.041479 0.511071 0
-0.770230 0.042830 0.382975 0
0.050098 0.033618 -0.019492 0
-0.247081 0.038167 0.781107 0
-0.578913 0.037096 -0.028946 0
0.204665 0.033716 0.294298 0
-0.715739 0.043444 0.673508 0
-0.149884 0.033276 -0.148088 0
0.032764 0.037905 0.680321 0
-0.815713 0.040918 0.197738 0
0.178529 0.035833 0.058764 0
-0.459274 0.042632 0.857539 0
-0.444427 0.028228 -0.160658 0
0.220342 0.032569 0.459760 0
-0.895465 0.036744 0.542591 0
0.020237 0.032431 -0.134739 0
-0.118172 0.034934 0.844549 0
-0.753452 0.043009 -0.005845 0
0.270505 0.031730 0.190840 0
-0.717686 0.034743 0.855359 0
-0.256406 0.028991 -0.233871 0
0.167203 0.032356 0.650775 0
-0.964464 0.054059 0.321710 0
0.175771 0.031312 -0.059605 0
-0.345812 0.038028 0.966188 0
-0.612469 0.028451 -0.179346 0
0.311943 0.030530 0.366035 0
-0.914029 0.077698 0.711399 0
-0.053517 0.034534 -0.238112 0
0.034259 0.036897 0.844421 0
-0.957765 0.025967 0.078333 0
0.298825 0.040607 0.069331 0
-0.637073 0.034529 1.012966 0
-0.399502 0.032132 -0.289748 0
0.287806 0.027915 0.574060 0
0.133330 0.033082 -0.176954 0
-0.186630 0.039102 1.015356 0
-0.812622 0.022387 -0.149891 0
0.371895 0.031623 0.246724 0
-0.167949 0.034175 -0.324527 0
0.183387 0.024481 0.800083 0
0.288729 0.034220 -0.056845 0
-0.483381 0.048849 1.115399 0
-0.570510 0.044661 -0.308901 0
0.384217 0.036499 0.458803 0
0.052970 0.034765 -0.286158 0
-0.009039 0.040205 1.005950 0
-1.029741 0.017642 -0.064816 0
0.398068 0.036755 0.113324 0
-0.317854 0.037784 -0.387005 0
0.320346 0.035845 0.698557 0
0.242771 0.029424 -0.183340 0
-0.278425 0.085449 1.138782 0
-0.797987 0.021713 -0.290325 0
0.449151 0.039081 0.325298 0
-0.061224 0.044273 -0.379843 0
0.163792 0.030521 0.950844 0
0.389924 0.035071 -0.024373 0
-0.235611 0.612206 0.722639 0
-0.509629 0.030445 -0.421509 0
0.428989 0.032770 0.574258 0
0.163748 0.038962 -0.302020 0
-0.077328 0.087120 1.130553 0
-1.020496 0.033688 -0.214503 0
0.481185 0.037891 0.180865 0
-0.236834 0.030250 0.329442 0
-0.325235 0.026832 0.309377 0
-0.121299 0.032220 0.272993 0
-0.306179 0.032594 0.474757 0
-0.287562 0.033614 0.173205 0
-0.069475 0.023517 0.407243 0
-0.460530 0.044481 0.396135 0
-0.104277 0.033536 0.142260 0
-0.204784 0.030669 0.572202 0
-0.450200 0.029860 0.181377 0
0.028331 0.024671 0.293507 0
-0.473749 0.028340 0.572618 0
-0.218794 0.034177 0.046287 0
-0.031580 0.033766 0.539059 0
-0.598337 0.036990 0.318386 0
0.025953 0.029651 0.132114 0
-0.327223 0.027735 0.698555 0
-0.418680 0.033660 0.042336 0
0.101405 0.024599 0.398825 0
