ply
format ascii 1.0
element vertex 1595
property float x
property float y
property float z
property uchar label
end_header
1.766254 0.722695 -1.509638 1
1.781217 0.721281 -1.441724 1
1.760058 0.655154 -1.492758 1
1.775742 0.755763 -1.489324 1
1.770505 0.677346 -1.435533 1
1.761464 0.692060 -1.521453 1
1.787368 0.748332 -1.451455 1
1.760378 0.637937 -1.467308 1
1.772114 0.745106 -1.515006 1
1.781105 0.705824 -1.423394 1
1.756046 0.652996 -1.515198 1
1.783626 0.770482 -1.475710 1
1.773457 0.636666 -1.435776 1
1.758648 0.720269 -1.532669 1
1.787721 0.744538 -1.429922 1
1.760708 0.613375 -1.489444 1
1.781155 0.766340 -1.508053 1
1.776067 0.679490 -1.412601 1
1.752155 0.672297 -1.535653 1
1.791213 0.773804 -1.454617 1
1.764245 0.609851 -1.448926 1
1.767388 0.745322 -1.535750 1
1.783310 0.728943 -1.410138 1
1.754053 0.616599 -1.516434 1
1.787976 0.784440 -1.490586 1
1.777176 0.634614 -1.412489 1
1.751379 0.704520 -1.548857 1
1.791557 0.769569 -1.429772 1
1.755640 0.591250 -1.473855 1
1.781980 0.766836 -1.528873 1
1.787356 0.688894 -1.395984 1
1.742889 0.647457 -1.540139 1
1.792550 0.794112 -1.465959 1
1.771771 0.593650 -1.425626 1
1.759224 0.736608 -1.553549 1
1.794548 0.747080 -1.405790 1
1.749051 0.587934 -1.506275 1
1.792938 0.787581 -1.510672 1
1.779208 0.649890 -1.391857 1
1.739422 0.686057 -1.557532 1
1.799529 0.787953 -1.437941 1
1.760814 0.566854 -1.452028 1
1.774493 0.764043 -1.548529 1
1.789996 0.716126 -1.386506 1
1.739353 0.612835 -1.537568 1
1.798166 0.803383 -1.483698 1
1.776101 0.597589 -1.400801 1
1.748933 0.720555 -1.567571 1
1.798318 0.773334 -1.409226 1
1.755761 0.548720 -1.489327 1
1.793570 0.784957 -1.533107 1
1.786400 0.669742 -1.375890 1
1.730086 0.659024 -1.560467 1
1.805407 0.803783 -1.452533 1
1.769599 0.551374 -1.425291 1
1.759616 0.758936 -1.564791 1
1.796399 0.742858 -1.384068 1
1.743532 0.567743 -1.528151 1
1.803995 0.804797 -1.506069 1
1.779229 0.616851 -1.378302 1
1.730716 0.706690 -1.573895 1
1.805301 0.794424 -1.419437 1
1.754586 0.532702 -1.463024 1
1.784668 0.781429 -1.554305 1
1.788283 0.702664 -1.366755 1
1.731208 0.614139 -1.559752 1
1.812869 0.812447 -1.472687 1
1.767762 0.567050 -1.397012 1
1.744807 0.745590 -1.578365 1
1.802365 0.770407 -1.388663 1
1.744936 0.532163 -1.508406 1
1.802337 0.804045 -1.530083 1
1.777378 0.652687 -1.361430 1
1.720839 0.677472 -1.577754 1
1.820816 0.804628 -1.436074 1
1.753810 0.530728 -1.432125 1
1.767567 0.776730 -1.572021 1
1.798769 0.729513 -1.363782 1
1.739642 0.556751 -1.552673 1
1.824962 0.810487 -1.498271 1
1.780634 0.575530 -1.370335 1
1.728100 0.727608 -1.587048 1
1.811336 0.793219 -1.399665 1
1.738051 0.521275 -1.478815 1
1.794776 0.799389 -1.554028 1
1.786002 0.682138 -1.350014 1
1.711780 0.643886 -1.574880 1
1.836453 0.809875 -1.458703 1
1.762469 0.529761 -1.399930 1
1.746158 0.768742 -1.585373 1
1.803762 0.762385 -1.368395 1
1.732522 0.528456 -1.530305 1
1.771648 0.706088 -1.456896 1
1.774768 0.716990 -1.447888 1
1.766278 0.683993 -1.457653 1
1.774385 0.727120 -1.470892 1
1.772937 0.701757 -1.431280 1
1.764449 0.686692 -1.480823 1
1.780172 0.742068 -1.450305 1
1.772137 0.660087 -1.439844 1
1.770531 0.720748 -1.491015 1
1.784826 0.718750 -1.422767 1
1.765298 0.651532 -1.474087 1
1.785040 0.748440 -1.471494 1
1.778297 0.669510 -1.416651 1
1.765580 0.690547 -1.502656 1
1.790643 0.746388 -1.432507 1
1.765950 0.633172 -1.448532 1
1.774424 0.745305 -1.495944 1
1.784323 0.703319 -1.404304 1
1.760565 0.650836 -1.496415 1
1.787048 0.768819 -1.456959 1
1.770368 0.642371 -1.416315 1
1.761930 0.719914 -1.513816 1
1.790181 0.743027 -1.410919 1
1.763545 0.612826 -1.470134 1
1.781431 0.768254 -1.488596 1
1.783715 0.671428 -1.393305 1
1.755301 0.672365 -1.516589 1
1.794213 0.772202 -1.435713 1
1.767145 0.608143 -1.429658 1
1.770171 0.745432 -1.516692 1
1.793584 0.718850 -1.390854 1
1.759664 0.612923 -1.497711 1
1.789228 0.784988 -1.471447 1
1.779509 0.632775 -1.393049 1
1.752745 0.706866 -1.529319 1
1.792490 0.769507 -1.410815 1
1.759007 0.589550 -1.454669 1
1.782457 0.768887 -1.509148 1
1.790681 0.685673 -1.376529 1
1.753373 0.637862 -1.523186 1
1.796565 0.791792 -1.447217 1
1.774108 0.592096 -1.406074 1
1.762252 0.736878 -1.534478 1
1.798696 0.743501 -1.386537 1
1.761171 0.574212 -1.488809 1
1.791378 0.790899 -1.490705 1
1.781269 0.647931 -1.372426 1
1.750070 0.677157 -1.541072 1
1.802464 0.786170 -1.418934 1
1.764265 0.564386 -1.432608 1
1.777853 0.763685 -1.529444 1
1.794566 0.711531 -1.366991 1
1.745373 0.609084 -1.519220 1
1.800328 0.802913 -1.464619 1
1.772083 0.604106 -1.381500 1
1.753735 0.719219 -1.549056 1
1.803041 0.769446 -1.390046 1
1.758509 0.548436 -1.469726 1
1.793179 0.787585 -1.512976 1
1.785305 0.671204 -1.356704 1
1.743481 0.645914 -1.545079 1
1.809514 0.801243 -1.433545 1
1.769220 0.553858 -1.405537 1
1.768843 0.752906 -1.547771 1
1.799009 0.740410 -1.364726 1
1.749556 0.563572 -1.509456 1
1.801264 0.808696 -1.485846 1
1.779948 0.616265 -1.358761 1
1.742706 0.696649 -1.558396 1
1.810271 0.790647 -1.400286 1
1.756341 0.533212 -1.443382 1
1.789369 0.779820 -1.535426 1
1.785949 0.705147 -1.347904 1
1.738832 0.608627 -1.542049 1
1.816530 0.810567 -1.453534 1
1.774906 0.557588 -1.377012 1
1.754041 0.739557 -1.561665 1
1.807200 0.766101 -1.369194 1
1.748894 0.530595 -1.489064 1
1.803676 0.804886 -1.510329 1
1.773583 0.657302 -1.342779 1
1.731448 0.668702 -1.561842 1
1.823967 0.802684 -1.416670 1
1.757250 0.527561 -1.412628 1
1.777018 0.770836 -1.554979 1
1.794893 0.733249 -1.345061 1
1.739773 0.562656 -1.532025 1
1.826577 0.810543 -1.478437 1
1.778340 0.578997 -1.350877 1
1.740229 0.717987 -1.571895 1
1.817192 0.788436 -1.380168 1
1.740187 0.521797 -1.459433 1
1.798781 0.798348 -1.534828 1
1.781969 0.686389 -1.331439 1
1.719347 0.638909 -1.557782 1
1.841637 0.806662 -1.439090 1
1.766507 0.524677 -1.380057 1
1.758160 0.760174 -1.569869 1
1.803743 0.762224 -1.349236 1
1.740026 0.521638 -1.512031 1
1.774801 0.705338 -1.438428 1
1.783292 0.710182 -1.429811 1
1.775253 0.676297 -1.439679 1
1.780367 0.723541 -1.452812 1
1.785080 0.690318 -1.413047 1
1.766390 0.687855 -1.462104 1
1.787371 0.737038 -1.432214 1
1.779008 0.654427 -1.421252 1
1.773452 0.720813 -1.472489 1
1.787172 0.718303 -1.404124 1
1.766820 0.653258 -1.455100 1
1.787942 0.748125 -1.452959 1
1.780044 0.669710 -1.397812 1
1.767860 0.691688 -1.483812 1
1.793379 0.745671 -1.413930 1
1.767627 0.634245 -1.429590 1
1.778082 0.744603 -1.477609 1
1.788237 0.700836 -1.385512 1
1.761785 0.653450 -1.477255 1
1.793834 0.764577 -1.438913 1
1.779255 0.633447 -1.397409 1
1.766007 0.719098 -1.495551 1
1.794122 0.740787 -1.392305 1
1.764952 0.614846 -1.450931 1
1.787729 0.764872 -1.470730 1
1.788071 0.668100 -1.374220 1
1.757915 0.673518 -1.497764 1
1.797196 0.771291 -1.417246 1
1.777513 0.596914 -1.410807 1
1.773596 0.745297 -1.498263 1
1.797103 0.716669 -1.371928 1
1.760160 0.616861 -1.478153 1
1.792829 0.783964 -1.453162 1
1.783502 0.629677 -1.373803 1
1.764631 0.697162 -1.513158 1
1.801820 0.762306 -1.392241 1
1.772233 0.574259 -1.436518 1
1.783503 0.770831 -1.490192 1
1.794202 0.683115 -1.357353 1
1.755884 0.639491 -1.504061 1
1.803183 0.787823 -1.429051 1
1.775433 0.592802 -1.386811 1
1.766091 0.736634 -1.516109 1
1.801770 0.741800 -1.367685 1
1.764145 0.574619 -1.469475 1
1.794240 0.790767 -1.472226 1
1.783711 0.646427 -1.353277 1
1.754153 0.676960 -1.522544 1
1.806883 0.783798 -1.400385 1
1.773679 0.553802 -1.413531 1
1.781392 0.763545 -1.510906 1
1.792450 0.714947 -1.348508 1
1.756562 0.598318 -1.502261 1
1.804363 0.801442 -1.446282 1
1.779994 0.595192 -1.361788 1
1.761309 0.715034 -1.531781 1
1.807068 0.766996 -1.371236 1
1.759495 0.551504 -1.450130 1
1.791394 0.791887 -1.493299 1
1.780514 0.677995 -1.338584 1
1.749146 0.643771 -1.526927 1
1.814058 0.799015 -1.415002 1
1.775542 0.547169 -1.385944 1
1.773655 0.751800 -1.529549 1
1.801167 0.739295 -1.345842 1
1.758953 0.554694 -1.491558 1
1.803849 0.808674 -1.467272 1
1.779361 0.618405 -1.339776 1
1.750534 0.692140 -1.541288 1
1.815653 0.787281 -1.381470 1
1.758857 0.533248 -1.424020 1
1.790201 0.782160 -1.516003 1
1.783579 0.708649 -1.329701 1
1.746384 0.603608 -1.524339 1
1.820942 0.808709 -1.434933 1
1.782578 0.548314 -1.356863 1
1.758866 0.738699 -1.543542 1
1.805149 0.768961 -1.350788 1
1.751585 0.531648 -1.469632 1
1.802294 0.808456 -1.490708 1
1.778374 0.652278 -1.323265 1
1.747147 0.653484 -1.547697 1
1.823555 0.804333 -1.397789 1
1.760366 0.525792 -1.393234 1
1.782398 0.769251 -1.536830 1
1.789479 0.739516 -1.327364 1
1.748330 0.555527 -1.514256 1
1.828325 0.811047 -1.459281 1
1.778819 0.579625 -1.331507 1
1.748486 0.713322 -1.555126 1
1.818824 0.788057 -1.361326 1
1.741586 0.524244 -1.440164 1
1.799411 0.800605 -1.515314 1
1.778265 0.691321 -1.313524 1
1.739464 0.615908 -1.545368 1
1.842764 0.807241 -1.419766 1
1.770591 0.520518 -1.360237 1
1.767088 0.755151 -1.553221 1
1.798779 0.767597 -1.331416 1
1.741662 0.525223 -1.492275 1
1.782265 0.690702 -1.420768 1
1.781754 0.705713 -1.411479 1
1.774178 0.671191 -1.421285 1
1.778848 0.719513 -1.434591 1
1.784340 0.684479 -1.394525 1
1.771569 0.675724 -1.444685 1
1.786049 0.732553 -1.414002 1
1.778208 0.648396 -1.402605 1
1.776414 0.712137 -1.454942 1
1.791303 0.707347 -1.385649 1
1.771242 0.641131 -1.437262 1
1.786458 0.744151 -1.434759 1
1.788968 0.651611 -1.378825 1
1.765329 0.689260 -1.465322 1
1.796091 0.736906 -1.395671 1
1.776827 0.614767 -1.411442 1
1.779905 0.737577 -1.459972 1
1.796647 0.684400 -1.366313 1
1.765593 0.642502 -1.459678 1
1.792931 0.759916 -1.420784 1
1.777658 0.627737 -1.378529 1
1.769565 0.710059 -1.478377 1
1.797603 0.730871 -1.373724 1
1.771024 0.599374 -1.432960 1
1.786787 0.760682 -1.452642 1
1.783280 0.666196 -1.355630 1
1.764381 0.659966 -1.481104 1
1.799556 0.763333 -1.399132 1
1.774796 0.592585 -1.391726 1
1.775485 0.738505 -1.480758 1
1.793914 0.713098 -1.353407 1
1.760617 0.609818 -1.459847 1
1.797361 0.774598 -1.435662 1
1.783622 0.621221 -1.354537 1
1.763938 0.693092 -1.494924 1
1.801771 0.756213 -1.373838 1
1.770838 0.568359 -1.417426 1
1.785703 0.763898 -1.472690 1
1.784983 0.686029 -1.339350 1
1.758463 0.630407 -1.486448 1
1.803174 0.782353 -1.410939 1
1.787132 0.567538 -1.366790 1
1.771189 0.726513 -1.499496 1
1.801583 0.735293 -1.348971 1
1.761787 0.570947 -1.450410 1
1.794686 0.785421 -1.454358 1
1.778465 0.644664 -1.334682 1
1.761631 0.662619 -1.506552 1
1.811490 0.773842 -1.381959 1
1.772852 0.546229 -1.394197 1
1.779395 0.760950 -1.492454 1
1.787298 0.713189 -1.330313 1
1.753491 0.596696 -1.483137 1
1.806836 0.794121 -1.428437 1
1.773232 0.595450 -1.343009 1
1.759955 0.712173 -1.513379 1
1.805550 0.762068 -1.352773 1
1.763057 0.537890 -1.431592 1
1.791394 0.787197 -1.475363 1
1.781030 0.669265 -1.319337 1
1.752872 0.633639 -1.509858 1
1.814836 0.792782 -1.396724 1
1.774714 0.538839 -1.366339 1
1.773462 0.747665 -1.511459 1
1.792827 0.740680 -1.328156 1
1.756326 0.551831 -1.472300 1
1.805319 0.802493 -1.449455 1
1.778770 0.610011 -1.320223 1
1.755020 0.682219 -1.524731 1
1.815343 0.781524 -1.362947 1
1.757413 0.526574 -1.404873 1
1.789834 0.778019 -1.497821 1
1.779866 0.705080 -1.311371 1
1.755842 0.584084 -1.508703 1
1.819406 0.804613 -1.416542 1
1.775939 0.548054 -1.337633 1
1.765282 0.727537 -1.527663 1
1.800326 0.766907 -1.332740 1
1.750824 0.525023 -1.450758 1
1.801417 0.804492 -1.472515 1
1.770630 0.653229 -1.305353 1
1.747991 0.647844 -1.529800 1
1.824618 0.797732 -1.379263 1
1.758119 0.519516 -1.373893 1
1.782519 0.764902 -1.518695 1
1.786502 0.735336 -1.309039 1
1.756094 0.536755 -1.497655 1
1.821866 0.811026 -1.440192 1
1.772636 0.578365 -1.312594 1
1.755626 0.700840 -1.539706 1
1.813169 0.786709 -1.343219 1
1.734348 0.527802 -1.420955 1
1.797764 0.797556 -1.496772 1
1.771302 0.691198 -1.295829 1
1.742516 0.606562 -1.528198 1
1.833728 0.808693 -1.400850 1
1.766787 0.515814 -1.340647 1
1.768536 0.749705 -1.535613 1
1.795790 0.763645 -1.313174 1
1.739013 0.522354 -1.473169 1
1.780571 0.684264 -1.405814 1
1.787333 0.691113 -1.396709 1
1.782771 0.651833 -1.406779 1
1.781202 0.709148 -1.420143 1
1.788850 0.670294 -1.379276 1
1.776181 0.661726 -1.430478 1
1.789672 0.720892 -1.399306 1
1.783241 0.632508 -1.387404 1
1.773318 0.708029 -1.440041 1
1.789487 0.700760 -1.370526 1
1.769054 0.634951 -1.422244 1
1.787248 0.735922 -1.420188 1
1.784625 0.647271 -1.363531 1
1.768733 0.677333 -1.451419 1
1.793379 0.731695 -1.380690 1
1.776731 0.604904 -1.396180 1
1.782512 0.727622 -1.445844 1
1.790271 0.682444 -1.351265 1
1.765880 0.633447 -1.445088 1
1.794086 0.751414 -1.406112 1
1.783408 0.609826 -1.362656 1
1.771995 0.699953 -1.464439 1
1.801829 0.718153 -1.358168 1
1.768448 0.593065 -1.417715 1
1.790595 0.749913 -1.438566 1
1.781676 0.658370 -1.340189 1
1.766272 0.649499 -1.466990 1
1.800976 0.754405 -1.384194 1
1.784418 0.568066 -1.375890 1
1.778288 0.728598 -1.466905 1
1.789195 0.709332 -1.338445 1
1.763189 0.596853 -1.445518 1
1.797529 0.767397 -1.421014 1
1.778270 0.617558 -1.339233 1
1.766655 0.682504 -1.481202 1
1.805751 0.744415 -1.358390 1
1.775581 0.550347 -1.402219 1
1.786375 0.756496 -1.458357 1
1.777710 0.684945 -1.324737 1
1.759968 0.619885 -1.472292 1
1.804896 0.773585 -1.396150 1
1.779976 0.566080 -1.351254 1
1.771904 0.718906 -1.485328 1
1.792169 0.736325 -1.334607 1
1.765970 0.554315 -1.435955 1
1.797930 0.775727 -1.440205 1
1.774293 0.639452 -1.319410 1
1.758498 0.659080 -1.491390 1
1.808748 0.768714 -1.366926 1
1.776321 0.528996 -1.378366 1
1.782245 0.751558 -1.478698 1
1.779912 0.712149 -1.315902 1
1.762196 0.574640 -1.470340 1
1.807288 0.786807 -1.413715 1
1.777718 0.577423 -1.326245 1
1.766400 0.697852 -1.500905 1
1.799097 0.760122 -1.338128 1
1.759054 0.532881 -1.416087 1
1.794672 0.777703 -1.461453 1
1.772737 0.669148 -1.304954 1
1.756083 0.621192 -1.496388 1
1.815852 0.784658 -1.381684 1
1.777048 0.522601 -1.349959 1
1.773430 0.741271 -1.497136 1
1.786410 0.738576 -1.313677 1
1.759530 0.536467 -1.458060 1
1.806561 0.794793 -1.434949 1
1.770132 0.610219 -1.305527 1
1.759003 0.670209 -1.511703 1
1.811450 0.777275 -1.347971 1
1.752549 0.522297 -1.389398 1
1.787171 0.774177 -1.482786 1
1.774246 0.701884 -1.296721 1
1.757126 0.573253 -1.494509 1
1.818501 0.798402 -1.401575 1
1.780285 0.528484 -1.320392 1
1.764561 0.721933 -1.513172 1
1.797013 0.761867 -1.317798 1
1.744038 0.525016 -1.435041 1
1.801723 0.797835 -1.458022 1
1.773452 0.638678 -1.288453 1
1.750281 0.637312 -1.516328 1
1.822694 0.791968 -1.364108 1
1.747797 0.523559 -1.358767 1
1.779294 0.761868 -1.503408 1
1.782597 0.730434 -1.294116 1
1.752158 0.533064 -1.482034 1
1.819665 0.806090 -1.425142 1
1.779413 0.555775 -1.294402 1
1.756438 0.693340 -1.525759 1
1.807635 0.783781 -1.328524 1
1.730150 0.522976 -1.405867 1
1.796393 0.792541 -1.481960 1
1.771032 0.681358 -1.279799 1
1.754434 0.580613 -1.517772 1
1.830411 0.804223 -1.385652 1
1.758296 0.515891 -1.325396 1
1.769303 0.742805 -1.521557 1
1.789195 0.761584 -1.298877 1
1.731085 0.525069 -1.457183 1
1.785177 0.678614 -1.394974 1
1.785721 0.692539 -1.385710 1
1.776861 0.658901 -1.395589 1
1.779362 0.711071 -1.409086 1
1.788370 0.670239 -1.368264 1
1.771528 0.667549 -1.419079 1
1.785618 0.724798 -1.388301 1
1.783100 0.632178 -1.376361 1
1.776354 0.704748 -1.429419 1
1.787283 0.702486 -1.359684 1
1.773008 0.629768 -1.411543 1
1.785087 0.737977 -1.409093 1
1.786222 0.644457 -1.352396 1
1.765366 0.681805 -1.439971 1
1.792908 0.731567 -1.369744 1
1.780889 0.598848 -1.385148 1
1.778261 0.732275 -1.434308 1
1.780282 0.692959 -1.341263 1
1.766325 0.633227 -1.434131 1
1.792141 0.752959 -1.395083 1
1.775637 0.619324 -1.352173 1
1.768162 0.704846 -1.452742 1
1.793582 0.725849 -1.347777 1
1.774969 0.583784 -1.407049 1
1.786958 0.753500 -1.427150 1
1.771403 0.669874 -1.330545 1
1.763794 0.653348 -1.455458 1
1.800883 0.753888 -1.373181 1
1.780675 0.572679 -1.364883 1
1.774160 0.733404 -1.455109 1
1.783215 0.714776 -1.328272 1
1.768386 0.589866 -1.435099 1
1.797034 0.767609 -1.409945 1
1.766942 0.631478 -1.329715 1
1.763033 0.687644 -1.469309 1
1.797096 0.751963 -1.348030 1
1.775175 0.550657 -1.391074 1
1.786139 0.756915 -1.447221 1
1.771705 0.690758 -1.314846 1
1.764468 0.614492 -1.462015 1
1.804849 0.773109 -1.385102 1
1.771920 0.576642 -1.340958 1
1.770947 0.720632 -1.473947 1
1.790104 0.737343 -1.323955 1
1.764883 0.556273 -1.424735 1
1.796253 0.777179 -1.428928 1
1.768912 0.645004 -1.309420 1
1.760405 0.657635 -1.480665 1
1.805496 0.770890 -1.356068 1
1.776024 0.528738 -1.367216 1
1.779239 0.755012 -1.466928 1
1.776769 0.714317 -1.305611 1
1.754784 0.586518 -1.457790 1
1.808299 0.785538 -1.402657 1
1.768298 0.589426 -1.316660 1
1.760064 0.706243 -1.488031 1
1.795558 0.762447 -1.327615 1
1.761668 0.528697 -1.405213 1
1.792643 0.779688 -1.449974 1
1.771461 0.669179 -1.294311 1
1.758366 0.619231 -1.485709 1
1.817322 0.782700 -1.370506 1
1.773007 0.527696 -1.339203 1
1.771564 0.743946 -1.485440 1
1.782474 0.741332 -1.303517 1
1.757131 0.541010 -1.446523 1
1.808974 0.792508 -1.424002 1
1.763464 0.617720 -1.295946 1
1.752697 0.679417 -1.498584 1
1.805794 0.781338 -1.337483 1
1.752751 0.521510 -1.378502 1
1.784933 0.776657 -1.471102 1
1.770878 0.704190 -1.286620 1
1.760567 0.569371 -1.484025 1
1.821171 0.795646 -1.390430 1
1.775316 0.534417 -1.309989 1
1.763813 0.723802 -1.501639 1
1.791563 0.765828 -1.307782 1
1.743873 0.525722 -1.424121 1
1.803877 0.795980 -1.447113 1
1.764439 0.648550 -1.279687 1
1.746133 0.644510 -1.503747 1
1.820802 0.792696 -1.353051 1
1.753659 0.512753 -1.347398 1
1.779782 0.762048 -1.492199 1
1.779023 0.732696 -1.284026 1
1.754764 0.530042 -1.471355 1
1.823908 0.802282 -1.414156 1
1.776739 0.557684 -1.283739 1
1.754892 0.696580 -1.513864 1
1.802231 0.787425 -1.318288 1
1.728992 0.524955 -1.395188 1
1.796945 0.792302 -1.470761 1
1.764503 0.687406 -1.270634 1
1.744936 0.596518 -1.503434 1
1.834957 0.799888 -1.374275 1
1.756639 0.516980 -1.314655 1
1.767668 0.745535 -1.509649 1
1.785484 0.763777 -1.288773 1
1.734081 0.520799 -1.446813 1
1.787723 0.670827 -1.385416 1
1.789065 0.683947 -1.376077 1
1.779721 0.650380 -1.386101 1
1.781054 0.704827 -1.399706 1
1.786845 0.666906 -1.358618 1
1.772518 0.661728 -1.409742 1
1.787557 0.718258 -1.378749 1
1.783109 0.626726 -1.366663 1
1.777195 0.699605 -1.420090 1
1.785932 0.699064 -1.350088 1
1.774139 0.623229 -1.402122 1
1.785303 0.733589 -1.399618 1
1.784145 0.641481 -1.342758 1
1.766132 0.676650 -1.430758 1
1.793585 0.726264 -1.360051 1
1.782704 0.590648 -1.375438 1
1.778634 0.727933 -1.424946 1
1.784230 0.683162 -1.331090 1
1.766454 0.628342 -1.424782 1
1.793246 0.747656 -1.385537 1
1.773578 0.616226 -1.342596 1
1.767921 0.701217 -1.443387 1
1.790418 0.724323 -1.338321 1
1.775705 0.577149 -1.397512 1
1.786162 0.750393 -1.417608 1
1.768242 0.668234 -1.321251 1
1.763813 0.649057 -1.446156 1
1.801279 0.749085 -1.363470 1
1.780866 0.566138 -1.355046 1
1.773773 0.730103 -1.445683 1
1.779649 0.713580 -1.319010 1
1.768258 0.584916 -1.425665 1
1.796638 0.763982 -1.400355 1
1.765851 0.626924 -1.320086 1
1.762944 0.683917 -1.460005 1
1.794122 0.750250 -1.338567 1
1.776159 0.542980 -1.381401 1
1.785838 0.753511 -1.437713 1
1.768334 0.689263 -1.305654 1
1.764870 0.609400 -1.452753 1
1.804727 0.769024 -1.375424 1
1.772084 0.569841 -1.331061 1
1.770128 0.717949 -1.464419 1
1.786211 0.736401 -1.314729 1
1.764111 0.551811 -1.415232 1
1.795386 0.774195 -1.419305 1
1.767625 0.640585 -1.299752 1
1.760509 0.653580 -1.471406 1
1.801727 0.769922 -1.346586 1
1.773912 0.525233 -1.357489 1
1.778916 0.751834 -1.457448 1
1.773121 0.713050 -1.296489 1
1.755018 0.581323 -1.448583 1
1.808161 0.781663 -1.392980 1
1.768616 0.582235 -1.306613 1
1.759658 0.703231 -1.478652 1
1.791760 0.761383 -1.318355 1
1.757723 0.528804 -1.395563 1
1.792166 0.776543 -1.440387 1
1.769231 0.665967 -1.284826 1
1.759626 0.613296 -1.476733 1
1.815245 0.780224 -1.360770 1
1.771087 0.523480 -1.329437 1
1.770564 0.741650 -1.475826 1
1.779285 0.739549 -1.294309 1
1.755101 0.538759 -1.436922 1
1.808238 0.789347 -1.414284 1
1.778066 0.590690 -1.282542 1
1.752814 0.675752 -1.489383 1
1.801185 0.780967 -1.328204 1
1.747954 0.522722 -1.369086 1
1.784323 0.773848 -1.461509 1
1.768507 0.701279 -1.277249 1
1.760864 0.564263 -1.474786 1
1.821196 0.791544 -1.380624 1
1.774383 0.528297 -1.299927 1
1.763636 0.720736 -1.492235 1
1.787993 0.764417 -1.298599 1
1.739969 0.526294 -1.414532 1
1.803441 0.792772 -1.437436 1
1.765077 0.641276 -1.269403 1
1.746276 0.640632 -1.494614 1
1.815668 0.792675 -1.343569 1
1.748338 0.514326 -1.338182 1
1.779082 0.759497 -1.482546 1
1.776034 0.730522 -1.274796 1
1.751917 0.529456 -1.461515 1
1.822122 0.799857 -1.404257 1
1.779287 0.546276 -1.272663 1
1.755401 0.692715 -1.504719 1
1.798479 0.786166 -1.309037 1
1.724514 0.526286 -1.385910 1
1.796280 0.789507 -1.461047 1
1.763201 0.682950 -1.260930 1
1.746218 0.590497 -1.494649 1
1.831365 0.798562 -1.364426 1
1.751364 0.517924 -1.305573 1
1.766662 0.743510 -1.499936 1
1.783155 0.761039 -1.279401 1
1.730283 0.521689 -1.437163 1
1.789670 0.653772 -1.375919 1
1.789203 0.669359 -1.366457 1
1.784522 0.628892 -1.376678 1
1.785025 0.686648 -1.390639 1
1.782781 0.656759 -1.348997 1
1.777541 0.640571 -1.401023 1
1.792145 0.699739 -1.369165 1
1.781157 0.613042 -1.356952 1
1.782159 0.680247 -1.411578 1
1.789687 0.680454 -1.339855 1
1.780613 0.598372 -1.393216 1
1.795544 0.709768 -1.390736 1
1.784727 0.624631 -1.332536 1
1.775363 0.650940 -1.423114 1
1.797083 0.709086 -1.350049 1
1.784294 0.571037 -1.365685 1
1.781572 0.711936 -1.416342 1
1.781656 0.671269 -1.321181 1
1.772516 0.604373 -1.416612 1
1.795714 0.732465 -1.376089 1
1.780119 0.590130 -1.331779 1
1.771819 0.683302 -1.435378 1
1.789248 0.711867 -1.328381 1
1.780348 0.552713 -1.388348 1
1.790736 0.733390 -1.408919 1
1.781126 0.636160 -1.308913 1
1.765196 0.632489 -1.437907 1
1.802105 0.735407 -1.353644 1
1.785126 0.541297 -1.344634 1
1.775824 0.715331 -1.437359 1
1.782681 0.695911 -1.308233 1
1.772676 0.561363 -1.417328 1
1.795865 0.752552 -1.391019 1
1.786510 0.581231 -1.306303 1
1.763439 0.669741 -1.451778 1
1.797088 0.734208 -1.328219 1
1.772983 0.528873 -1.371814 1
1.785114 0.742194 -1.428782 1
1.777187 0.663270 -1.293409 1
1.766843 0.590720 -1.444716 1
1.806428 0.755120 -1.365738 1
1.785975 0.530055 -1.318747 1
1.769634 0.705903 -1.455924 1
1.784125 0.724978 -1.304732 1
1.762067 0.536645 -1.406186 1
1.797524 0.760374 -1.410359 1
1.778496 0.609120 -1.286654 1
1.761146 0.638442 -1.463407 1
1.801670 0.757458 -1.336644 1
1.765332 0.518914 -1.347992 1
1.780867 0.737915 -1.449185 1
1.772595 0.699139 -1.285980 1
1.759320 0.557752 -1.440997 1
1.805220 0.772434 -1.383445 1
1.783264 0.541620 -1.292874 1
1.761865 0.687727 -1.471040 1
1.789493 0.750667 -1.308454 1
1.747581 0.525994 -1.386122 1
1.792087 0.765066 -1.431478 1
1.775319 0.642040 -1.272321 1
1.761786 0.594741 -1.469216 1
1.809312 0.773336 -1.351201 1
1.761715 0.518027 -1.320080 1
1.769988 0.730346 -1.467357 1
1.777528 0.727665 -1.284093 1
1.749468 0.529358 -1.427755 1
1.804931 0.780716 -1.404784 1
1.795123 0.547515 -1.266884 1
1.756331 0.657715 -1.482420 1
1.797492 0.771959 -1.318539 1
1.733522 0.527020 -1.360087 1
1.787093 0.759755 -1.453353 1
1.769684 0.684766 -1.265949 1
1.755598 0.555374 -1.465633 1
1.817528 0.782859 -1.370935 1
1.765671 0.521363 -1.290437 1
1.762811 0.709442 -1.483920 1
1.785908 0.753423 -1.288522 1
1.727325 0.528564 -1.404926 1
1.801396 0.783293 -1.428144 1
1.782169 0.600905 -1.253089 1
1.752834 0.616909 -1.488784 1
1.810880 0.784755 -1.333949 1
1.730637 0.523774 -1.330046 1
1.777911 0.749199 -1.473848 1
1.774337 0.718169 -1.264299 1
1.742899 0.525951 -1.451763 1
1.816198 0.793325 -1.394503 1
1.780369 0.524118 -1.260495 1
1.755115 0.680257 -1.496798 1
1.795394 0.776545 -1.299218 1
1.713639 0.525426 -1.376872 1
1.793427 0.780969 -1.451748 1
1.782848 0.642345 -1.243497 1
1.752457 0.564792 -1.488840 1
1.824428 0.792433 -1.354760 1
1.735199 0.524023 -1.297822 1
1.769852 0.728398 -1.492698 1
1.783334 0.747533 -1.268577 1
1.717911 0.524185 -1.427325 1
1.785576 0.629692 -1.369159 1
1.781931 0.649854 -1.359617 1
1.789206 0.591744 -1.369915 1
1.787293 0.656605 -1.384353 1
1.787592 0.621144 -1.341095 1
1.773415 0.616080 -1.394864 1
1.793097 0.671910 -1.362158 1
1.788235 0.571043 -1.349218 1
1.777385 0.658577 -1.405463 1
1.781678 0.662032 -1.332780 1
1.775794 0.572559 -1.386884 1
1.791284 0.688520 -1.384177 1
1.787433 0.589408 -1.324080 1
1.773144 0.624669 -1.417588 1
1.788157 0.692676 -1.343132 1
1.782077 0.539565 -1.358637 1
1.777499 0.690851 -1.410304 1
1.782565 0.641271 -1.312684 1
1.767534 0.579312 -1.410807 1
1.791203 0.712279 -1.369301 1
1.790948 0.540415 -1.322285 1
1.767197 0.661828 -1.429738 1
1.780129 0.695718 -1.321405 1
1.770336 0.532289 -1.381826 1
1.789878 0.709615 -1.402875 1
1.791026 0.591774 -1.298348 1
1.765899 0.601141 -1.433328 1
1.793925 0.718930 -1.346704 1
1.773606 0.522169 -1.337669 1
1.770710 0.695797 -1.431535 1
1.779789 0.671793 -1.300045 1
1.763992 0.539654 -1.411281 1
1.793648 0.730894 -1.384489 1
1.793354 0.536600 -1.295904 1
1.768778 0.634791 -1.448346 1
1.790565 0.715835 -1.320943 1
1.752025 0.525052 -1.365345 1
1.778641 0.724964 -1.422535 1
1.783814 0.625092 -1.282752 1
1.758432 0.570321 -1.439000 1
1.804207 0.733333 -1.358671 1
1.765084 0.524971 -1.312840 1
1.766740 0.683539 -1.450844 1
1.777552 0.706297 -1.297229 1
1.745240 0.527050 -1.399560 1
1.788221 0.746202 -1.403636 1
1.795217 0.552272 -1.273114 1
1.762222 0.607136 -1.459736 1
1.796562 0.738445 -1.329344 1
1.744461 0.514777 -1.341882 1
1.776967 0.717969 -1.443571 1
1.773236 0.670689 -1.276505 1
1.753944 0.530814 -1.435910 1
1.798961 0.755293 -1.376664 1
1.768066 0.527700 -1.286148 1
1.765209 0.656730 -1.467855 1
1.782679 0.733100 -1.301105 1
1.724958 0.526400 -1.379596 1
1.785415 0.748658 -1.425105 1
1.754278 0.573462 -1.463997 1
1.801701 0.757207 -1.344213 1
1.732266 0.528389 -1.315622 1
1.768303 0.707808 -1.462612 1
1.773303 0.706348 -1.275826 1
1.727329 0.529390 -1.420425 1
1.799232 0.763440 -1.398183 1
1.785433 0.524939 -1.258584 1
1.752114 0.634954 -1.477906 1
1.790405 0.755273 -1.311350 1
1.715706 0.519193 -1.353926 1
1.780267 0.743589 -1.447134 1
1.777640 0.646053 -1.253664 1
1.751647 0.526210 -1.461431 1
1.807869 0.768792 -1.364033 1
1.736896 0.529929 -1.286761 1
1.758870 0.688756 -1.479109 1
1.779740 0.735174 -1.280852 1
1.709963 0.520764 -1.398520 1
1.796204 0.765832 -1.421795 1
1.763255 0.570361 -1.488840 1
1.803386 0.768673 -1.326863 1
1.705949 0.528196 -1.324993 1
1.769805 0.734385 -1.467566 1
1.776689 0.688679 -1.253750 1
1.722147 0.524129 -1.444249 1
1.808235 0.778150 -1.387648 1
1.753051 0.528896 -1.257075 1
1.752595 0.656516 -1.492891 1
1.788162 0.760031 -1.291924 1
1.692489 0.524898 -1.370764 1
1.788412 0.763546 -1.445690 1
1.754400 0.526883 -1.486852 1
1.813848 0.779090 -1.347866 1
1.714412 0.520629 -1.292599 1
1.762308 0.712646 -1.486798 1
1.782342 0.723472 -1.259261 1
1.698141 0.521445 -1.420490 1
1.776395 0.597526 -1.363308 1
1.787176 0.600027 -1.353064 1
1.783762 0.551512 -1.363944 1
1.779714 0.624204 -1.378924 1
1.788903 0.573910 -1.333655 1
1.780833 0.559287 -1.390512 1
1.783877 0.642453 -1.356227 1
1.776806 0.537887 -1.342793 1
1.772513 0.622838 -1.400832 1
1.775176 0.628450 -1.325925 1
1.771561 0.528592 -1.381611 1
1.785171 0.656418 -1.378789 1
1.779285 0.552694 -1.316753 1
1.767619 0.587168 -1.413371 1
1.779913 0.663275 -1.336828 1
1.759125 0.522452 -1.352826 1
1.779414 0.649160 -1.406378 1
1.777311 0.604455 -1.304911 1
1.764659 0.533721 -1.406699 1
1.788865 0.677363 -1.363518 1
1.771160 0.517934 -1.316091 1
1.771278 0.614397 -1.427196 1
1.782770 0.653371 -1.313229 1
1.740384 0.526971 -1.375890 1
1.782585 0.680262 -1.397898 1
1.793969 0.539284 -1.288211 1
1.770050 0.547143 -1.431209 1
1.784482 0.692329 -1.340645 1
1.740424 0.521520 -1.332804 1
1.772611 0.654462 -1.428642 1
1.774041 0.637833 -1.292159 1
1.741757 0.522238 -1.405486 1
1.795160 0.693142 -1.379310 1
1.771342 0.517215 -1.289916 1
1.760953 0.601365 -1.444732 1
1.781053 0.689131 -1.314441 1
1.719706 0.524777 -1.359845 1
1.778564 0.688462 -1.418858 1
1.786314 0.576264 -1.272068 1
1.752864 0.527956 -1.435838 1
1.793528 0.708620 -1.352865 1
1.735699 0.518463 -1.308086 1
1.770047 0.639278 -1.449214 1
1.773287 0.672946 -1.289246 1
1.717743 0.518913 -1.393505 1
1.786871 0.712632 -1.399070 1
1.778040 0.526177 -1.266046 1
1.757864 0.566419 -1.457392 1
1.784886 0.715110 -1.323322 1
1.707695 0.522788 -1.337378 1
1.768508 0.690672 -1.439333 1
1.789920 0.607585 -1.262377 1
1.726931 0.521671 -1.429388 1
1.798044 0.721831 -1.371170 1
1.737392 0.523159 -1.282112 1
1.759987 0.621410 -1.465275 1
1.774233 0.706189 -1.294200 1
1.695734 0.522577 -1.373864 1
1.780899 0.718654 -1.420882 1
1.750594 0.528331 -1.462279 1
1.796308 0.728282 -1.337956 1
1.703597 0.522796 -1.310945 1
1.763399 0.675776 -1.459619 1
1.778249 0.661882 -1.264881 1
1.698472 0.525049 -1.413929 1
1.790276 0.738524 -1.392962 1
1.752550 0.522660 -1.255499 1
1.760100 0.578527 -1.479524 1
1.785515 0.725761 -1.304246 1
1.683746 0.520945 -1.348869 1
1.770549 0.718999 -1.442613 1
1.719359 0.526401 -1.453384 1
1.798082 0.744674 -1.358346 1
1.707428 0.525418 -1.282712 1
1.761014 0.646328 -1.478697 1
1.777574 0.701407 -1.272136 1
1.678077 0.523165 -1.392273 1
1.785401 0.742963 -1.416698 1
1.751163 0.538718 -1.485627 1
1.792133 0.745998 -1.320907 1
1.679479 0.519998 -1.320000 1
1.762839 0.706450 -1.464063 1
1.784179 0.639424 -1.240649 1
1.690326 0.525720 -1.436726 1
1.800548 0.752485 -1.382294 1
1.720827 0.527975 -1.254232 1
1.751258 0.615707 -1.492463 1
1.783356 0.730686 -1.284341 1
1.665090 0.519500 -1.365304 1
1.781149 0.737222 -1.441438 1
1.728631 0.515624 -1.480020 1
1.799000 0.759908 -1.342314 1
1.681472 0.524131 -1.289391 1
1.757271 0.681168 -1.484469 1
1.774104 0.695693 -1.251366 1
1.667896 0.521672 -1.413851 1
1.777189 0.534891 -1.357948 1
1.778768 0.551456 -1.347421 1
1.763364 0.516408 -1.358910 1
1.779722 0.566326 -1.374605 1
1.776355 0.528694 -1.327406 1
1.761364 0.523534 -1.386042 1
1.779634 0.592536 -1.350697 1
1.749902 0.512233 -1.337770 1
1.772015 0.565278 -1.397895 1
1.779951 0.564024 -1.317751 1
1.737058 0.515392 -1.376605 1
1.778324 0.611446 -1.374330 1
1.760947 0.514283 -1.310511 1
1.761697 0.533168 -1.410800 1
1.772827 0.619093 -1.330674 1
1.721482 0.515105 -1.348392 1
1.770900 0.605728 -1.402968 1
1.789020 0.526630 -1.293809 1
1.730353 0.521030 -1.401364 1
1.777703 0.639658 -1.358542 1
1.728514 0.517846 -1.313023 1
1.763923 0.565788 -1.424976 1
1.770855 0.614523 -1.306717 1
1.703994 0.519195 -1.371038 1
1.780368 0.631812 -1.394504 1
1.765378 0.515556 -1.283181 1
1.743987 0.521388 -1.426696 1
1.778696 0.649289 -1.334680 1
1.702554 0.515971 -1.328918 1
1.765286 0.609963 -1.426281 1
1.789991 0.559045 -1.279297 1
1.700321 0.523510 -1.399577 1
1.781810 0.659220 -1.374726 1
1.728185 0.517848 -1.287784 1
1.764810 0.534009 -1.445646 1
1.771221 0.650662 -1.307933 1
1.680208 0.524509 -1.355494 1
1.770771 0.647736 -1.415866 1
1.783155 0.516923 -1.261267 1
1.716089 0.520222 -1.429696 1
1.780134 0.675779 -1.347769 1
1.693586 0.521011 -1.305515 1
1.760307 0.596654 -1.447352 1
1.783063 0.607693 -1.277714 1
1.674679 0.525770 -1.387923 1
1.778227 0.674852 -1.395226 1
1.739151 0.519240 -1.263590 1
1.746106 0.519195 -1.456125 1
1.777981 0.675346 -1.316920 1
1.671315 0.517218 -1.333431 1
1.767347 0.641841 -1.438284 1
1.688186 0.519450 -1.423085 1
1.785383 0.688997 -1.366440 1
1.698107 0.520335 -1.279742 1
1.763998 0.556692 -1.467626 1
1.772900 0.658885 -1.285555 1
1.658514 0.519992 -1.369186 1
1.771994 0.681758 -1.417691 1
1.763615 0.515556 -1.241012 1
1.716658 0.515875 -1.456251 1
1.780332 0.699432 -1.332844 1
1.666538 0.518820 -1.307692 1
1.763597 0.623463 -1.460144 1
1.660723 0.523668 -1.408162 1
1.787028 0.696853 -1.389166 1
1.710274 0.523675 -1.254556 1
1.751150 0.528286 -1.479765 1
1.773037 0.693076 -1.298144 1
1.646486 0.519351 -1.344862 1
1.766202 0.676906 -1.440958 1
1.685495 0.515781 -1.447516 1
1.791133 0.707298 -1.353240 1
1.668302 0.525269 -1.280635 1
1.752648 0.602489 -1.478322 1
1.771432 0.659401 -1.263482 1
1.641041 0.522034 -1.387175 1
1.779876 0.704186 -1.413639 1
1.735670 0.520405 -1.229984 1
1.723742 0.515564 -1.481133 1
1.779111 0.715102 -1.315351 1
1.643136 0.516554 -1.316578 1
1.759557 0.661865 -1.463754 1
1.655717 0.518657 -1.430964 1
1.788377 0.721026 -1.377793 1
1.680813 0.528210 -1.253111 1
1.751680 0.555156 -1.495992 1
1.771860 0.697234 -1.277643 1
1.628598 0.518015 -1.360935 1
1.768233 0.706209 -1.438053 1
1.689274 0.514372 -1.472174 1
1.788670 0.726997 -1.336995 1
1.645296 0.520231 -1.286609 1
1.756542 0.630586 -1.486222 1
1.781281 0.636695 -1.237772 1
1.631281 0.520647 -1.408247 1
1.751214 0.510653 -1.351881 1
1.763290 0.511740 -1.340769 1
1.725277 0.512165 -1.353233 1
1.768188 0.522145 -1.368779 1
1.746064 0.510869 -1.321626 1
1.724796 0.517367 -1.379746 1
1.779862 0.533565 -1.343525 1
1.710548 0.511040 -1.332813 1
1.759008 0.523352 -1.392870 1
1.771055 0.515156 -1.309461 1
1.694593 0.521610 -1.370541 1
1.773062 0.562608 -1.368616 1
1.718596 0.517157 -1.306677 1
1.730117 0.519195 -1.404430 1
1.781006 0.551683 -1.321601 1
1.682261 0.516585 -1.343354 1
1.764849 0.557440 -1.398615 1
1.751118 0.519916 -1.289481 1
1.691207 0.522216 -1.394612 1
1.778224 0.585832 -1.351993 1
1.688234 0.520411 -1.309172 1
1.750996 0.523919 -1.420918 1
1.783290 0.540074 -1.294945 1
1.666018 0.520370 -1.365401 1
1.771379 0.590261 -1.389477 1
1.724954 0.514493 -1.279803 1
1.708297 0.515299 -1.419635 1
1.784527 0.589468 -1.326299 1
1.664888 0.516085 -1.324472 1
1.758622 0.563043 -1.422953 1
1.777577 0.514896 -1.270017 1
1.663983 0.522228 -1.393220 1
1.778990 0.612066 -1.369084 1
1.686593 0.522687 -1.285051 1
1.736360 0.514972 -1.439445 1
1.780941 0.585274 -1.296996 1
1.648420 0.514967 -1.350222 1
1.768764 0.598344 -1.412431 1
1.740890 0.517182 -1.258768 1
1.678994 0.519109 -1.422381 1
1.775262 0.632603 -1.341001 1
1.657692 0.518339 -1.301492 1
1.757911 0.541910 -1.445952 1
1.640168 0.523001 -1.382094 1
1.774724 0.630151 -1.390536 1
1.697013 0.523743 -1.261698 1
1.710298 0.513307 -1.448375 1
1.771732 0.633640 -1.309010 1
1.636658 0.513926 -1.328793 1
1.759379 0.600007 -1.435049 1
1.769542 0.514425 -1.242400 1
1.651575 0.519936 -1.416073 1
1.779106 0.648830 -1.360463 1
1.660710 0.520041 -1.276639 1
1.746007 0.522408 -1.463742 1
1.774830 0.604749 -1.274479 1
1.624000 0.518126 -1.363868 1
1.768621 0.637600 -1.414057 1
1.717252 0.524544 -1.240818 1
1.679810 0.514284 -1.448266 1
1.775189 0.658611 -1.325588 1
1.632275 0.514863 -1.303551 1
1.750302 0.587592 -1.456679 1
1.628645 0.516703 -1.402232 1
1.777567 0.661176 -1.383852 1
1.670310 0.527206 -1.252835 1
1.724092 0.507394 -1.473916 1
1.774938 0.642894 -1.288179 1
1.612865 0.516118 -1.340099 1
1.764034 0.630799 -1.438668 1
1.649102 0.516139 -1.439860 1
1.783160 0.670472 -1.346874 1
1.634940 0.519261 -1.276776 1
1.752160 0.545439 -1.479293 1
1.608563 0.517206 -1.381647 1
1.770362 0.669311 -1.409025 1
1.693110 0.525794 -1.229509 1
1.689765 0.508062 -1.473378 1
1.773782 0.675730 -1.307529 1
1.610114 0.511570 -1.312238 1
1.760194 0.610458 -1.463458 1
1.622007 0.515817 -1.424343 1
1.785182 0.680101 -1.372289 1
1.647603 0.520810 -1.249490 1
1.738631 0.512861 -1.494458 1
1.775437 0.645323 -1.266103 1
1.595940 0.514040 -1.355936 1
1.764271 0.665105 -1.435128 1
1.653445 0.513351 -1.463998 1
1.781537 0.690651 -1.330161 1
1.611492 0.516884 -1.282989 1
1.747582 0.589310 -1.484712 1
1.599569 0.514856 -1.402486 1
1.717989 0.512622 -1.349346 1
1.731317 0.510641 -1.338425 1
1.693147 0.514319 -1.350706 1
1.740860 0.513496 -1.365781 1
1.713891 0.511286 -1.319849 1
1.694103 0.517179 -1.376540 1
1.761811 0.510168 -1.340361 1
1.680444 0.510393 -1.330723 1
1.730461 0.517366 -1.389468 1
1.738306 0.514738 -1.307944 1
1.666826 0.518099 -1.367658 1
1.768512 0.520713 -1.365791 1
1.688919 0.515209 -1.305076 1
1.699424 0.518771 -1.400618 1
1.772066 0.515469 -1.317338 1
1.654299 0.513965 -1.340998 1
1.752737 0.526687 -1.396398 1
1.722060 0.514735 -1.287920 1
1.665097 0.515748 -1.391449 1
1.774652 0.544582 -1.348484 1
1.660388 0.517142 -1.307399 1
1.723147 0.517366 -1.417125 1
1.767665 0.513089 -1.290957 1
1.639082 0.516971 -1.362674 1
1.764426 0.554235 -1.387275 1
1.692334 0.517321 -1.279391 1
1.678216 0.515326 -1.415532 1
1.779216 0.551009 -1.321938 1
1.638097 0.512012 -1.322381 1
1.748561 0.529578 -1.421567 1
1.741985 0.518430 -1.270102 1
1.637408 0.518413 -1.390055 1
1.774228 0.574696 -1.366223 1
1.658314 0.520395 -1.283831 1
1.707130 0.511498 -1.435116 1
1.779766 0.540431 -1.290890 1
1.621514 0.512358 -1.347791 1
1.759068 0.566911 -1.410607 1
1.704502 0.525326 -1.259871 1
1.651724 0.515775 -1.418643 1
1.774444 0.591455 -1.336961 1
1.631075 0.514349 -1.299761 1
1.740569 0.518663 -1.443816 1
1.774367 0.513652 -1.260102 1
1.614859 0.517813 -1.379215 1
1.767086 0.598008 -1.388214 1
1.667870 0.522361 -1.261105 1
1.680462 0.512772 -1.443662 1
1.781474 0.578349 -1.302121 1
1.609907 0.511614 -1.326746 1
1.756978 0.558116 -1.435113 1
1.731240 0.522974 -1.244272 1
1.625565 0.515671 -1.412643 1
1.773438 0.615340 -1.357309 1
1.632144 0.520145 -1.275849 1
1.720500 0.512240 -1.459862 1
1.598772 0.513345 -1.361257 1
1.761494 0.605352 -1.412418 1
1.688652 0.520656 -1.240268 1
1.651508 0.512972 -1.443835 1
1.772419 0.622029 -1.321134 1
1.605630 0.512513 -1.301921 1
1.749718 0.541580 -1.458309 1
1.602434 0.514224 -1.398996 1
1.775861 0.623687 -1.381555 1
1.642672 0.524772 -1.252179 1
1.694711 0.504906 -1.468869 1
1.781788 0.592496 -1.280457 1
1.587289 0.512700 -1.337847 1
1.759241 0.594960 -1.438202 1
1.713050 0.526989 -1.225260 1
1.622529 0.513265 -1.435947 1
1.776657 0.639420 -1.343367 1
1.607388 0.519030 -1.275888 1
1.739053 0.515725 -1.478710 1
1.583927 0.511880 -1.378878 1
1.769111 0.631866 -1.407753 1
1.665057 0.522461 -1.229188 1
1.657884 0.513267 -1.467329 1
1.769920 0.641689 -1.302629 1
1.583871 0.509667 -1.310493 1
1.752533 0.577125 -1.463320 1
1.596503 0.512085 -1.420900 1
1.776319 0.652498 -1.369385 1
1.617513 0.525416 -1.250050 1
1.711910 0.504928 -1.489921 1
1.571310 0.509079 -1.353474 1
1.757257 0.634629 -1.433946 1
1.692100 0.526754 -1.211205 1
1.625867 0.512467 -1.459368 1
1.773926 0.662093 -1.326354 1
1.585497 0.514376 -1.281650 1
1.747827 0.542197 -1.488003 1
1.575022 0.509805 -1.399513 1
1.699795 0.512661 -1.344257 1
1.710948 0.513815 -1.333587 1
1.673491 0.518417 -1.345769 1
1.720452 0.516344 -1.360357 1
1.694393 0.513774 -1.315383 1
1.673966 0.522282 -1.371043 1
1.741734 0.511306 -1.335318 1
1.661262 0.514161 -1.326203 1
1.712610 0.516453 -1.383749 1
1.720381 0.513314 -1.303324 1
1.652928 0.511967 -1.362513 1
1.753208 0.514228 -1.360296 1
1.670644 0.516685 -1.300857 1
1.682326 0.517928 -1.394874 1
1.755881 0.510019 -1.312223 1
1.639974 0.508849 -1.336035 1
1.738794 0.518692 -1.390844 1
1.701857 0.517991 -1.284145 1
1.645539 0.521597 -1.385699 1
1.771399 0.520443 -1.342686 1
1.644176 0.515809 -1.302956 1
1.703281 0.520430 -1.410713 1
1.748718 0.512048 -1.286555 1
1.624637 0.512832 -1.357653 1
1.761268 0.530394 -1.382357 1
1.672874 0.520848 -1.275870 1
1.659998 0.517714 -1.409425 1
1.775881 0.527290 -1.315603 1
1.620838 0.514043 -1.318020 1
1.736273 0.519150 -1.416140 1
1.723500 0.517739 -1.266104 1
1.622844 0.514800 -1.384831 1
1.772098 0.550426 -1.360887 1
1.641821 0.519729 -1.279754 1
1.686405 0.517063 -1.428142 1
1.776425 0.516146 -1.283834 1
1.604741 0.514313 -1.343071 1
1.758116 0.540398 -1.406462 1
1.689849 0.519374 -1.255212 1
1.635582 0.515173 -1.412859 1
1.774422 0.565034 -1.330892 1
1.615205 0.513425 -1.295486 1
1.724267 0.514897 -1.437576 1
1.752649 0.516591 -1.256787 1
1.600931 0.513382 -1.374182 1
1.769078 0.569127 -1.383671 1
1.648879 0.526375 -1.258065 1
1.663771 0.512036 -1.437393 1
1.782792 0.549445 -1.294830 1
1.593246 0.513809 -1.322394 1
1.750467 0.539573 -1.430638 1
1.713605 0.521282 -1.240480 1
1.610295 0.514231 -1.407127 1
1.774382 0.588892 -1.351848 1
1.616315 0.519126 -1.271848 1
1.703464 0.510461 -1.453271 1
1.786047 0.515205 -1.256299 1
1.584040 0.511315 -1.356386 1
1.762514 0.578147 -1.408558 1
1.669815 0.523077 -1.237313 1
1.634992 0.513257 -1.437606 1
1.770376 0.599740 -1.314997 1
1.590140 0.511768 -1.297679 1
1.742583 0.523398 -1.454028 1
1.747384 0.517351 -1.231228 1
1.587786 0.512094 -1.393769 1
1.773454 0.602074 -1.376643 1
1.628019 0.520679 -1.247908 1
1.675099 0.509169 -1.461364 1
1.783997 0.563139 -1.272409 1
1.573369 0.508691 -1.333134 1
1.754874 0.574803 -1.434119 1
1.696510 0.524099 -1.221455 1
1.607121 0.512354 -1.430125 1
1.768647 0.625407 -1.338056 1
1.591990 0.518037 -1.271911 1
1.723031 0.511589 -1.472151 1
1.568646 0.512149 -1.373851 1
1.766827 0.610453 -1.403391 1
1.646593 0.525406 -1.226543 1
1.642102 0.511771 -1.460991 1
1.780069 0.604825 -1.294378 1
1.567857 0.511464 -1.306403 1
1.748764 0.555339 -1.459846 1
1.581861 0.510258 -1.415468 1
1.779419 0.625366 -1.364371 1
1.603121 0.521574 -1.245848 1
1.691963 0.508892 -1.481889 1
1.555598 0.511046 -1.348818 1
1.755590 0.612492 -1.430260 1
1.675802 0.524147 -1.207588 1
1.610033 0.512539 -1.453097 1
1.769503 0.644401 -1.320725 1
1.569831 0.515056 -1.277837 1
1.741679 0.522553 -1.484356 1
1.560175 0.509337 -1.394307 1
1.679947 0.510410 -1.338658 1
1.689384 0.514200 -1.328214 1
1.655931 0.512954 -1.340179 1
1.700161 0.514110 -1.354480 1
1.674661 0.511455 -1.310162 1
1.656157 0.517574 -1.365275 1
1.721478 0.507839 -1.329637 1
1.643752 0.508775 -1.320773 1
1.690832 0.517404 -1.377487 1
1.698680 0.513316 -1.298404 1
1.631688 0.515240 -1.356880 1
1.732392 0.511349 -1.354275 1
1.649774 0.517877 -1.296214 1
1.660606 0.520635 -1.388480 1
1.731801 0.512140 -1.307219 1
1.619907 0.510028 -1.330866 1
1.718842 0.515215 -1.384509 1
1.679352 0.520524 -1.279904 1
1.628487 0.516432 -1.379962 1
1.754003 0.511511 -1.336668 1
1.624644 0.515568 -1.298197 1
1.683833 0.517770 -1.404273 1
1.726200 0.511912 -1.281840 1
1.605101 0.513946 -1.352214 1
1.744757 0.520788 -1.376237 1
1.651511 0.522907 -1.271780 1
1.641807 0.514421 -1.403290 1
1.761841 0.513218 -1.309339 1
1.603217 0.510439 -1.312875 1
1.717402 0.514041 -1.409628 1
1.702578 0.516152 -1.261573 1
1.604183 0.514135 -1.379040 1
1.764386 0.527993 -1.354816 1
1.622396 0.519371 -1.275316 1
1.668066 0.513004 -1.421714 1
1.754291 0.514114 -1.278912 1
1.588036 0.509203 -1.337742 1
1.744654 0.526506 -1.400585 1
1.665973 0.525202 -1.252107 1
1.617110 0.513589 -1.406694 1
1.769354 0.539436 -1.324176 1
1.596010 0.513848 -1.290942 1
1.702771 0.514884 -1.430327 1
1.725162 0.524403 -1.253913 1
1.582524 0.513142 -1.368619 1
1.760548 0.548842 -1.377994 1
1.630834 0.522734 -1.253399 1
1.643562 0.512817 -1.430457 1
1.778797 0.521423 -1.286990 1
1.576233 0.509781 -1.317267 1
1.738905 0.522842 -1.425175 1
1.689479 0.525947 -1.237522 1
1.592482 0.512223 -1.401204 1
1.771144 0.562089 -1.345650 1
1.597376 0.518914 -1.267560 1
1.683554 0.508571 -1.446141 1
1.755555 0.525341 -1.253793 1
1.566327 0.509827 -1.351097 1
1.755812 0.555718 -1.403454 1
1.649026 0.524005 -1.233701 1
1.616244 0.512427 -1.431044 1
1.777031 0.559911 -1.306763 1
1.571837 0.511167 -1.293045 1
1.724142 0.517568 -1.447177 1
1.717855 0.528853 -1.229859 1
1.569974 0.511044 -1.388056 1
1.773050 0.572225 -1.371198 1
1.607306 0.523973 -1.244551 1
1.654621 0.509904 -1.453932 1
1.787362 0.525483 -1.262513 1
1.554477 0.510992 -1.328275 1
1.751809 0.546866 -1.430146 1
1.675733 0.523542 -1.217784 1
1.588854 0.511770 -1.423819 1
1.775175 0.587755 -1.331102 1
1.574515 0.515153 -1.267265 1
1.704447 0.506508 -1.465125 1
1.551630 0.509552 -1.368476 1
1.760334 0.589267 -1.398235 1
1.628387 0.521999 -1.222173 1
1.624090 0.508969 -1.454346 1
1.770778 0.586836 -1.287790 1
1.550624 0.508900 -1.301552 1
1.742497 0.531144 -1.455854 1
1.563841 0.510230 -1.409454 1
1.771010 0.607179 -1.358580 1
1.585429 0.518760 -1.241419 1
1.673488 0.504849 -1.474822 1
1.538459 0.509169 -1.343702 1
1.757385 0.580026 -1.426983 1
1.656895 0.520842 -1.203419 1
1.591972 0.511439 -1.446538 1
1.770984 0.614534 -1.313573 1
1.552663 0.512153 -1.273160 1
1.725954 0.512300 -1.478036 1
1.542198 0.510281 -1.388629 1
1.664829 0.510427 -1.334851 1
1.675774 0.511024 -1.324377 1
1.641999 0.511495 -1.336346 1
1.684771 0.513934 -1.350459 1
1.658719 0.513333 -1.306841 1
1.642058 0.516596 -1.361215 1
1.703964 0.510507 -1.326014 1
1.629677 0.507949 -1.317150 1
1.673045 0.522208 -1.373069 1
1.682759 0.514137 -1.295156 1
1.617735 0.514814 -1.352941 1
1.714736 0.513813 -1.350223 1
1.635126 0.518251 -1.292973 1
1.646225 0.520168 -1.384155 1
1.714733 0.513615 -1.303888 1
1.605875 0.510091 -1.327213 1
1.699281 0.521700 -1.379818 1
1.663592 0.521955 -1.277003 1
1.614889 0.515371 -1.375813 1
1.738802 0.509071 -1.332717 1
1.610549 0.515683 -1.294906 1
1.668057 0.519089 -1.399576 1
1.709309 0.513306 -1.278882 1
1.591789 0.512959 -1.348354 1
1.730673 0.516978 -1.371961 1
1.638792 0.519193 -1.268275 1
1.627517 0.514391 -1.398809 1
1.744904 0.513292 -1.305856 1
1.589401 0.510649 -1.309431 1
1.698245 0.519902 -1.404399 1
1.686381 0.517340 -1.258885 1
1.591220 0.512348 -1.374969 1
1.754161 0.517830 -1.350647 1
1.608548 0.519059 -1.272221 1
1.652898 0.513733 -1.416861 1
1.735342 0.517711 -1.276291 1
1.574578 0.509113 -1.334045 1
1.732411 0.519834 -1.396308 1
1.654308 0.519012 -1.248301 1
1.603517 0.512918 -1.402289 1
1.764472 0.521548 -1.319531 1
1.582463 0.513720 -1.287696 1
1.686018 0.517172 -1.425071 1
1.707862 0.526664 -1.251570 1
1.569369 0.512643 -1.364648 1
1.755464 0.531571 -1.374134 1
1.616610 0.523011 -1.250636 1
1.628803 0.513749 -1.425546 1
1.763612 0.518324 -1.283486 1
1.562850 0.509964 -1.313791 1
1.726090 0.517163 -1.420713 1
1.673988 0.526495 -1.235073 1
1.579460 0.511001 -1.396953 1
1.769282 0.540737 -1.341274 1
1.584848 0.516182 -1.264174 1
1.667027 0.511267 -1.440636 1
1.737493 0.527537 -1.251474 1
1.553064 0.510182 -1.347311 1
1.752229 0.536441 -1.400112 1
1.634638 0.523916 -1.231107 1
1.602293 0.512674 -1.426295 1
1.777526 0.535217 -1.301288 1
1.558781 0.510573 -1.289723 1
1.708012 0.517869 -1.441828 1
1.701707 0.529487 -1.227584 1
1.557827 0.508051 -1.384044 1
1.771067 0.551493 -1.367353 1
1.593553 0.524122 -1.241838 1
1.639381 0.511356 -1.448589 1
1.770641 0.524423 -1.259570 1
1.541166 0.512046 -1.324760 1
1.745945 0.530683 -1.426865 1
1.660400 0.524292 -1.215590 1
1.575723 0.511017 -1.419340 1
1.771686 0.569720 -1.326627 1
1.561333 0.514902 -1.264214 1
1.687831 0.508384 -1.459342 1
1.743564 0.515882 -1.224266 1
1.538139 0.511398 -1.364525 1
1.757773 0.569910 -1.394918 1
1.614710 0.521053 -1.219469 1
1.609502 0.510347 -1.449128 1
1.776940 0.555573 -1.280969 1
1.537567 0.509154 -1.298236 1
1.732886 0.520394 -1.452001 1
1.550692 0.510521 -1.405095 1
1.772074 0.583836 -1.354572 1
1.571844 0.519243 -1.238750 1
1.657043 0.507850 -1.468820 1
1.525220 0.510791 -1.340054 1
1.754872 0.560194 -1.424196 1
1.642431 0.520508 -1.201080 1
1.578824 0.510640 -1.441842 1
1.775326 0.587291 -1.308077 1
1.539699 0.512066 -1.270061 1
1.710337 0.511586 -1.472417 1
1.528767 0.512546 -1.384441 1
1.645862 0.511364 -1.329523 1
1.656775 0.511439 -1.319147 1
1.623474 0.512726 -1.331088 1
1.662969 0.519551 -1.344898 1
1.640885 0.512138 -1.301784 1
1.625533 0.513652 -1.355617 1
1.682916 0.513374 -1.320798 1
1.610089 0.512148 -1.312386 1
1.655762 0.519830 -1.367232 1
1.660783 0.520000 -1.290889 1
1.601711 0.511538 -1.347500 1
1.695246 0.513443 -1.344466 1
1.617810 0.517073 -1.288145 1
1.629498 0.517740 -1.378326 1
1.693686 0.515866 -1.299029 1
1.589321 0.508266 -1.322045 1
1.681309 0.519551 -1.373774 1
1.645553 0.521084 -1.272355 1
1.599025 0.511979 -1.370221 1
1.718902 0.508159 -1.327095 1
1.593902 0.513912 -1.290037 1
1.650807 0.516879 -1.393456 1
1.686941 0.518156 -1.274811 1
1.575636 0.510967 -1.343060 1
1.705798 0.525188 -1.365654 1
1.619832 0.521438 -1.264192 1
1.611009 0.512134 -1.392905 1
1.724197 0.513441 -1.300711 1
1.572961 0.509150 -1.304488 1
1.679469 0.519336 -1.397944 1
1.663051 0.525484 -1.255819 1
1.575345 0.509790 -1.369462 1
1.736507 0.512848 -1.344683 1
1.591957 0.517229 -1.267559 1
1.632775 0.518295 -1.410016 1
1.715368 0.517070 -1.271550 1
1.556251 0.513985 -1.329177 1
1.712091 0.520317 -1.389732 1
1.632544 0.526273 -1.245392 1
