ply
format ascii 1.0
element vertex 1647
property float x
property float y
property float z
property uchar label
end_header
0.042238 0.631196 0.267963 1
0.180413 0.713132 0.258671 1
0.079916 0.534444 0.307823 1
0.098214 0.712608 0.249124 1
0.181932 0.635131 0.277831 1
0.006653 0.531962 0.276233 1
0.165373 0.750499 0.256863 1
0.123503 0.531772 0.300671 1
0.053489 0.668533 0.257128 1
0.193114 0.694220 0.264583 1
0.050744 0.537797 0.311549 1
0.124004 0.736252 0.245066 1
0.168980 0.579778 0.285169 1
0.008909 0.585000 0.269693 1
0.183485 0.739819 0.255448 1
0.100014 0.532882 0.318972 1
0.077467 0.708196 0.249290 1
0.199078 0.665562 0.274796 1
0.016280 0.537726 0.301761 1
0.154935 0.758647 0.249371 1
0.150835 0.549749 0.304080 1
0.029945 0.649683 0.263830 1
0.198463 0.717954 0.257897 1
0.071082 0.542206 0.329231 1
0.105412 0.736515 0.242252 1
0.194996 0.626038 0.288019 1
-0.014147 0.543289 0.280095 1
0.180784 0.763010 0.253082 1
0.123107 0.531232 0.323117 1
0.052605 0.693997 0.251722 1
0.211793 0.702728 0.272792 1
0.029530 0.534309 0.322872 1
0.138001 0.759564 0.241750 1
0.172890 0.555906 0.297062 1
-0.001153 0.609002 0.268971 1
0.198060 0.739857 0.251132 1
0.094729 0.543711 0.340579 1
0.084270 0.732929 0.243531 1
0.212643 0.661669 0.284160 1
-0.010038 0.534473 0.303874 1
0.170919 0.775843 0.248070 1
0.150655 0.542689 0.323248 1
0.027507 0.674424 0.258819 1
0.214801 0.720892 0.261888 1
0.052248 0.537357 0.341645 1
0.113138 0.749658 0.232410 1
0.197920 0.591765 0.293113 1
-0.034685 0.552297 0.275960 1
0.195022 0.767102 0.249807 1
0.118369 0.537394 0.344009 1
0.058362 0.719505 0.246064 1
0.223673 0.692261 0.276872 1
0.006372 0.533497 0.328443 1
0.152691 0.775655 0.238696 1
0.175369 0.550083 0.315693 1
0.003797 0.649228 0.270374 1
0.213722 0.742680 0.253308 1
0.078300 0.537923 0.354443 1
0.091736 0.748866 0.234577 1
0.219951 0.642911 0.291356 1
-0.033085 0.539232 0.301573 1
0.186331 0.786141 0.247176 1
0.144017 0.533297 0.341130 1
0.030054 0.698405 0.251808 1
0.229805 0.724783 0.270502 1
0.029451 0.532780 0.349270 1
0.127134 0.766280 0.227784 1
0.196684 0.555469 0.301389 1
0.116541 0.647159 0.269329 1
0.115549 0.663763 0.266519 1
0.130184 0.639941 0.270309 1
0.093605 0.631902 0.273394 1
0.136165 0.686153 0.264368 1
0.113724 0.603240 0.277231 1
0.092857 0.657338 0.261906 1
0.152940 0.673530 0.270527 1
0.075239 0.577172 0.274253 1
0.122684 0.692961 0.255944 1
0.134215 0.603160 0.273298 1
0.074193 0.638045 0.271935 1
0.159069 0.707934 0.265899 1
0.087788 0.550152 0.279540 1
0.094691 0.679219 0.252765 1
0.158824 0.642282 0.268233 1
0.047411 0.564267 0.272420 1
0.146835 0.726040 0.259674 1
0.124341 0.570499 0.282921 1
0.065599 0.651360 0.260829 1
0.172886 0.698191 0.265717 1
0.065529 0.542602 0.288571 1
0.115301 0.714034 0.251596 1
0.160616 0.619125 0.278584 1
0.032113 0.581565 0.267183 1
0.166319 0.733042 0.259834 1
0.101303 0.537440 0.292369 1
0.076213 0.683222 0.252932 1
0.178899 0.666702 0.265881 1
0.036775 0.538626 0.287476 1
0.139062 0.736961 0.250929 1
0.150027 0.586034 0.290481 1
0.042589 0.636720 0.266680 1
0.180813 0.718887 0.258530 1
0.077770 0.535691 0.305019 1
0.099810 0.719692 0.249379 1
0.181193 0.638667 0.276301 1
0.008289 0.541185 0.275599 1
0.164614 0.752226 0.254670 1
0.121757 0.533744 0.298191 1
0.053638 0.673242 0.255732 1
0.192789 0.698135 0.263484 1
0.048500 0.539102 0.308679 1
0.124354 0.740716 0.244183 1
0.168889 0.586909 0.284602 1
0.006538 0.586128 0.266509 1
0.183830 0.744868 0.255135 1
0.097414 0.532680 0.315912 1
0.078363 0.713810 0.248655 1
0.198634 0.669766 0.273708 1
0.011281 0.533868 0.297313 1
0.155296 0.763023 0.248676 1
0.145926 0.539805 0.298420 1
0.030272 0.654869 0.262451 1
0.197182 0.717869 0.254900 1
0.066041 0.536516 0.324872 1
0.105477 0.740345 0.240928 1
0.194853 0.632549 0.287542 1
-0.020499 0.537780 0.274733 1
0.181106 0.767484 0.252575 1
0.122534 0.537045 0.321575 1
0.054211 0.700826 0.251491 1
0.209752 0.699253 0.268423 1
0.026552 0.534344 0.319660 1
0.138343 0.763750 0.240892 1
0.171617 0.558981 0.295113 1
0.001546 0.618492 0.268936 1
0.197978 0.743695 0.250239 1
0.089589 0.536769 0.336199 1
0.084377 0.736859 0.242149 1
0.212317 0.666851 0.283456 1
-0.013610 0.533915 0.300263 1
0.170844 0.778970 0.246771 1
0.146839 0.536841 0.319022 1
0.026990 0.677967 0.256796 1
0.214286 0.723611 0.260396 1
0.049770 0.538210 0.338776 1
0.113132 0.753189 0.231005 1
0.198043 0.600733 0.293230 1
-0.032057 0.562262 0.275534 1
0.195477 0.772097 0.249722 1
0.115655 0.536571 0.341012 1
0.059827 0.725743 0.245763 1
0.223478 0.697471 0.276416 1
0.002149 0.531461 0.324712 1
0.153159 0.779963 0.238081 1
0.172129 0.544984 0.311619 1
0.002762 0.652256 0.267980 1
0.213473 0.745991 0.252201 1
0.075596 0.537913 0.351540 1
0.091261 0.751619 0.232582 1
0.219706 0.649415 0.291029 1
-0.040291 0.532854 0.296249 1
0.186220 0.789038 0.245842 1
0.142368 0.535667 0.338852 1
0.029992 0.702429 0.250100 1
0.229926 0.730763 0.270665 1
0.026810 0.533597 0.346347 1
0.127827 0.770983 0.227292 1
0.195262 0.557899 0.299333 1
0.115523 0.649148 0.266396 1
0.116804 0.670991 0.265851 1
0.131937 0.649379 0.270412 1
0.090258 0.628914 0.268391 1
0.137553 0.693677 0.264130 1
0.108150 0.593628 0.270059 1
0.093757 0.663507 0.260652 1
0.153436 0.679305 0.269474 1
0.081305 0.596578 0.277002 1
0.123608 0.698925 0.255016 1
0.133924 0.607675 0.271298 1
0.071799 0.637587 0.267795 1
0.158661 0.710617 0.263649 1
0.090337 0.562562 0.279615 1
0.099995 0.694117 0.255856 1
0.159682 0.649950 0.267818 1
0.049684 0.574401 0.271744 1
0.146464 0.728618 0.257345 1
0.123436 0.573724 0.280296 1
0.067558 0.659393 0.260198 1
0.173011 0.702631 0.264334 1
0.062815 0.541965 0.284404 1
0.114732 0.716393 0.248923 1
0.158079 0.615996 0.273976 1
0.035939 0.594016 0.267457 1
0.166720 0.737575 0.258659 1
0.099682 0.539175 0.289094 1
0.078195 0.690839 0.252489 1
0.179035 0.671870 0.264699 1
0.035520 0.541606 0.284242 1
0.140050 0.742507 0.250202 1
0.141409 0.563044 0.279616 1
0.042877 0.641647 0.264506 1
0.182020 0.726403 0.258879 1
0.075700 0.536589 0.301430 1
0.100175 0.723891 0.247599 1
0.180821 0.642677 0.274493 1
0.017112 0.563619 0.278507 1
0.164951 0.756234 0.253316 1
0.118709 0.530904 0.293743 1
0.054410 0.678594 0.254012 1
0.191677 0.698265 0.260199 1
0.046461 0.540402 0.305074 1
0.125311 0.745932 0.243245 1
0.169346 0.595087 0.283901 1
0.010939 0.598792 0.266781 1
0.184665 0.750671 0.254847 1
0.095137 0.532859 0.312274 1
0.078688 0.717957 0.246695 1
0.198561 0.674509 0.272433 1
0.009735 0.536469 0.293842 1
0.156095 0.767879 0.247839 1
0.144937 0.543384 0.295904 1
0.033254 0.664056 0.262133 1
0.197110 0.721397 0.253327 1
0.063350 0.536184 0.321014 1
0.106049 0.744676 0.239372 1
0.193207 0.631487 0.283944 1
-0.007857 0.565512 0.279195 1
0.181828 0.772430 0.251961 1
0.119411 0.534147 0.317350 1
0.053748 0.703790 0.248736 1
0.209629 0.703229 0.267032 1
0.024096 0.535079 0.315840 1
0.135365 0.760442 0.234927 1
0.169368 0.557067 0.291158 1
0.011406 0.639158 0.272540 1
0.198048 0.747225 0.248788 1
0.086892 0.536069 0.332439 1
0.084958 0.741191 0.240444 1
0.210203 0.662404 0.278589 1
-0.015848 0.535409 0.296367 1
0.170906 0.781889 0.244928 1
0.145108 0.538016 0.315887 1
0.025986 0.680366 0.253570 1
0.214075 0.726635 0.258683 1
0.045525 0.534722 0.334256 1
0.113594 0.757142 0.229349 1
0.198356 0.609309 0.292804 1
-0.028016 0.573988 0.274937 1
0.195724 0.775705 0.248431 1
0.113266 0.536285 0.337489 1
0.061937 0.732587 0.245229 1
0.223645 0.703295 0.275879 1
-0.000329 0.532468 0.320857 1
0.151671 0.779432 0.233852 1
0.170815 0.547360 0.308916 1
0.001759 0.654975 0.264732 1
0.212477 0.745366 0.248527 1
0.072680 0.537024 0.347777 1
0.091895 0.755859 0.230958 1
0.219751 0.656167 0.290421 1
-0.040760 0.537552 0.293115 1
0.186540 0.792514 0.244495 1
0.140551 0.536819 0.335743 1
0.031701 0.708743 0.248908 1
0.229710 0.733848 0.269092 1
0.024734 0.535261 0.342825 1
0.129302 0.776713 0.227018 1
0.191977 0.549903 0.293774 1
0.113143 0.648896 0.262258 1
0.109153 0.658241 0.256286 1
0.129644 0.649006 0.266353 1
0.085704 0.624399 0.262445 1
0.135663 0.693876 0.260304 1
0.103137 0.587040 0.263588 1
0.088456 0.657380 0.253755 1
0.150948 0.677606 0.264959 1
0.074835 0.587961 0.269786 1
0.119984 0.695354 0.249191 1
0.129544 0.601487 0.265093 1
0.065943 0.631135 0.260924 1
0.156426 0.709265 0.259205 1
0.084665 0.555126 0.273045 1
0.093495 0.685513 0.247494 1
0.157569 0.649377 0.263821 1
0.042418 0.565482 0.264230 1
0.144017 0.727025 0.252582 1
0.123298 0.580628 0.278633 1
0.063859 0.657429 0.254971 1
0.171060 0.701696 0.260197 1
0.058743 0.539535 0.279373 1
0.113059 0.717274 0.245181 1
0.157729 0.621778 0.272366 1
0.036982 0.601987 0.265889 1
0.165076 0.737419 0.254775 1
0.095213 0.534514 0.283648 1
0.075442 0.690379 0.247882 1
0.177478 0.672380 0.261262 1
0.030090 0.537007 0.278397 1
0.139133 0.744500 0.247255 1
0.142111 0.573344 0.279106 1
0.039026 0.640022 0.259357 1
0.180169 0.725263 0.254603 1
0.072558 0.536237 0.297213 1
0.097362 0.722779 0.242679 1
0.178669 0.641462 0.270422 1
0.008682 0.553935 0.270765 1
0.162836 0.754778 0.248605 1
0.117056 0.534148 0.290717 1
0.051946 0.679118 0.249747 1
0.191461 0.702936 0.258804 1
0.043247 0.540416 0.300832 1
0.123424 0.746020 0.239069 1
0.165709 0.589338 0.278316 1
0.014155 0.610217 0.266399 1
0.183953 0.752678 0.252234 1
0.094305 0.538541 0.309754 1
0.077635 0.720425 0.243548 1
0.196568 0.672830 0.268236 1
0.005830 0.535685 0.289102 1
0.152224 0.762587 0.240633 1
0.140058 0.535014 0.289727 1
0.029328 0.662550 0.256912 1
0.196280 0.723314 0.250686 1
0.060749 0.537473 0.317257 1
0.103792 0.744437 0.234837 1
0.193118 0.638810 0.283115 1
-0.016978 0.555810 0.271315 1
0.180757 0.773176 0.248604 1
0.116438 0.533472 0.313376 1
0.051479 0.704573 0.244549 1
0.208009 0.702207 0.263107 1
0.020324 0.534397 0.311370 1
0.133667 0.760624 0.230773 1
0.168237 0.561706 0.288900 1
0.005122 0.634310 0.266036 1
0.197848 0.750817 0.247138 1
0.085504 0.540321 0.329493 1
0.083618 0.742937 0.236940 1
0.211186 0.674303 0.279929 1
-0.019089 0.536292 0.291984 1
0.170191 0.783604 0.242053 1
0.144188 0.543890 0.313672 1
0.024557 0.682920 0.250084 1
0.213360 0.728802 0.256306 1
0.044699 0.540248 0.331378 1
0.111833 0.757611 0.225179 1
0.196269 0.608460 0.289105 1
-0.028087 0.579935 0.272152 1
0.195247 0.777908 0.246039 1
0.113865 0.546538 0.335935 1
0.058883 0.731943 0.240259 1
0.222984 0.706492 0.273990 1
-0.003788 0.532848 0.316553 1
0.150560 0.780465 0.230329 1
0.169477 0.551627 0.306479 1
-0.003600 0.651957 0.258729 1
0.213717 0.754740 0.250229 1
0.071458 0.541762 0.344834 1
0.090249 0.756904 0.227014 1
0.217930 0.654877 0.286687 1
-0.045163 0.536798 0.288111 1
0.185115 0.791985 0.240263 1
0.138229 0.538011 0.332397 1
0.028556 0.708528 0.244063 1
0.228561 0.733724 0.265720 1
0.020634 0.534028 0.338444 1
0.127551 0.776840 0.222669 1
0.191945 0.560425 0.293324 1
0.114834 0.658917 0.261605 1
0.109829 0.665545 0.254586 1
0.132328 0.662190 0.267036 1
0.087134 0.633709 0.261117 1
0.133703 0.694397 0.255848 1
0.105359 0.599762 0.263260 1
0.088815 0.663755 0.251542 1
0.152379 0.687448 0.264701 1
0.082350 0.611700 0.273193 1
0.122270 0.705709 0.249440 1
0.131473 0.614137 0.265003 1
0.067508 0.640191 0.259472 1
0.157540 0.717539 0.258666 1
0.089350 0.574288 0.274290 1
0.093945 0.691653 0.245435 1
0.158136 0.657653 0.262650 1
0.047519 0.582851 0.265021 1
0.144479 0.732977 0.251016 1
0.112277 0.556104 0.265510 1
0.064393 0.663959 0.252693 1
0.171763 0.709419 0.259383 1
0.055835 0.540174 0.274320 1
0.114165 0.724405 0.244022 1
0.154716 0.619045 0.266719 1
0.039096 0.612205 0.264428 1
0.166085 0.744932 0.254242 1
0.093750 0.538501 0.279789 1
0.075897 0.696334 0.245669 1
0.178275 0.681454 0.260790 1
0.030300 0.544597 0.275380 1
0.137335 0.745056 0.242782 1
0.141951 0.580870 0.276838 1
0.040289 0.647949 0.257392 1
0.181033 0.733114 0.254202 1
0.070245 0.538188 0.292690 1
0.098128 0.728965 0.240985 1
0.178751 0.648984 0.268924 1
0.009219 0.561692 0.267862 1
0.163641 0.761293 0.247734 1
0.115317 0.537311 0.286716 1
0.054252 0.688298 0.248861 1
0.191006 0.707206 0.256461 1
0.038810 0.538004 0.295001 1
0.123413 0.750479 0.236726 1
0.167138 0.602925 0.278365 1
0.012596 0.613519 0.262255 1
0.184127 0.757873 0.250695 1
0.089815 0.534388 0.303790 1
0.078422 0.726542 0.241681 1
0.197047 0.681621 0.267664 1
0.004021 0.539221 0.284712 1
0.152345 0.767178 0.238652 1
0.140748 0.546441 0.288252 1
0.029764 0.668651 0.254292 1
0.197070 0.731559 0.250599 1
0.058107 0.538819 0.312609 1
0.102192 0.745973 0.230615 1
0.190928 0.637573 0.278343 1
-0.014117 0.567365 0.269582 1
0.180357 0.776364 0.246008 1
0.113126 0.531974 0.308220 1
0.052638 0.711370 0.242758 1
0.208230 0.709483 0.262258 1
0.017776 0.536409 0.306679 1
0.133586 0.764748 0.228376 1
0.170624 0.580424 0.290047 1
0.006934 0.642893 0.264070 1
0.198934 0.759289 0.247565 1
0.082522 0.540468 0.324741 1
0.082378 0.745354 0.233132 1
0.208506 0.669527 0.273835 1
-0.022000 0.538000 0.286958 1
0.169354 0.785613 0.238666 1
0.138538 0.533266 0.306336 1
0.026764 0.691472 0.248786 1
0.213561 0.735344 0.255431 1
0.039532 0.536267 0.325540 1
0.111796 0.761859 0.222703 1
0.193797 0.606285 0.284036 1
-0.030609 0.582168 0.267313 1
0.195833 0.783958 0.245332 1
0.107497 0.536164 0.329066 1
0.059930 0.738207 0.238473 1
0.222787 0.712418 0.272560 1
-0.006919 0.534017 0.311562 1
0.150173 0.783676 0.227545 1
0.166543 0.549472 0.301366 1
0.002350 0.666353 0.259446 1
0.212821 0.756282 0.246797 1
0.066731 0.537944 0.339324 1
0.089456 0.759925 0.223615 1
0.217682 0.662173 0.285277 1
-0.045153 0.543584 0.284461 1
0.185969 0.798223 0.239802 1
0.134083 0.533079 0.326753 1
0.030310 0.715999 0.242535 1
0.229072 0.742329 0.265941 1
0.017858 0.535624 0.333760 1
0.124835 0.775757 0.216730 1
0.192254 0.572432 0.292433 1
0.115436 0.666781 0.260060 1
0.111186 0.674905 0.253805 1
0.130177 0.663201 0.262683 1
0.088401 0.643111 0.259855 1
0.134203 0.701574 0.254447 1
0.114326 0.630124 0.269645 1
0.089922 0.672179 0.250249 1
0.153803 0.697726 0.264657 1
0.076520 0.605613 0.265898 1
0.121411 0.709460 0.246401 1
0.133880 0.628597 0.265651 1
0.069626 0.650771 0.258693 1
0.158688 0.726374 0.258406 1
0.080230 0.559466 0.264125 1
0.095818 0.701108 0.245016 1
0.160135 0.670896 0.263567 1
0.053354 0.601989 0.266613 1
0.145579 0.740928 0.250494 1
0.124066 0.598376 0.274934 1
0.064322 0.669821 0.250117 1
0.172321 0.717251 0.258602 1
0.061181 0.560411 0.275447 1
0.115169 0.731766 0.242992 1
0.155316 0.629009 0.265770 1
0.038418 0.617567 0.261163 1
0.167128 0.753006 0.254005 1
0.094191 0.548335 0.277667 1
0.077455 0.704750 0.244690 1
0.178298 0.688509 0.259393 1
0.027122 0.545722 0.270296 1
0.137296 0.750074 0.240754 1
0.138905 0.579786 0.271607 1
0.042781 0.658454 0.256569 1
0.181753 0.741061 0.253835 1
0.066546 0.537470 0.287311 1
0.098829 0.735466 0.239460 1
0.178481 0.655917 0.267143 1
0.007672 0.566055 0.263817 1
0.164289 0.767898 0.246894 1
0.113201 0.540132 0.282515 1
0.054517 0.694375 0.246526 1
0.190626 0.712479 0.254525 1
0.034415 0.536437 0.289277 1
0.121158 0.750937 0.231937 1
0.168321 0.616116 0.278303 1
0.018533 0.630162 0.263288 1
0.184861 0.765275 0.250365 1
0.086436 0.534090 0.298681 1
0.079002 0.732724 0.239852 1
0.197395 0.690541 0.267121 1
-0.004782 0.530045 0.276442 1
0.151896 0.770987 0.236133 1
0.138592 0.548785 0.284055 1
0.029267 0.673671 0.251199 1
0.197030 0.737515 0.249267 1
0.053953 0.537322 0.307155 1
0.102307 0.751164 0.228522 1
0.190396 0.644165 0.276334 1
-0.011624 0.578662 0.267864 1
0.180767 0.782316 0.245031 1
0.109822 0.531389 0.303148 1
0.055263 0.720907 0.242443 1
0.208478 0.717580 0.261754 1
0.015037 0.538636 0.301989 1
0.134369 0.771134 0.227384 1
0.169341 0.585226 0.286904 1
0.004527 0.645183 0.259593 1
0.199558 0.766783 0.247414 1
0.077579 0.536315 0.318877 1
0.081664 0.749138 0.230077 1
0.207793 0.674820 0.271656 1
-0.025592 0.539110 0.281707 1
0.169464 0.790487 0.237051 1
0.136564 0.536529 0.302359 1
0.028685 0.699944 0.247516 1
0.213194 0.740313 0.253673 1
0.035187 0.534804 0.320143 1
0.111774 0.766614 0.220511 1
0.194651 0.620087 0.284229 1
-0.024502 0.598614 0.267542 1
0.196363 0.790389 0.244825 1
0.104611 0.536924 0.324447 1
0.059275 0.742240 0.235417 1
0.222498 0.718728 0.271234 1
-0.009750 0.536327 0.306809 1
0.151348 0.790741 0.227320 1
0.165669 0.556655 0.298663 1
0.003125 0.673309 0.257062 1
0.212783 0.761933 0.245621 1
0.063124 0.537567 0.334384 1
0.088931 0.763867 0.220750 1
0.216026 0.663270 0.281454 1
-0.048075 0.546067 0.279541 1
0.186667 0.804545 0.239368 1
0.131122 0.533134 0.322044 1
0.032667 0.724707 0.241722 1
0.229464 0.751064 0.266200 1
0.012265 0.532139 0.327923 1
0.126016 0.782610 0.216185 1
0.192466 0.584659 0.291590 1
0.114398 0.668779 0.256396 1
0.110306 0.677245 0.250284 1
0.128678 0.663907 0.258521 1
0.087355 0.645448 0.256142 1
0.133353 0.703631 0.250986 1
0.107501 0.617778 0.260363 1
0.089551 0.675727 0.247180 1
0.151055 0.694449 0.258870 1
0.073689 0.604312 0.260650 1
0.120237 0.710860 0.242544 1
0.134721 0.636014 0.264049 1
0.067131 0.650338 0.253761 1
0.156749 0.725156 0.253500 1
0.083254 0.572465 0.263749 1
0.096662 0.706819 0.243208 1
0.161792 0.680570 0.263413 1
0.051518 0.603194 0.262211 1
0.145212 0.743766 0.247626 1
0.117646 0.585644 0.265916 1
0.065575 0.676438 0.248353 1
0.172357 0.721428 0.256412 1
0.052525 0.546268 0.265953 1
0.115156 0.735508 0.240431 1
0.155684 0.635451 0.263865 1
0.037745 0.621057 0.257622 1
0.165602 0.752625 0.249516 1
0.084095 0.527289 0.266231 1
0.078200 0.710101 0.242654 1
0.178046 0.692217 0.256832 1
0.023587 0.543954 0.264656 1
0.136336 0.751590 0.237092 1
0.140860 0.591877 0.271212 1
0.040551 0.658950 0.251931 1
0.182216 0.746239 0.252376 1
0.065148 0.539885 0.283186 1
0.097875 0.737453 0.235856 1
0.177453 0.657369 0.263475 1
0.010251 0.575985 0.262191 1
0.163708 0.769900 0.243721 1
0.110877 0.539453 0.277604 1
0.053639 0.696991 0.242964 1
0.190331 0.715724 0.251919 1
0.030773 0.534269 0.283716 1
0.120131 0.752504 0.228176 1
0.166113 0.613913 0.273200 1
0.010849 0.621748 0.255003 1
0.185073 0.769370 0.248504 1
0.085483 0.537591 0.294928 1
0.077453 0.733882 0.235694 1
0.196622 0.692327 0.263792 1
-0.002103 0.540589 0.274537 1
0.151392 0.773255 0.233023 1
0.134134 0.540293 0.276878 1
0.030401 0.679750 0.249077 1
0.197051 0.741498 0.247213 1
0.051617 0.537676 0.302499 1
0.100982 0.752405 0.224453 1
0.189923 0.647846 0.273556 1
-0.020874 0.568010 0.258986 1
0.180706 0.785430 0.242661 1
0.109208 0.535917 0.299728 1
0.053217 0.721564 0.237916 1
0.207665 0.718715 0.258230 1
0.010983 0.536072 0.296395 1
0.133800 0.773405 0.224152 1
0.166182 0.579499 0.280722 1
0.007270 0.653958 0.258268 1
0.199488 0.770050 0.245139 1
0.077490 0.542005 0.315636 1
0.080426 0.750774 0.226167 1
0.208271 0.682225 0.270665 1
-0.026383 0.543080 0.277746 1
0.168338 0.790995 0.232924 1
0.133568 0.533085 0.296916 1
0.026835 0.701224 0.243209 1
0.213118 0.744026 0.251555 1
0.031679 0.532906 0.314958 1
0.112337 0.771132 0.218622 1
0.196761 0.635550 0.285422 1
-0.018563 0.612769 0.267606 1
0.195906 0.792221 0.241746 1
0.103783 0.540779 0.320847 1
0.059128 0.745768 0.232543 1
0.222979 0.725628 0.270489 1
-0.012423 0.536821 0.301983 1
0.151550 0.794394 0.225186 1
0.162831 0.552438 0.293088 1
0.000512 0.673742 0.252277 1
0.213065 0.766607 0.244201 1
0.063118 0.543334 0.331065 1
0.088403 0.766573 0.217539 1
0.217064 0.674208 0.281666 1
-0.046376 0.554053 0.276795 1
0.187007 0.808465 0.237680 1
0.131129 0.539859 0.319177 1
0.030826 0.725961 0.237423 1
0.231758 0.765837 0.269908 1
0.012119 0.537370 0.324327 1
0.126466 0.786801 0.214250 1
0.191734 0.588353 0.288497 1
0.116061 0.677230 0.256060 1
0.110894 0.683023 0.248839 1
0.130234 0.672580 0.258260 1
0.087706 0.650957 0.254266 1
0.134914 0.711571 0.250872 1
0.110416 0.630287 0.261094 1
0.090200 0.681468 0.245650 1
0.151455 0.699969 0.257528 1
0.075696 0.613922 0.260021 1
0.121104 0.716852 0.241529 1
0.136446 0.646002 0.264011 1
0.067586 0.655865 0.251867 1
0.157885 0.732159 0.253188 1
0.084671 0.581597 0.262672 1
0.097704 0.712965 0.242153 1
0.162256 0.686703 0.262256 1
0.050421 0.606100 0.258966 1
0.142689 0.741708 0.242515 1
0.118412 0.593602 0.264607 1
0.066623 0.682729 0.246999 1
0.172240 0.725274 0.254519 1
0.061779 0.572819 0.270365 1
0.113587 0.736210 0.236661 1
0.156141 0.642340 0.262660 1
0.040495 0.631012 0.257206 1
0.166463 0.758561 0.248950 1
0.093946 0.559615 0.272255 1
0.079060 0.715700 0.241278 1
0.178961 0.699928 0.256591 1
0.026021 0.554572 0.263672 1
0.137397 0.757553 0.236496 1
0.139312 0.593046 0.267592 1
0.041049 0.664318 0.249940 1
0.182160 0.749946 0.250590 1
0.061850 0.538046 0.278331 1
0.097905 0.741325 0.233799 1
0.178240 0.665499 0.263027 1
0.016204 0.592139 0.263456 1
0.161537 0.768133 0.238711 1
0.106686 0.533720 0.271619 1
0.055980 0.705071 0.242653 1
0.190897 0.722095 0.251330 1
0.029705 0.537860 0.280371 1
0.120165 0.756250 0.226210 1
0.166403 0.620980 0.271868 1
0.018846 0.639996 0.257895 1
0.184677 0.771799 0.246115 1
0.083118 0.537671 0.290769 1
0.078795 0.739997 0.234814 1
0.197144 0.699304 0.263216 1
-0.004314 0.542087 0.270463 1
0.152324 0.778786 0.232439 1
0.141425 0.571297 0.282366 1
0.031158 0.685275 0.247264 1
0.197822 0.748161 0.247078 1
0.049614 0.539066 0.298644 1
0.101029 0.756187 0.222429 1
0.189719 0.652872 0.271762 1
-0.005098 0.599785 0.265739 1
0.181436 0.790685 0.242082 1
0.105757 0.532421 0.294690 1
0.053909 0.726629 0.236259 1
0.207891 0.724239 0.257267 1
0.009232 0.538341 0.292645 1
0.134166 0.777614 0.222662 1
0.168078 0.593439 0.281333 1
0.009575 0.662067 0.257285 1
0.200080 0.775556 0.244638 1
0.075066 0.542037 0.311577 1
0.080845 0.755190 0.224446 1
0.208439 0.688432 0.269657 1
-0.029399 0.543399 0.273259 1
0.169190 0.796278 0.232410 1
0.132540 0.536718 0.293855 1
0.028018 0.707147 0.241749 1
0.214356 0.753072 0.252755 1
0.029968 0.535121 0.311282 1
0.111753 0.773617 0.215867 1
0.194099 0.630440 0.279956 1
-0.019974 0.615442 0.264109 1
0.196506 0.797242 0.241144 1
0.101748 0.541460 0.317034 1
0.057628 0.747295 0.228985 1
0.223019 0.730625 0.269317 1
-0.014700 0.538278 0.297972 1
0.152159 0.798927 0.224140 1
0.163425 0.562079 0.291933 1
-0.001028 0.675877 0.248767 1
0.214361 0.775146 0.245529 1
0.058277 0.537896 0.325861 1
0.089545 0.772029 0.216655 1
0.215457 0.672436 0.277434 1
-0.044455 0.562491 0.274864 1
0.187392 0.812523 0.236538 1
0.129148 0.540313 0.315368 1
0.031484 0.730874 0.235629 1
0.231698 0.769617 0.268439 1
0.009019 0.536943 0.320035 1
0.126970 0.791112 0.212898 1
0.192330 0.598414 0.287894 1
0.112869 0.674102 0.250656 1
0.111733 0.689011 0.247583 1
0.132067 0.681533 0.258261 1
0.088373 0.656817 0.252606 1
0.135745 0.717395 0.249842 1
0.112957 0.641375 0.261435 1
0.091076 0.687333 0.244251 1
0.152659 0.707281 0.257142 1
0.077800 0.623337 0.259426 1
0.123048 0.724812 0.241654 1
0.137889 0.654752 0.263636 1
0.068808 0.662561 0.250532 1
0.159075 0.738911 0.252887 1
0.082849 0.582527 0.258766 1
0.098857 0.718989 0.241117 1
0.162783 0.692630 0.261141 1
0.052936 0.615951 0.258381 1
0.142828 0.745547 0.240700 1
0.126009 0.620001 0.270115 1
0.066722 0.686976 0.244732 1
0.173236 0.731995 0.254192 1
0.056458 0.566319 0.263864 1
0.113781 0.740156 0.234743 1
0.156660 0.648992 0.261501 1
0.043843 0.641686 0.257165 1
0.165156 0.758595 0.245184 1
0.094803 0.567571 0.270674 1
0.080046 0.721211 0.239914 1
0.180621 0.709575 0.257429 1
0.029375 0.566628 0.263261 1
0.137585 0.761300 0.234693 1
0.146240 0.620209 0.273311 1
0.043024 0.671926 0.248979 1
0.183017 0.755980 0.250200 1
0.063677 0.548125 0.277090 1
0.096490 0.742291 0.230107 1
0.179078 0.673310 0.262617 1
0.018120 0.600507 0.262025 1
0.162311 0.773228 0.237903 1
0.116088 0.567190 0.277947 1
0.056712 0.710152 0.240887 1
0.191787 0.729096 0.251226 1
0.026184 0.536088 0.275403 1
0.120159 0.759603 0.224071 1
0.166950 0.628492 0.270853 1
0.023148 0.651592 0.258229 1
0.185359 0.776943 0.245444 1
0.080816 0.537738 0.286615 1
0.078916 0.743761 0.232649 1
0.197707 0.705958 0.262666 1
-0.002183 0.551406 0.268850 1
0.152718 0.782773 0.230985 1
0.141002 0.576090 0.279960 1
0.032611 0.691615 0.245856 1
0.199041 0.755856 0.247690 1
0.046317 0.537386 0.293943 1
0.101076 0.759663 0.220269 1
0.189576 0.657710 0.270039 1
-0.002721 0.608532 0.264402 1
0.181072 0.792723 0.239590 1
0.104334 0.534682 0.291229 1
0.055461 0.732746 0.235215 1
0.208175 0.729520 0.256349 1
0.004534 0.534696 0.287189 1
0.131863 0.776211 0.217496 1
0.169473 0.604877 0.281345 1
0.009764 0.666607 0.254790 1
0.201200 0.782308 0.245051 1
0.070636 0.536995 0.306241 1
0.081108 0.759055 0.222427 1
0.208654 0.694358 0.268701 1
-0.028209 0.550737 0.270906 1
0.170428 0.802095 0.232397 1
0.130824 0.537798 0.290175 1
0.030290 0.714398 0.240992 1
0.216134 0.763640 0.255002 1
0.027777 0.536177 0.307296 1
0.112060 0.777393 0.214043 1
0.194349 0.637552 0.278906 1
-0.014605 0.628363 0.264438 1
0.197723 0.803652 0.241604 1
0.097316 0.535340 0.311607 1
0.057994 0.751391 0.226953 1
0.222239 0.731469 0.266345 1
-0.019145 0.535677 0.292781 1
0.148685 0.794665 0.216962 1
0.162231 0.564408 0.288808 1
0.003379 0.686386 0.249081 1
0.214570 0.779161 0.244352 1
0.055674 0.537694 0.321755 1
0.090128 0.776265 0.215021 1
0.215261 0.677134 0.275856 1
-0.043854 0.568539 0.272144 1
0.185788 0.811156 0.231726 1
0.124336 0.531543 0.309365 1
0.032519 0.736050 0.233991 1
0.232162 0.775364 0.268164 1
0.003638 0.531998 0.314608 1
0.127055 0.794321 0.210838 1
0.193236 0.609273 0.287754 1
0.110183 0.672974 0.246249 1
0.110760 0.691662 0.244934 1
0.128692 0.678193 0.253016 1
0.087085 0.659183 0.249651 1
0.133181 0.715954 0.245326 1
0.109161 0.637585 0.256062 1
0.091129 0.692148 0.242559 1
0.151245 0.708363 0.253983 1
0.075996 0.624920 0.256040 1
0.121686 0.726278 0.238526 1
0.136501 0.656513 0.260625 1
0.067372 0.664736 0.247436 1
0.157938 0.740397 0.249996 1
0.084767 0.593185 0.258588 1
0.098420 0.722514 0.238968 1
0.162806 0.697882 0.259884 1
0.053593 0.622666 0.256884 1
0.141961 0.747778 0.238115 1
0.122013 0.615089 0.264527 1
0.066550 0.691304 0.242713 1
0.173017 0.735988 0.252627 1
0.053870 0.566757 0.259877 1
0.114381 0.745494 0.233783 1
0.157037 0.656057 0.260693 1
0.039440 0.638783 0.251855 1
0.163140 0.757641 0.240922 1
0.092191 0.567330 0.266621 1
0.080272 0.725912 0.238328 1
0.179187 0.710127 0.254126 1
0.027310 0.568461 0.259669 1
0.135266 0.760393 0.230212 1
0.138974 0.604285 0.263856 1
0.043818 0.678018 0.247600 1
0.183033 0.760340 0.249018 1
0.059504 0.544859 0.272007 1
0.097019 0.747352 0.228948 1
0.176860 0.671561 0.258299 1
0.013930 0.598457 0.257049 1
0.161373 0.774910 0.235132 1
0.108653 0.552768 0.269470 1
0.057342 0.715570 0.239517 1
0.190467 0.729613 0.247931 1
0.024101 0.538100 0.271808 1
0.118961 0.761263 0.221006 1
0.164750 0.627478 0.266848 1
0.021740 0.654185 0.255145 1
0.185186 0.780454 0.243912 1
0.078872 0.539611 0.283175 1
0.077568 0.745621 0.229553 1
0.195870 0.704699 0.258621 1
-0.001820 0.558026 0.266706 1
0.150737 0.782229 0.226699 1
0.136042 0.567233 0.273358 1
0.032324 0.695707 0.243619 1
0.197784 0.756195 0.244324 1
0.044829 0.540541 0.290780 1
0.101400 0.764179 0.218933 1
0.188441 0.659817 0.267368 1
-0.003494 0.612563 0.261647 1
0.180662 0.795401 0.237588 1
0.102332 0.536221 0.287766 1
0.055036 0.736271 0.232950 1
0.206556 0.728516 0.252388 1
0.003163 0.538246 0.284005 1
0.133548 0.783314 0.218168 1
0.166456 0.601010 0.276447 1
0.010176 0.671985 0.252920 1
0.200391 0.783809 0.242387 1
0.069527 0.541007 0.303370 1
0.079787 0.760896 0.219299 1
0.208448 0.699617 0.267582 1
-0.026963 0.558705 0.269107 1
0.168045 0.800157 0.227196 1
0.129001 0.539599 0.286869 1
0.030381 0.718868 0.239053 1
0.212277 0.753550 0.246006 1
0.024082 0.534822 0.302939 1
0.112342 0.781674 0.212719 1
0.193049 0.639299 0.276069 1
-0.014455 0.633672 0.262223 1
0.196322 0.803316 0.237729 1
0.095983 0.538802 0.308660 1
0.058740 0.756525 0.225751 1
0.221864 0.735400 0.264904 1
-0.021234 0.538005 0.289194 1
0.152004 0.805084 0.220323 1
0.159165 0.560875 0.284082 1
0.004142 0.692050 0.247455 1
0.213517 0.779631 0.241108 1
0.056365 0.545826 0.319778 1
0.088526 0.777527 0.211516 1
0.216360 0.689123 0.277311 1
-0.042337 0.576543 0.270413 1
0.185405 0.813686 0.229694 1
0.123879 0.537832 0.307178 1
0.032425 0.740081 0.231935 1
0.230446 0.772511 0.263397 1
0.004107 0.539110 0.312273 1
0.127040 0.797920 0.209195 1
0.193546 0.618544 0.287299 1
0.111358 0.680855 0.245686 1
0.109317 0.693504 0.241641 1
0.129898 0.686454 0.252683 1
0.087366 0.665049 0.247958 1
0.134859 0.724583 0.245669 1
0.111537 0.649090 0.256578 1
0.091838 0.698417 0.241347 1
0.151067 0.712928 0.252254 1
0.076753 0.632219 0.254620 1
0.122018 0.731539 0.237201 1
0.138481 0.667582 0.261205 1
0.067916 0.670881 0.245843 1
0.155215 0.738112 0.244881 1
0.087436 0.605696 0.258876 1
0.098617 0.727413 0.237323 1
0.162879 0.703447 0.258574 1
0.052853 0.626808 0.254114 1
0.141993 0.752214 0.236571 1
0.122173 0.621833 0.262927 1
0.068298 0.699215 0.242200 1
0.171984 0.737860 0.249776 1
0.055148 0.575902 0.258582 1
0.112221 0.745607 0.229602 1
0.157495 0.663523 0.259848 1
0.040727 0.646416 0.250579 1
0.163619 0.763178 0.240170 1
0.094363 0.579621 0.266462 1
0.080412 0.730604 0.236521 1
0.179617 0.716837 0.253553 1
0.028702 0.577354 0.258212 1
0.136127 0.766365 0.229679 1
0.139758 0.613452 0.263132 1
0.044443 0.683959 0.245919 1
0.182336 0.762819 0.246615 1
0.058288 0.548827 0.268804 1
0.096719 0.751071 0.226790 1
0.176166 0.675353 0.256090 1
0.016914 0.609463 0.256609 1
0.160649 0.777293 0.232588 1
0.117404 0.584718 0.275585 1
0.057151 0.719788 0.237298 1
0.190938 0.736300 0.247621 1
0.024868 0.546227 0.269767 1
0.118916 0.765316 0.219231 1
0.164515 0.633546 0.265215 1
0.022224 0.660074 0.253164 1
0.185176 0.784574 0.242584 1
0.072799 0.531431 0.276414 1
0.078251 0.750989 0.228277 1
0.193426 0.701620 0.253470 1
-0.000197 0.567105 0.265074 1
0.149487 0.783493 0.223359 1
0.136107 0.574987 0.271752 1
0.034004 0.703002 0.242703 1
0.198184 0.762215 0.243964 1
0.041183 0.539239 0.286011 1
0.101502 0.768446 0.217233 1
0.188269 0.665893 0.266050 1
-0.000569 0.622825 0.260944 1
0.181410 0.801187 0.237446 1
0.100436 0.538418 0.284142 1
0.055265 0.740954 0.231105 1
0.206611 0.734224 0.251599 1
0.002186 0.542797 0.280762 1
0.131438 0.783142 0.213692 1
0.167133 0.611007 0.275934 1
0.011755 0.679270 0.251648 1
0.200336 0.787866 0.241115 1
0.066966 0.541780 0.299328 1
0.080594 0.766293 0.218207 1
0.208009 0.704132 0.265956 1
-0.023740 0.570134 0.268155 1
0.168792 0.805636 0.226896 1
0.125097 0.535129 0.281413 1
0.030525 0.723564 0.236994 1
0.213006 0.761318 0.246648 1
0.021621 0.536361 0.298937 1
0.112566 0.785987 0.211222 1
0.192736 0.645460 0.274600 1
-0.012615 0.641699 0.260796 1
0.195937 0.806088 0.235725 1
0.093606 0.539727 0.304751 1
0.056988 0.758111 0.222145 1
0.221823 0.741027 0.264118 1
-0.022746 0.541616 0.285602 1
0.148948 0.802582 0.214225 1
0.159370 0.569997 0.282839 1
0.005080 0.698096 0.245770 1
0.213651 0.784579 0.240416 1
0.050440 0.539096 0.314019 1
0.090115 0.783997 0.211378 1
0.214362 0.686950 0.272897 1
-0.044501 0.578967 0.266504 1
0.185611 0.817843 0.228657 1
0.121753 0.539164 0.303446 1
0.032755 0.744850 0.230067 1
0.230398 0.777376 0.262570 1
0.000394 0.538413 0.307711 1
0.127354 0.802245 0.207895 1
0.192932 0.624011 0.285390 1
0.112684 0.687859 0.245439 1
0.109044 0.696828 0.239724 1
0.131055 0.693334 0.252418 1
0.086286 0.666939 0.245213 1
0.135399 0.729487 0.244788 1
0.113664 0.658576 0.257022 1
0.091866 0.702286 0.239671 1
0.152011 0.719243 0.252004 1
0.077568 0.638350 0.253482 1
0.122930 0.737018 0.236677 1
0.139142 0.673695 0.260423 1
0.068451 0.675896 0.244480 1
0.155953 0.743557 0.244449 1
0.088522 0.612985 0.258011 1
0.098893 0.731503 0.235942 1
0.163084 0.708115 0.257474 1
0.053158 0.631777 0.252414 1
0.142135 0.755943 0.235266 1
0.122458 0.627419 0.261588 1
0.069037 0.704287 0.241052 1
0.172611 0.743307 0.249367 1
0.057560 0.586003 0.258438 1
0.112038 0.748692 0.227792 1
0.158039 0.669755 0.259148 1
0.042479 0.653702 0.249948 1
0.164149 0.767844 0.239541 1
0.099954 0.598834 0.269487 1
0.080634 0.734515 0.235003 1
0.180643 0.724073 0.253858 1
0.031118 0.586832 0.257795 1
0.136240 0.769876 0.228306 1
0.140424 0.620576 0.262361 1
0.045242 0.689154 0.244650 1
0.182150 0.765736 0.245024 1
0.058983 0.555654 0.267273 1
0.095500 0.752315 0.223840 1
0.176987 0.682733 0.256057 1
0.021503 0.621975 0.257605 1
0.161208 0.781801 0.231985 1
0.111756 0.574269 0.268658 1
0.058433 0.725454 0.236583 1
0.191481 0.741927 0.247366 1
0.025665 0.552919 0.268091 1
0.118200 0.767249 0.216776 1
0.162873 0.633218 0.261777 1
0.023557 0.666258 0.252090 1
0.184788 0.786712 0.240624 1
0.072692 0.536743 0.274315 1
0.078102 0.754135 0.226413 1
0.193792 0.707395 0.252988 1
0.000043 0.572316 0.262983 1
0.149759 0.787212 0.222268 1
0.141515 0.597648 0.275804 1
0.035920 0.709661 0.242266 1
0.198658 0.767299 0.243664 1
0.038153 0.537893 0.281924 1
0.101049 0.770935 0.215082 1
0.188292 0.670997 0.264947 1
0.006427 0.638438 0.263156 1
0.179155 0.798517 0.232335 1
0.093026 0.523588 0.276257 1
0.055464 0.744720 0.229483 1
0.206805 0.739046 0.250934 1
-0.001191 0.541428 0.276540 1
0.131222 0.785874 0.211857 1
0.167968 0.619607 0.275624 1
0.012056 0.683600 0.249844 1
0.201288 0.793999 0.241708 1
0.064964 0.542382 0.295926 1
0.080768 0.769862 0.216681 1
0.207793 0.707948 0.264580 1
-0.019296 0.582212 0.268320 1
0.167114 0.804785 0.222799 1
0.128077 0.550739 0.282460 1
0.031830 0.729034 0.236121 1
0.213765 0.767856 0.247194 1
0.019105 0.536381 0.295262 1
0.112302 0.788671 0.209289 1
0.192589 0.650396 0.273283 1
-0.008912 0.651390 0.260869 1
0.196434 0.810453 0.235360 1
0.091576 0.539948 0.301327 1
0.056973 0.761456 0.220356 1
0.218922 0.732838 0.257101 1
-0.025434 0.541835 0.281821 1
0.149472 0.806619 0.213493 1
0.161892 0.585420 0.284241 1
0.005931 0.703049 0.244357 1
0.214339 0.790340 0.240795 1
0.047852 0.538557 0.310358 1
0.090354 0.787547 0.209965 1
0.213882 0.690011 0.271121 1
-0.032378 0.602233 0.270579 1
0.185891 0.821376 0.227774 1
0.118928 0.536522 0.299337 1
0.032817 0.748398 0.228264 1
0.225902 0.761744 0.251094 1
-0.004149 0.534836 0.303137 1
0.127710 0.805889 0.206793 1
0.193092 0.630685 0.284491 1
0.115270 0.697234 0.246729 1
0.112882 0.708553 0.242346 1
0.129863 0.694117 0.249745 1
0.088632 0.675550 0.245878 1
0.133983 0.729556 0.241763 1
0.111445 0.657308 0.253409 1
0.094484 0.710848 0.240733 1
0.152538 0.724009 0.251385 1
0.077774 0.642862 0.252107 1
0.122966 0.740283 0.235320 1
0.138479 0.675875 0.258372 1
0.070293 0.683025 0.244501 1
0.158894 0.753966 0.247089 1
0.087721 0.615547 0.255789 1
0.098174 0.733400 0.233739 1
0.163413 0.712648 0.256686 1
0.055583 0.640517 0.252665 1
0.141861 0.758360 0.233559 1
0.122957 0.633158 0.260721 1
0.069718 0.708942 0.240095 1
0.174666 0.752180 0.251144 1
0.061233 0.598395 0.259606 1
0.112958 0.753541 0.227393 1
0.160320 0.680639 0.260823 1
0.042810 0.658159 0.248542 1
0.163931 0.770218 0.237925 1
0.094809 0.590660 0.263513 1
0.079800 0.736319 0.232696 1
0.179955 0.725450 0.251672 1
0.035787 0.600304 0.259312 1
0.134507 0.769230 0.224694 1
0.141423 0.628198 0.262205 1
0.046781 0.695278 0.244232 1
0.183911 0.773605 0.246614 1
0.057836 0.557996 0.264736 1
0.096531 0.757199 0.223450 1
0.177342 0.687986 0.255489 1
0.019859 0.623235 0.254740 1
0.161364 0.784931 0.230873 1
0.112000 0.580020 0.267443 1
0.059484 0.730441 0.235908 1
0.191689 0.745895 0.246605 1
0.021996 0.550364 0.263885 1
0.118969 0.771639 0.216276 1
0.164522 0.643401 0.262767 1
0.024309 0.671224 0.250912 1
0.185543 0.791455 0.240611 1
0.073451 0.543876 0.273220 1
0.076724 0.755022 0.223548 1
0.196073 0.719345 0.255826 1
-0.000268 0.576304 0.260920 1
0.150648 0.791828 0.222146 1
0.136417 0.586901 0.269199 1
0.034160 0.710427 0.239277 1
0.199306 0.772340 0.243705 1
0.037432 0.541361 0.279637 1
0.101624 0.774868 0.214248 1
0.187973 0.674256 0.263466 1
0.002782 0.636557 0.259086 1
0.180683 0.804913 0.233543 1
0.095903 0.537137 0.277013 1
0.055043 0.747283 0.227538 1
0.206349 0.740825 0.249056 1
-0.000636 0.547295 0.274911 1
0.133986 0.793921 0.214112 1
0.166271 0.618700 0.272412 1
0.011508 0.686423 0.247752 1
0.201297 0.796662 0.240489 1
0.061990 0.540465 0.292242 1
0.078906 0.769964 0.213245 1
0.206360 0.706241 0.261083 1
-0.022126 0.581964 0.264801 1
0.168709 0.810918 0.223949 1
0.124778 0.546082 0.277993 1
0.031597 0.732027 0.234304 1
0.213422 0.769644 0.245412 1
0.019083 0.541273 0.293306 1
0.112445 0.791732 0.207984 1
0.191537 0.651122 0.270761 1
-0.010948 0.652231 0.257829 1
0.197708 0.816415 0.236440 1
0.088267 0.536525 0.297347 1
0.057697 0.765599 0.219446 1
0.220859 0.744741 0.260268 1
-0.029457 0.539607 0.277731 1
0.151408 0.813059 0.214913 1
0.157677 0.575863 0.278321 1
0.006562 0.707447 0.243077 1
0.214034 0.791995 0.238974 1
0.048761 0.545627 0.308956 1
0.088006 0.786796 0.205863 1
0.215119 0.700019 0.272586 1
-0.036824 0.599676 0.266261 1
0.185133 0.821890 0.225037 1
0.118037 0.539562 0.297086 1
0.032795 0.751583 0.226622 1
0.228893 0.777669 0.257115 1
-0.003945 0.540075 0.301193 1
0.127132 0.807535 0.204542 1
0.191337 0.628739 0.281060 1
0.116868 0.702711 0.246498 1
0.113822 0.712453 0.241419 1
0.131277 0.699433 0.249446 1
0.089736 0.679955 0.244948 1
0.135420 0.734505 0.241560 1
0.113304 0.663895 0.253360 1
0.095440 0.714657 0.239716 1
0.153327 0.727696 0.250525 1
0.078607 0.646959 0.250846 1
0.123658 0.743426 0.234178 1
0.140293 0.682653 0.258568 1
0.071507 0.687444 0.243562 1
0.158993 0.755690 0.245332 1
0.089686 0.622564 0.255560 1
0.099882 0.738424 0.233527 1
0.165312 0.719679 0.257367 1
0.055702 0.643170 0.250733 1
0.145791 0.768480 0.236668 1
0.124059 0.638418 0.259981 1
0.071514 0.714128 0.239687 1
0.175356 0.755472 0.250282 1
0.060919 0.600395 0.257332 1
0.112161 0.753736 0.224514 1
0.161191 0.685166 0.260133 1
0.044170 0.662906 0.247530 1
0.166648 0.778167 0.239910 1
0.096008 0.596332 0.262617 1
0.081703 0.741468 0.232517 1
0.180902 0.729869 0.251271 1
0.037151 0.605594 0.258178 1
0.135525 0.772828 0.224010 1
0.143201 0.635808 0.262382 1
0.047884 0.699280 0.243079 1
0.184794 0.777261 0.246099 1
0.059688 0.565089 0.264047 1
0.097032 0.759837 0.221985 1
0.178494 0.693579 0.255388 1
0.022084 0.629674 0.254141 1
0.161990 0.787664 0.229797 1
0.114456 0.589550 0.267831 1
0.060098 0.733434 0.234433 1
0.192655 0.750261 0.246356 1
0.024199 0.557747 0.263156 1
0.119688 0.774578 0.215132 1
0.165056 0.647416 0.261702 1
0.024719 0.674235 0.249130 1
0.186167 0.794215 0.239659 1
0.073542 0.547165 0.271261 1
0.077426 0.758010 0.222220 1
0.196375 0.721899 0.254528 1
0.002377 0.583843 0.260351 1
0.151780 0.795545 0.221727 1
0.137332 0.592496 0.268344 1
0.035686 0.714911 0.238409 1
0.199673 0.774559 0.242408 1
0.037310 0.544171 0.277423 1
0.102335 0.777755 0.213019 1
0.188522 0.678212 0.262578 1
0.003509 0.640273 0.257407 1
0.181690 0.808473 0.233170 1
0.095924 0.540362 0.275071 1
0.055553 0.750026 0.225961 1
0.207132 0.744910 0.248667 1
-0.000608 0.550375 0.272694 1
0.134890 0.797074 0.213267 1
0.166901 0.623429 0.271473 1
0.013474 0.691659 0.247012 1
0.201844 0.799207 0.239479 1
0.059473 0.537669 0.288547 1
0.079944 0.773382 0.212269 1
0.207631 0.712868 0.261615 1
-0.019051 0.589859 0.264294 1
0.169073 0.812873 0.222447 1
0.121944 0.540464 0.273490 1
0.032432 0.735329 0.232911 1
0.213869 0.772190 0.244345 1
0.018151 0.542490 0.290604 1
0.113101 0.794424 0.206719 1
0.191947 0.654949 0.269709 1
-0.008789 0.657945 0.256989 1
0.198307 0.818911 0.235457 1
0.087253 0.537056 0.294646 1
0.056472 0.765760 0.216280 1
0.221401 0.748117 0.259545 1
-0.028255 0.544773 0.276035 1
0.153559 0.818581 0.215996 1
0.158692 0.582464 0.277741 1
0.007611 0.711175 0.241714 1
0.214581 0.794626 0.238045 1
0.047373 0.545653 0.306082 1
0.089170 0.790307 0.205076 1
0.215664 0.704071 0.271904 1
-0.033868 0.606964 0.265592 1
0.186438 0.826011 0.225221 1
0.115700 0.535764 0.293317 1
0.033381 0.754436 0.225047 1
0.229863 0.782456 0.257365 1
-0.005190 0.540857 0.298334 1
0.127891 0.810311 0.203454 1
0.191363 0.631364 0.279474 1
0.118812 0.708764 0.246226 1
0.115031 0.716767 0.240371 1
0.133023 0.705340 0.249107 1
0.091166 0.684848 0.243891 1
0.137784 0.741365 0.242077 1
0.115580 0.671227 0.253294 1
0.096671 0.718859 0.238566 1
0.153980 0.730864 0.249097 1
0.079764 0.651542 0.249406 1
0.124239 0.746217 0.232520 1
0.142453 0.690083 0.258735 1
0.073059 0.692335 0.242495 1
0.160259 0.760130 0.244767 1
0.092142 0.630449 0.255298 1
0.100550 0.741396 0.231864 1
0.166169 0.723565 0.256277 1
0.057198 0.648277 0.249418 1
0.146624 0.771675 0.235440 1
0.125909 0.645374 0.259541 1
0.073258 0.719087 0.238840 1
0.175791 0.757902 0.248667 1
0.063583 0.608471 0.256870 1
0.112753 0.756476 0.222821 1
0.162327 0.690229 0.259347 1
0.046252 0.668754 0.246634 1
0.167851 0.782274 0.239354 1
0.097612 0.602735 0.261583 1
0.082362 0.744396 0.230778 1
0.182078 0.734760 0.250812 1
0.037338 0.608439 0.255721 1
0.137185 0.777616 0.223791 1
0.144696 0.642279 0.261776 1
0.049311 0.703687 0.241772 1
0.184967 0.778793 0.244078 1
0.063753 0.576841 0.264505 1
0.097719 0.762712 0.220343 1
0.179925 0.699794 0.255258 1
0.024854 0.636861 0.253458 1
0.161923 0.788707 0.227340 1
0.116495 0.597594 0.267342 1
0.059716 0.734763 0.231704 1
0.193834 0.755083 0.246074 1
0.027022 0.566100 0.262323 1
0.120602 0.777787 0.213859 1
0.165791 0.651792 0.260419 1
0.025936 0.678402 0.247483 1
0.186942 0.797240 0.238605 1
0.069556 0.540271 0.265643 1
0.078496 0.761501 0.220879 1
0.197360 0.726606 0.253960 1
0.007621 0.595731 0.260915 1
0.153511 0.800408 0.221820 1
0.138414 0.598273 0.267158 1
0.037578 0.719831 0.237430 1
0.200691 0.778649 0.241929 1
0.036185 0.544620 0.274019 1
0.103241 0.780897 0.211651 1
0.189292 0.682666 0.261567 1
0.006071 0.646753 0.256431 1
0.183060 0.812805 0.233066 1
0.096216 0.544029 0.272799 1
0.056272 0.753003 0.224190 1
0.208107 0.749437 0.248227 1
0.000721 0.555661 0.270687 1
0.135986 0.800505 0.212329 1
0.168161 0.630003 0.270827 1
0.015876 0.697405 0.246165 1
0.202502 0.801929 0.238316 1
0.059100 0.539697 0.285678 1
0.081617 0.777706 0.211587 1
0.208260 0.716618 0.260553 1
-0.015283 0.598663 0.263702 1
0.170476 0.817045 0.222262 1
0.123797 0.549076 0.272812 1
0.033219 0.738477 0.231093 1
0.214902 0.776641 0.244101 1
0.017354 0.543772 0.287425 1
0.113932 0.797348 0.205317 1
0.192573 0.659286 0.268507 1
-0.008066 0.661393 0.254834 1
0.198819 0.821045 0.233968 1
0.085616 0.535701 0.290951 1
0.057214 0.768694 0.214546 1
0.222101 0.751868 0.258732 1
-0.026556 0.550574 0.274064 1
0.154721 0.822055 0.215292 1
0.160123 0.590135 0.277117 1
0.008979 0.715241 0.240170 1
0.215479 0.798270 0.237495 1
0.046021 0.545549 0.302684 1
0.091157 0.795014 0.204853 1
0.214091 0.698551 0.266858 1
-0.030241 0.615069 0.264819 1
0.190021 0.835521 0.229164 1
0.115490 0.538134 0.290702 1
0.034188 0.757520 0.223277 1
0.230498 0.785573 0.256441 1
-0.007555 0.539371 0.294370 1
0.128821 0.813322 0.202251 1
0.191447 0.633879 0.277476 1
0.117830 0.709399 0.243644 1
0.115413 0.720266 0.239221 1
0.137007 0.717543 0.252099 1
0.092032 0.689518 0.243063 1
0.138502 0.745478 0.241447 1
0.114501 0.671800 0.250650 1
0.097075 0.722319 0.237349 1
0.157143 0.741409 0.251696 1
0.081723 0.658736 0.249413 1
0.127402 0.755145 0.234650 1
0.141204 0.689847 0.255874 1
0.074338 0.697549 0.241919 1
0.160992 0.764278 0.244333 1
0.092829 0.635381 0.254245 1
0.101505 0.745692 0.231248 1
0.166505 0.727209 0.255360 1
0.058181 0.653307 0.248422 1
0.145532 0.771611 0.232538 1
0.128620 0.655733 0.260805 1
0.073295 0.721859 0.237191 1
0.176669 0.762673 0.248595 1
0.065614 0.616214 0.256673 1
0.113947 0.761142 0.222600 1
0.161972 0.692246 0.257536 1
0.048217 0.675193 0.246358 1
0.168536 0.786105 0.238920 1
0.101532 0.615969 0.263389 1
0.081367 0.745279 0.228169 1
0.182363 0.738247 0.249938 1
0.039581 0.616138 0.255444 1
0.138233 0.781982 0.223612 1
0.145964 0.649422 0.261772 1
0.053275 0.712935 0.243184 1
0.185783 0.783235 0.244026 1
0.063875 0.580895 0.262771 1
0.097552 0.764851 0.218538 1
0.180438 0.704459 0.254737 1
0.026150 0.642326 0.252464 1
0.164411 0.796478 0.229541 1
0.115821 0.599598 0.265121 1
0.061966 0.740926 0.231950 1
0.194835 0.760654 0.246495 1
0.031730 0.579145 0.263492 1
0.122393 0.783370 0.214481 1
0.166973 0.659125 0.260633 1
0.028714 0.685768 0.247627 1
0.188350 0.802997 0.239563 1
0.073330 0.553543 0.266707 1
0.077349 0.762162 0.218080 1
0.197922 0.731339 0.253697 1
0.005766 0.596003 0.257751 1
0.151756 0.798854 0.217775 1
0.138034 0.601092 0.265285 1
0.039911 0.726067 0.237477 1
0.201825 0.784377 0.242705 1
0.035183 0.546490 0.271390 1
0.103954 0.784408 0.210836 1
0.190580 0.690603 0.262336 1
0.008793 0.654230 0.256240 1
0.182301 0.812881 0.230339 1
0.091060 0.534449 0.266801 1
0.058626 0.759032 0.224562 1
0.208914 0.754882 0.248565 1
-0.001543 0.555304 0.267280 1
0.135014 0.800817 0.209439 1
0.167541 0.631730 0.268753 1
0.015890 0.700315 0.244325 1
0.203657 0.807321 0.239145 1
0.058544 0.542547 0.283391 1
0.081372 0.779720 0.209659 1
0.210267 0.727476 0.263054 1
-0.011720 0.607920 0.263696 1
0.170739 0.819556 0.221167 1
0.126475 0.561714 0.273771 1
0.034519 0.742971 0.230347 1
0.215455 0.780845 0.243997 1
0.011504 0.536133 0.282070 1
0.114670 0.800798 0.204599 1
0.195986 0.676202 0.272512 1
-0.006065 0.667427 0.254114 1
0.199531 0.824791 0.233866 1
0.085030 0.538518 0.288709 1
0.057942 0.772216 0.213501 1
0.221632 0.752552 0.256628 1
-0.025391 0.556367 0.272499 1
0.153635 0.821889 0.212110 1
0.161194 0.598221 0.276982 1
0.011501 0.721510 0.240085 1
0.215917 0.801730 0.237102 1
0.041882 0.540549 0.298350 1
0.090755 0.796692 0.202736 1
0.217039 0.714625 0.271263 1
-0.027404 0.622714 0.264294 1
0.189326 0.835605 0.226409 1
0.113706 0.537385 0.287564 1
0.033709 0.759461 0.221117 1
0.229606 0.784078 0.253175 1
-0.011513 0.536006 0.290232 1
0.127231 0.812663 0.198477 1
0.191805 0.639441 0.276840 1
0.118353 0.713366 0.243435 1
0.116554 0.725381 0.239663 1
0.136501 0.719172 0.250811 1
0.093967 0.696331 0.244056 1
0.136384 0.743393 0.238182 1
0.113776 0.673293 0.249171 1
0.098614 0.727945 0.238041 1
0.157147 0.744072 0.251022 1
0.081856 0.662187 0.248680 1
0.127348 0.757531 0.233810 1
0.141779 0.694409 0.255846 1
0.075964 0.703373 0.242466 1
0.160970 0.766679 0.243607 1
0.093316 0.639890 0.253869 1
0.099987 0.745484 0.228845 1
0.166792 0.730822 0.255117 1
0.058904 0.657839 0.248085 1
0.146761 0.776624 0.233380 1
0.129693 0.661865 0.261203 1
0.073693 0.725251 0.236661 1
0.177356 0.767022 0.248964 1
0.066420 0.621383 0.256409 1
0.114062 0.763812 0.221919 1
0.162510 0.696980 0.257630 1
0.048641 0.678933 0.245748 1
0.168511 0.788325 0.238170 1
0.098354 0.611920 0.259784 1
0.081404 0.747909 0.227331 1
0.182568 0.741644 0.249689 1
0.040454 0.621209 0.255100 1
0.135770 0.779378 0.219646 1
0.146527 0.654602 0.261786 1
0.051664 0.713106 0.240963 1
0.186002 0.786158 0.243726 1
0.063170 0.583155 0.261326 1
0.098159 0.768327 0.218338 1
0.180051 0.706401 0.253664 1
0.026446 0.646046 0.251671 1
0.164687 0.799295 0.229204 1
0.116802 0.606139 0.265315 1
0.061864 0.743369 0.230946 1
0.195198 0.764376 0.246562 1
0.031979 0.583345 0.262649 1
0.123486 0.787677 0.215009 1
0.166855 0.662380 0.259964 1
0.029087 0.689286 0.246909 1
0.188557 0.805691 0.239218 1
0.073539 0.558177 0.265982 1
0.077435 0.764774 0.217274 1
0.197769 0.733791 0.252976 1
0.006888 0.601476 0.257396 1
0.152214 0.801983 0.217650 1
0.138561 0.606766 0.265220 1
0.039456 0.728090 0.236164 1
0.201754 0.786521 0.241988 1
0.033332 0.546620 0.269165 1
0.103675 0.786273 0.209657 1
0.190738 0.694626 0.262146 1
0.009011 0.657696 0.255339 1
0.182341 0.815046 0.229668 1
0.091965 0.541337 0.266741 1
0.056366 0.758231 0.221627 1
0.208801 0.757237 0.247894 1
-0.000889 0.560316 0.266552 1
0.136511 0.805790 0.210634 1
0.167319 0.634995 0.267980 1
0.016179 0.703589 0.243520 1
0.203570 0.809194 0.238324 1
0.055524 0.539757 0.280407 1
0.079978 0.779984 0.207314 1
0.210275 0.730675 0.262685 1
-0.011164 0.612231 0.262909 1
0.170884 0.821899 0.220612 1
0.126583 0.566523 0.273192 1
0.034475 0.745528 0.229346 1
0.215386 0.783068 0.243350 1
0.010901 0.538958 0.280608 1
0.115788 0.804888 0.205119 1
0.195753 0.679069 0.271773 1
