ply
format ascii 1.0
element vertex 1549
property float x
property float y
property float z
property uchar label
end_header
-0.141950 0.777014 -0.349890 1
-0.063081 0.778454 -0.317913 1
-0.138854 0.771135 -0.364306 1
-0.057428 0.748388 -0.326657 1
-0.068492 0.785289 -0.302882 1
-0.153822 0.769682 -0.333204 1
-0.054072 0.770684 -0.321894 1
-0.149444 0.773322 -0.358004 1
-0.056987 0.775799 -0.301676 1
-0.143657 0.759981 -0.369988 1
-0.046760 0.749145 -0.319438 1
-0.161667 0.768055 -0.341901 1
-0.046903 0.769575 -0.308633 1
-0.153332 0.769501 -0.367572 1
-0.166989 0.776814 -0.332208 1
-0.039154 0.760463 -0.317286 1
-0.165113 0.769534 -0.354911 1
-0.042413 0.770849 -0.294912 1
-0.106001 0.788803 -0.350202 1
-0.111621 0.788998 -0.345753 1
-0.104001 0.783440 -0.357106 1
-0.101567 0.786943 -0.336375 1
-0.118552 0.784785 -0.352072 1
-0.093046 0.785528 -0.355100 1
-0.113161 0.791770 -0.333946 1
-0.111951 0.777630 -0.361713 1
-0.090591 0.788745 -0.339418 1
-0.127455 0.779753 -0.336847 1
-0.095672 0.772886 -0.359588 1
-0.103753 0.792687 -0.326091 1
-0.123952 0.778824 -0.359787 1
-0.083365 0.785560 -0.350015 1
-0.125788 0.784592 -0.323531 1
-0.090474 0.783560 -0.320912 1
-0.134672 0.778835 -0.345808 1
-0.085216 0.768536 -0.355725 1
-0.122546 0.767644 -0.365189 1
-0.078277 0.788768 -0.340308 1
-0.136153 0.785386 -0.329514 1
-0.136191 0.776435 -0.358381 1
-0.075638 0.768233 -0.346853 1
-0.079101 0.782623 -0.318774 1
-0.149222 0.764474 -0.325535 1
-0.069386 0.778328 -0.339562 1
-0.148036 0.773079 -0.349922 1
-0.068516 0.781064 -0.322704 1
-0.143772 0.770792 -0.366860 1
-0.063092 0.762097 -0.339186 1
-0.074005 0.785759 -0.306044 1
-0.161692 0.761162 -0.329751 1
-0.059649 0.774426 -0.327409 1
-0.154800 0.771688 -0.359775 1
-0.062578 0.775282 -0.303855 1
-0.052826 0.759122 -0.329471 1
-0.170089 0.758426 -0.337952 1
-0.052673 0.772582 -0.313737 1
-0.158236 0.769064 -0.370155 1
-0.173161 0.773679 -0.332897 1
-0.044948 0.763115 -0.321808 1
-0.171823 0.764515 -0.354490 1
-0.048170 0.771219 -0.297847 1
-0.111449 0.788417 -0.352035 1
-0.116963 0.789342 -0.348219 1
-0.110148 0.778018 -0.355273 1
-0.106084 0.793993 -0.344268 1
-0.124183 0.783362 -0.353237 1
-0.099238 0.778020 -0.351573 1
-0.118610 0.792030 -0.336434 1
-0.118267 0.771763 -0.359804 1
-0.095996 0.789990 -0.342475 1
-0.131342 0.786287 -0.344366 1
-0.109140 0.794036 -0.329504 1
-0.129943 0.775560 -0.359744 1
-0.089575 0.774756 -0.343784 1
-0.131814 0.782610 -0.324259 1
-0.095561 0.789801 -0.328442 1
-0.139526 0.780706 -0.349600 1
-0.084169 0.782199 -0.336966 1
-0.142614 0.781831 -0.329029 1
-0.142091 0.773985 -0.359019 1
-0.081481 0.759612 -0.342534 1
-0.084756 0.784506 -0.322468 1
-0.149811 0.780583 -0.340776 1
-0.141614 0.754605 -0.361674 1
-0.075108 0.770111 -0.335058 1
-0.152508 0.775708 -0.354292 1
-0.074302 0.778599 -0.322557 1
-0.150922 0.763938 -0.364781 1
-0.068631 0.751415 -0.333184 1
-0.080127 0.778714 -0.301578 1
-0.162904 0.773368 -0.341709 1
-0.065289 0.769546 -0.325298 1
-0.160195 0.771067 -0.361849 1
-0.068572 0.779355 -0.309518 1
-0.169165 0.776939 -0.329588 1
-0.058132 0.749127 -0.323657 1
-0.169366 0.774736 -0.352462 1
-0.058428 0.769587 -0.313025 1
-0.166456 0.759933 -0.366862 1
-0.065966 0.774440 -0.289294 1
-0.050325 0.756708 -0.318439 1
-0.174578 0.770840 -0.361447 1
-0.054112 0.769403 -0.298091 1
-0.117526 0.785303 -0.351697 1
-0.123433 0.784595 -0.346604 1
-0.115622 0.778579 -0.357680 1
-0.112516 0.788514 -0.341873 1
-0.130150 0.781307 -0.353811 1
-0.104513 0.781016 -0.355723 1
-0.126614 0.780189 -0.328702 1
-0.124008 0.770593 -0.361037 1
-0.101641 0.790151 -0.344593 1
-0.137655 0.783231 -0.344149 1
-0.107013 0.769245 -0.361031 1
-0.114371 0.796926 -0.334148 1
-0.136207 0.772194 -0.359512 1
-0.094761 0.781580 -0.350857 1
-0.136461 0.786943 -0.330218 1
-0.100934 0.793498 -0.333678 1
-0.146520 0.775304 -0.347769 1
-0.135346 0.757888 -0.363160 1
-0.089680 0.786461 -0.342325 1
-0.147756 0.783615 -0.332818 1
-0.148296 0.771321 -0.359352 1
-0.086901 0.767847 -0.350324 1
-0.090482 0.786642 -0.326342 1
-0.155633 0.779746 -0.342419 1
-0.145991 0.759060 -0.366670 1
-0.080788 0.776983 -0.342260 1
-0.159313 0.771522 -0.353560 1
-0.080133 0.782392 -0.327726 1
-0.156403 0.763819 -0.366913 1
-0.074557 0.760795 -0.341877 1
-0.085750 0.788397 -0.312655 1
-0.167525 0.775999 -0.346061 1
-0.071305 0.774986 -0.331579 1
-0.166648 0.768055 -0.362094 1
-0.074588 0.776118 -0.308615 1
-0.175768 0.774341 -0.329934 1
-0.064526 0.759036 -0.332991 1
-0.177910 0.766626 -0.349003 1
-0.064723 0.775682 -0.320141 1
-0.170685 0.763347 -0.371300 1
-0.185062 0.771302 -0.336298 1
-0.056588 0.759603 -0.322573 1
-0.181948 0.765858 -0.360449 1
-0.060577 0.774504 -0.304698 1
-0.124052 0.782732 -0.351878 1
-0.130077 0.781887 -0.346703 1
-0.121930 0.776959 -0.358601 1
-0.119222 0.785148 -0.341300 1
-0.137116 0.777111 -0.352936 1
-0.110675 0.780397 -0.357273 1
-0.131144 0.788449 -0.337856 1
-0.130027 0.770532 -0.363120 1
-0.107954 0.788958 -0.345680 1
-0.144093 0.781855 -0.345392 1
-0.112880 0.770748 -0.364037 1
-0.121044 0.794246 -0.334031 1
-0.142393 0.771352 -0.361161 1
-0.100815 0.782818 -0.353732 1
-0.144475 0.779844 -0.326590 1
-0.106934 0.795805 -0.337749 1
-0.153090 0.773473 -0.348774 1
-0.141349 0.757855 -0.365343 1
-0.095835 0.787801 -0.345350 1
-0.154870 0.780390 -0.332606 1
-0.154606 0.770084 -0.360828 1
-0.093019 0.769893 -0.353662 1
-0.096532 0.791399 -0.332488 1
-0.162669 0.776734 -0.342546 1
-0.152070 0.758513 -0.368602 1
-0.086974 0.780690 -0.346988 1
-0.165963 0.769479 -0.354548 1
-0.086483 0.785012 -0.331889 1
-0.162202 0.764138 -0.369475 1
-0.080903 0.763344 -0.345543 1
-0.092228 0.789440 -0.315708 1
-0.177348 0.765512 -0.340741 1
-0.077772 0.780453 -0.337832 1
-0.172799 0.767348 -0.364081 1
-0.081203 0.779450 -0.313606 1
-0.071104 0.762174 -0.337134 1
-0.184689 0.764628 -0.350181 1
-0.071269 0.774671 -0.321153 1
-0.176451 0.763529 -0.373870 1
-0.192382 0.768382 -0.336754 1
-0.063586 0.766322 -0.329669 1
-0.188730 0.763659 -0.361569 1
-0.067233 0.772567 -0.304870 1
-0.130016 0.782350 -0.354389 1
-0.135759 0.782995 -0.350435 1
-0.128423 0.773296 -0.358743 1
-0.124600 0.788845 -0.347089 1
-0.143000 0.776931 -0.355699 1
-0.117095 0.776541 -0.357138 1
-0.137675 0.785883 -0.338708 1
-0.137553 0.761881 -0.360070 1
-0.114110 0.787786 -0.347467 1
-0.150331 0.780439 -0.347306 1
-0.127945 0.789512 -0.332886 1
-0.148571 0.769677 -0.362903 1
-0.107437 0.776090 -0.351327 1
-0.149626 0.783167 -0.332523 1
-0.113850 0.789064 -0.334804 1
-0.158289 0.775626 -0.353408 1
-0.102202 0.783995 -0.344957 1
-0.162109 0.776099 -0.332290 1
-0.119525 0.795731 -0.327201 1
-0.160822 0.768397 -0.362669 1
-0.099406 0.764332 -0.352256 1
-0.103105 0.786586 -0.331103 1
-0.168509 0.776695 -0.345691 1
-0.159392 0.752505 -0.367782 1
-0.093254 0.776642 -0.346429 1
-0.171235 0.770874 -0.358648 1
-0.092857 0.781924 -0.331954 1
-0.170611 0.755283 -0.366872 1
-0.087121 0.761620 -0.346787 1
-0.098991 0.783163 -0.312793 1
-0.183383 0.764934 -0.343620 1
-0.084052 0.774204 -0.335368 1
-0.178429 0.767375 -0.367217 1
-0.087647 0.780316 -0.317123 1
-0.190952 0.766371 -0.329654 1
-0.077323 0.757026 -0.335749 1
-0.187999 0.770713 -0.357768 1
-0.077706 0.773971 -0.323161 1
-0.184953 0.755436 -0.371988 1
-0.069946 0.764981 -0.331076 1
-0.193124 0.766651 -0.366810 1
-0.073841 0.771907 -0.306976 1
-0.136127 0.779065 -0.354982 1
-0.142267 0.778217 -0.349910 1
-0.134017 0.772621 -0.361255 1
-0.131231 0.782680 -0.345267 1
-0.149272 0.773348 -0.356225 1
-0.122732 0.775799 -0.359525 1
-0.143323 0.785425 -0.341550 1
-0.142740 0.763141 -0.363949 1
-0.119798 0.787130 -0.349932 1
-0.156452 0.777898 -0.348593 1
-0.125764 0.759783 -0.362229 1
-0.134388 0.785248 -0.332459 1
-0.154215 0.768541 -0.365233 1
-0.112929 0.777425 -0.355206 1
-0.156322 0.778889 -0.332315 1
-0.119005 0.793109 -0.341299 1
-0.164439 0.772974 -0.354718 1
-0.154155 0.750750 -0.366793 1
-0.107761 0.785564 -0.349105 1
-0.166844 0.778531 -0.337683 1
-0.166152 0.768319 -0.365803 1
-0.104823 0.768250 -0.357830 1
-0.109216 0.782988 -0.331090 1
-0.175115 0.773021 -0.346271 1
-0.165178 0.750810 -0.369883 1
-0.098917 0.778286 -0.350508 1
-0.177267 0.768664 -0.360405 1
-0.098604 0.784080 -0.336700 1
-0.174673 0.759082 -0.372482 1
-0.092918 0.761510 -0.349485 1
-0.104438 0.790271 -0.322426 1
-0.188644 0.765174 -0.347277 1
-0.089871 0.779373 -0.342324 1
-0.184532 0.764885 -0.368874 1
-0.093778 0.775533 -0.315947 1
-0.195821 0.767693 -0.334335 1
-0.083336 0.762972 -0.342958 1
-0.196388 0.762832 -0.355699 1
-0.083752 0.776299 -0.328028 1
-0.189475 0.757214 -0.376371 1
-0.204519 0.765983 -0.342012 1
-0.075888 0.763276 -0.332525 1
-0.199197 0.764422 -0.368748 1
-0.080018 0.771953 -0.310042 1
-0.142437 0.776306 -0.356029 1
-0.148607 0.775687 -0.351170 1
-0.140118 0.770635 -0.362884 1
-0.138085 0.777298 -0.344157 1
-0.155807 0.769944 -0.356963 1
-0.128696 0.774628 -0.361624 1
-0.149993 0.781806 -0.341875 1
-0.148037 0.764959 -0.368208 1
-0.126347 0.782336 -0.349181 1
-0.163507 0.773091 -0.348246 1
-0.140061 0.786621 -0.336871 1
-0.160643 0.765393 -0.366276 1
-0.118664 0.778730 -0.359045 1
-0.163118 0.775519 -0.332960 1
-0.126611 0.781404 -0.334582 1
-0.171346 0.768803 -0.355025 1
-0.159108 0.753581 -0.371686 1
-0.113742 0.785188 -0.351712 1
-0.173927 0.774385 -0.337824 1
-0.173036 0.763945 -0.366135 1
-0.115032 0.785943 -0.336638 1
-0.183522 0.765065 -0.343752 1
-0.104774 0.780777 -0.355190 1
-0.184053 0.765092 -0.361326 1
-0.104692 0.784566 -0.340026 1
-0.189895 0.769633 -0.334181 1
-0.179007 0.762615 -0.377938 1
-0.098769 0.768543 -0.357229 1
-0.110516 0.791758 -0.326880 1
-0.195316 0.762437 -0.348850 1
-0.095949 0.781469 -0.346775 1
-0.191572 0.760594 -0.369482 1
-0.100076 0.777036 -0.320310 1
-0.089528 0.765808 -0.347770 1
-0.203623 0.758661 -0.356391 1
-0.090057 0.780002 -0.333979 1
-0.193701 0.760328 -0.381611 1
-0.098061 0.784139 -0.311829 1
-0.211516 0.762828 -0.343383 1
-0.082485 0.772303 -0.342284 1
-0.206867 0.759049 -0.368787 1
-0.086466 0.768512 -0.309963 1
-0.148507 0.774850 -0.357927 1
-0.154810 0.773848 -0.352842 1
-0.146470 0.767488 -0.363606 1
-0.143850 0.777903 -0.347652 1
-0.162124 0.767561 -0.358328 1
-0.135298 0.769407 -0.360759 1
-0.155261 0.784092 -0.346843 1
-0.155305 0.757726 -0.366388 1
-0.132621 0.779784 -0.350102 1
-0.171735 0.764405 -0.344914 1
-0.146767 0.782781 -0.336769 1
-0.167154 0.762097 -0.367116 1
-0.125558 0.769967 -0.355443 1
-0.167999 0.778867 -0.338993 1
-0.132532 0.782010 -0.338109 1
-0.179241 0.761629 -0.353104 1
-0.120334 0.778699 -0.349476 1
-0.179636 0.774542 -0.341291 1
-0.138218 0.789932 -0.331601 1
-0.179865 0.759941 -0.366617 1
-0.117500 0.758118 -0.356294 1
-0.121551 0.781594 -0.335928 1
-0.190999 0.760038 -0.343378 1
-0.178108 0.744650 -0.372432 1
-0.111346 0.771355 -0.350836 1
-0.191798 0.758945 -0.360392 1
-0.111196 0.778220 -0.337650 1
-0.198047 0.763313 -0.332663 1
-0.187996 0.752017 -0.374539 1
-0.105284 0.755470 -0.350625 1
-0.117276 0.785105 -0.323910 1
-0.202256 0.759082 -0.349857 1
-0.102241 0.774690 -0.344162 1
-0.198092 0.757850 -0.370971 1
-0.106558 0.773141 -0.319868 1
-0.209598 0.761948 -0.337158 1
-0.095714 0.756498 -0.343562 1
-0.210068 0.756505 -0.358349 1
-0.096352 0.772178 -0.330257 1
-0.201810 0.753228 -0.380578 1
-0.104696 0.777632 -0.308812 1
-0.222867 0.750119 -0.337584 1
-0.088449 0.760481 -0.335770 1
-0.212572 0.758430 -0.371756 1
-0.092960 0.769184 -0.313485 1
-0.155090 0.770714 -0.357189 1
-0.161300 0.770582 -0.352743 1
-0.152395 0.766238 -0.364968 1
-0.150076 0.775649 -0.348196 1
-0.168494 0.764846 -0.358754 1
-0.141106 0.768906 -0.362571 1
-0.162022 0.779965 -0.345931 1
-0.160271 0.760720 -0.370586 1
-0.138897 0.776722 -0.349954 1
-0.181212 0.751712 -0.337886 1
-0.151507 0.787816 -0.343344 1
-0.173071 0.760918 -0.368667 1
-0.131020 0.772666 -0.359522 1
-0.175414 0.773261 -0.336922 1
-0.138572 0.780987 -0.339541 1
-0.185200 0.760695 -0.354902 1
-0.126243 0.778128 -0.351176 1
-0.187219 0.768980 -0.339434 1
-0.144240 0.789199 -0.333321 1
-0.185823 0.758709 -0.368219 1
-0.127525 0.781276 -0.337881 1
-0.197728 0.757194 -0.343844 1
-0.183155 0.746410 -0.375844 1
-0.117001 0.774581 -0.355301 1
-0.134109 0.789889 -0.329359 1
-0.197999 0.757227 -0.361740 1
-0.117196 0.777847 -0.339483 1
-0.203214 0.764812 -0.336508 1
-0.193051 0.753348 -0.377770 1
-0.111042 0.759476 -0.355434 1
-0.123234 0.785891 -0.326875 1
-0.208522 0.757489 -0.351335 1
-0.108121 0.776981 -0.347993 1
-0.203845 0.757159 -0.373040 1
-0.112814 0.770967 -0.320158 1
-0.216254 0.759721 -0.338163 1
-0.101690 0.761169 -0.348943 1
-0.216083 0.755423 -0.360246 1
-0.102459 0.771821 -0.332028 1
-0.206981 0.753873 -0.383449 1
-0.110835 0.779255 -0.312555 1
-0.228542 0.750166 -0.340394 1
-0.094665 0.767740 -0.343330 1
-0.219783 0.754381 -0.371795 1
-0.099217 0.766507 -0.313244 1
-0.161566 0.767108 -0.357516 1
-0.168128 0.765914 -0.352307 1
-0.158485 0.764051 -0.366325 1
-0.157325 0.768496 -0.345654 1
-0.174866 0.761994 -0.359770 1
-0.146895 0.768390 -0.364991 1
-0.168712 0.776131 -0.345975 1
-0.166361 0.758470 -0.371995 1
-0.144893 0.775530 -0.351911 1
-0.185436 0.756763 -0.344872 1
-0.158520 0.782207 -0.341740 1
-0.178418 0.761522 -0.372034 1
-0.136943 0.771537 -0.361442 1
-0.181011 0.773655 -0.340480 1
-0.144758 0.779136 -0.340984 1
-0.191998 0.756932 -0.355421 1
-0.177697 0.746351 -0.375443 1
-0.132213 0.777159 -0.353202 1
-0.194097 0.765424 -0.339952 1
-0.150563 0.786894 -0.334383 1
-0.190902 0.759909 -0.372069 1
-0.133711 0.779400 -0.339223 1
-0.204820 0.753167 -0.344225 1
-0.122994 0.773201 -0.356940 1
-0.140104 0.789678 -0.332211 1
-0.204581 0.754213 -0.362935 1
-0.123198 0.777940 -0.342358 1
-0.209968 0.761955 -0.337713 1
-0.197838 0.755069 -0.381869 1
-0.116846 0.762094 -0.359860 1
-0.129200 0.786746 -0.330608 1
-0.215354 0.754230 -0.352395 1
-0.114194 0.775249 -0.349307 1
-0.210249 0.754477 -0.374536 1
-0.118736 0.775523 -0.327011 1
-0.107745 0.760974 -0.351379 1
-0.223098 0.751705 -0.361116 1
-0.108559 0.774894 -0.337294 1
-0.211028 0.756987 -0.388397 1
-0.236759 0.744422 -0.339808 1
-0.100807 0.769814 -0.347501 1
-0.226474 0.751271 -0.373161 1
-0.105579 0.766872 -0.316429 1
-0.166735 0.767792 -0.361189 1
-0.173511 0.765722 -0.355439 1
-0.164484 0.760737 -0.367184 1
-0.162114 0.771492 -0.351189 1
-0.179783 0.763217 -0.363881 1
-0.152868 0.764813 -0.365538 1
-0.178770 0.758493 -0.335468 1
-0.174199 0.747540 -0.368115 1
-0.150297 0.775759 -0.355197 1
-0.189146 0.761985 -0.352150 1
-0.165610 0.775062 -0.339180 1
-0.185507 0.754762 -0.370867 1
-0.142795 0.768446 -0.362211 1
-0.192593 0.753618 -0.327955 1
-0.150646 0.777037 -0.342481 1
-0.197512 0.756026 -0.358213 1
-0.138073 0.774282 -0.354023 1
-0.202565 0.756376 -0.336500 1
-0.156946 0.782683 -0.334055 1
-0.197192 0.756289 -0.373041 1
-0.134633 0.758698 -0.364308 1
-0.139594 0.777252 -0.340596 1
-0.208282 0.757918 -0.351269 1
-0.128836 0.769622 -0.357214 1
-0.209651 0.754309 -0.366460 1
-0.129211 0.773775 -0.342034 1
-0.218586 0.753615 -0.334960 1
-0.205418 0.747712 -0.380771 1
-0.122708 0.757061 -0.359190 1
-0.135566 0.780941 -0.328684 1
-0.219462 0.756700 -0.357739 1
-0.120025 0.771683 -0.349462 1
-0.214865 0.755441 -0.378558 1
-0.124737 0.772620 -0.327646 1
-0.229312 0.754467 -0.341477 1
-0.113399 0.761828 -0.354817 1
-0.225801 0.757055 -0.368266 1
-0.114486 0.770045 -0.336296 1
-0.219901 0.747048 -0.386018 1
-0.123112 0.777554 -0.317216 1
-0.235235 0.758497 -0.353775 1
-0.106552 0.766325 -0.347652 1
-0.230535 0.753240 -0.377934 1
-0.227418 0.583312 -0.343370 1
-0.111467 0.770761 -0.322916 1
-0.173235 0.763190 -0.361623 1
-0.180324 0.760393 -0.355378 1
-0.170197 0.759278 -0.369827 1
-0.169137 0.764725 -0.349816 1
-0.187034 0.756370 -0.362962 1
-0.158515 0.763797 -0.368380 1
-0.185377 0.754729 -0.336544 1
-0.178855 0.750381 -0.373596 1
-0.156699 0.770996 -0.355227 1
-0.196498 0.755694 -0.351535 1
-0.170976 0.775950 -0.343798 1
-0.190375 0.756070 -0.375464 1
-0.148518 0.767230 -0.364838 1
-0.200676 0.745746 -0.325906 1
-0.157349 0.771279 -0.341573 1
-0.204862 0.749944 -0.357994 1
-0.143858 0.773144 -0.356691 1
-0.207665 0.757300 -0.341396 1
-0.163212 0.779848 -0.335510 1
-0.202830 0.754892 -0.375998 1
-0.145567 0.775554 -0.342882 1
-0.214951 0.754263 -0.352759 1
-0.134486 0.769881 -0.360818 1
-0.152411 0.783882 -0.334195 1
-0.215928 0.751372 -0.368540 1
-0.135089 0.772972 -0.344955 1
-0.228275 0.743135 -0.331277 1
-0.209476 0.750595 -0.386318 1
-0.128504 0.755879 -0.361705 1
-0.141201 0.782715 -0.334003 1
-0.226313 0.752691 -0.359123 1
-0.125842 0.771388 -0.352651 1
-0.220475 0.753998 -0.381626 1
-0.130741 0.772071 -0.330839 1
-0.233276 0.757300 -0.347949 1
-0.119110 0.764589 -0.360093 1
-0.233559 0.750945 -0.368400 1
-0.120413 0.770771 -0.340372 1
-0.224692 0.747498 -0.390211 1
-0.129214 0.776951 -0.320435 1
-0.240090 0.759014 -0.358461 1
-0.112468 0.765889 -0.350630 1
-0.184949 0.546661 -0.327493 1
-0.237379 0.749099 -0.379500 1
-0.232998 0.583772 -0.347987 1
-0.117597 0.769670 -0.325566 1
-0.179409 0.759005 -0.362279 1
-0.186434 0.756847 -0.356541 1
-0.175940 0.756533 -0.371500 1
-0.175829 0.758553 -0.348853 1
-0.193312 0.752153 -0.363792 1
-0.164206 0.761192 -0.370016 1
-0.193970 0.742929 -0.331372 1
-0.184116 0.749521 -0.376581 1
-0.162162 0.770182 -0.358135 1
-0.201936 0.754619 -0.354639 1
-0.177469 0.771092 -0.343643 1
-0.196063 0.753597 -0.377513 1
-0.153802 0.767288 -0.368228 1
-0.205037 0.748573 -0.332247 1
-0.163569 0.767044 -0.341836 1
-0.209599 0.750708 -0.362397 1
-0.149420 0.771878 -0.359139 1
-0.213466 0.755351 -0.343986 1
-0.169743 0.774753 -0.334957 1
-0.207648 0.755035 -0.379805 1
-0.151270 0.774076 -0.345233 1
-0.220197 0.753534 -0.356266 1
-0.140061 0.768336 -0.362968 1
-0.219624 0.755771 -0.329716 1
-0.158432 0.780971 -0.335378 1
-0.220853 0.751171 -0.372302 1
-0.140627 0.773050 -0.348448 1
-0.227492 0.757101 -0.346148 1
-0.214925 0.748677 -0.388894 1
-0.146937 0.781588 -0.336645 1
-0.231800 0.751184 -0.362161 1
-0.131375 0.771601 -0.356084 1
-0.225745 0.752629 -0.384623 1
-0.136405 0.772448 -0.334688 1
-0.238796 0.755877 -0.351137 1
-0.124812 0.760437 -0.360267 1
-0.238641 0.750175 -0.371952 1
-0.126113 0.770575 -0.343555 1
-0.229661 0.746703 -0.393556 1
-0.134656 0.781134 -0.327852 1
-0.245383 0.757881 -0.361867 1
-0.118118 0.766417 -0.354191 1
-0.189869 0.550669 -0.333351 1
-0.242871 0.747235 -0.382368 1
-0.239664 0.578422 -0.349876 1
-0.123370 0.771419 -0.330529 1
-0.183589 0.762547 -0.367772 1
-0.189615 0.763771 -0.364589 1
-0.181585 0.753838 -0.372660 1
-0.178634 0.768668 -0.359481 1
-0.196386 0.758675 -0.371299 1
-0.169925 0.757919 -0.370663 1
-0.193447 0.763084 -0.350115 1
-0.167453 0.769595 -0.360641 1
-0.205842 0.757984 -0.360294 1
-0.181171 0.776986 -0.351547 1
-0.204098 0.743176 -0.374032 1
-0.159559 0.763465 -0.368357 1
-0.204933 0.764475 -0.348028 1
-0.167675 0.773140 -0.349760 1
-0.212063 0.757702 -0.370370 1
-0.193461 0.771114 -0.338814 1
-0.154820 0.770796 -0.361168 1
-0.218307 0.755850 -0.347795 1
-0.173882 0.779898 -0.342516 1
-0.213980 0.750573 -0.380162 1
-0.208465 0.765835 -0.333786 1
-0.156509 0.774759 -0.348749 1
-0.225829 0.751667 -0.358350 1
-0.187482 0.776434 -0.330667 1
-0.145680 0.765112 -0.363368 1
-0.163268 0.783800 -0.340958 1
-0.225924 0.750418 -0.375105 1
-0.146115 0.772134 -0.350575 1
-0.233845 0.753744 -0.347171 1
-0.139584 0.751955 -0.364856 1
-0.153348 0.774668 -0.333692 1
-0.236641 0.751082 -0.365536 1
-0.136901 0.769670 -0.357335 1
-0.233572 0.744899 -0.383246 1
-0.141942 0.772353 -0.337535 1
-0.245527 0.751784 -0.351751 1
-0.242601 0.751783 -0.376408 1
-0.131666 0.769998 -0.345858 1
-0.238743 0.735872 -0.390775 1
-0.225486 0.570754 -0.345899 1
-0.140695 0.776233 -0.326450 1
-0.251544 0.754925 -0.363389 1
-0.123617 0.765820 -0.356348 1
-0.195599 0.549698 -0.336128 1
-0.247393 0.747400 -0.385859 1
-0.244135 0.581103 -0.354604 1
-0.129071 0.770276 -0.332405 1
-0.188470 0.761298 -0.369634 1
-0.195011 0.760738 -0.365249 1
-0.187395 0.748504 -0.371840 1
-0.183713 0.766914 -0.360934 1
-0.201852 0.755313 -0.371860 1
-0.174567 0.757800 -0.373157 1
-0.199239 0.759158 -0.350063 1
-0.172281 0.769011 -0.362855 1
-0.211626 0.754108 -0.360515 1
-0.186754 0.773583 -0.351690 1
-0.206327 0.750243 -0.381256 1
-0.164788 0.760203 -0.368606 1
-0.216707 0.743192 -0.334670 1
-0.173434 0.768389 -0.348729 1
-0.219906 0.747940 -0.366793 1
-0.199414 0.767056 -0.338490 1
-0.159808 0.769419 -0.362679 1
-0.227978 0.742151 -0.340712 1
-0.179398 0.776897 -0.342849 1
-0.217890 0.751684 -0.383739 1
-0.214523 0.761933 -0.333735 1
-0.161784 0.772228 -0.349363 1
-0.230615 0.750695 -0.360809 1
-0.150314 0.766704 -0.366929 1
-0.168463 0.782239 -0.342402 1
-0.231126 0.748064 -0.376643 1
-0.151019 0.772243 -0.353188 1
-0.243417 0.741794 -0.341579 1
-0.227486 0.738669 -0.389184 1
-0.144265 0.753683 -0.368352 1
-0.157264 0.782084 -0.342790 1
-0.241235 0.750366 -0.368244 1
-0.141767 0.770253 -0.360166 1
-0.237802 0.744756 -0.386198 1
-0.237146 0.588991 -0.342860 1
-0.146981 0.772427 -0.340175 1
-0.248013 0.755726 -0.357948 1
-0.135205 0.758552 -0.363807 1
-0.212261 0.569840 -0.338864 1
-0.250234 0.744198 -0.374791 1
-0.251637 0.604693 -0.353144 1
-0.136732 0.769501 -0.347882 1
-0.229587 0.572645 -0.349750 1
-0.145847 0.776170 -0.329051 1
-0.268055 0.617397 -0.356180 1
-0.128641 0.764629 -0.357727 1
-0.200538 0.548416 -0.338330 1
-0.254321 0.741279 -0.385410 1
-0.247385 0.585182 -0.359527 1
-0.134033 0.774187 -0.338224 1
-0.193148 0.759931 -0.372006 1
-0.199857 0.758847 -0.367320 1
-0.190815 0.752266 -0.377534 1
-0.188957 0.763516 -0.361796 1
-0.207045 0.752122 -0.373133 1
-0.179383 0.755731 -0.374949 1
-0.205752 0.752006 -0.348236 1
-0.198817 0.745396 -0.382914 1
-0.177043 0.767582 -0.365063 1
-0.216597 0.751948 -0.362555 1
-0.194293 0.761878 -0.345926 1
-0.211220 0.747851 -0.383121 1
-0.169298 0.760081 -0.371653 1
-0.220390 0.745292 -0.340065 1
-0.178066 0.768060 -0.351860 1
-0.223843 0.748563 -0.370762 1
-0.205215 0.762665 -0.338571 1
-0.164584 0.768018 -0.364810 1
-0.232541 0.741432 -0.344005 1
-0.184974 0.772608 -0.342779 1
-0.223033 0.748624 -0.385284 1
-0.166638 0.770920 -0.351625 1
-0.235092 0.749816 -0.363896 1
-0.155072 0.765303 -0.368976 1
-0.232944 0.757392 -0.341798 1
-0.173692 0.779231 -0.343278 1
-0.235508 0.747167 -0.379646 1
-0.155772 0.771687 -0.355937 1
-0.246947 0.743300 -0.346624 1
-0.231831 0.737699 -0.392071 1
-0.162238 0.780366 -0.344682 1
-0.246308 0.747941 -0.370352 1
-0.146544 0.769346 -0.362531 1
-0.241996 0.744119 -0.389364 1
-0.241293 0.590006 -0.347171 1
-0.151745 0.772839 -0.343790 1
-0.255632 0.748102 -0.356376 1
-0.139957 0.757938 -0.366313 1
-0.216358 0.572138 -0.343603 1
-0.162857 0.782596 -0.332057 1
-0.254130 0.744257 -0.378552 1
-0.260048 0.591442 -0.350813 1
-0.141402 0.771829 -0.352841 1
-0.233220 0.575878 -0.354929 1
-0.151218 0.771632 -0.328396 1
-0.271430 0.619585 -0.361194 1
-0.133340 0.767803 -0.363030 1
-0.205178 0.548298 -0.341882 1
-0.258740 0.740044 -0.388364 1
-0.252103 0.583615 -0.362670 1
-0.139079 0.771864 -0.339451 1
-0.198301 0.756652 -0.373310 1
-0.205292 0.754818 -0.368151 1
-0.195828 0.749255 -0.379060 1
-0.193313 0.763678 -0.365506 1
-0.210995 0.752927 -0.377291 1
-0.184425 0.752466 -0.376181 1
-0.209831 0.753011 -0.352809 1
-0.181932 0.765492 -0.367013 1
-0.220999 0.751368 -0.365952 1
-0.199074 0.760731 -0.348797 1
-0.216186 0.745104 -0.385026 1
-0.174144 0.757836 -0.373452 1
-0.225617 0.742734 -0.342130 1
-0.183357 0.764540 -0.352708 1
-0.228559 0.746863 -0.373435 1
-0.208893 0.765125 -0.344506 1
-0.169350 0.766620 -0.367154 1
-0.235213 0.745499 -0.351050 1
-0.188840 0.775452 -0.348890 1
-0.227947 0.746088 -0.387420 1
-0.171490 0.769594 -0.354082 1
-0.239461 0.749068 -0.367328 1
-0.160054 0.761950 -0.369846 1
-0.237915 0.755561 -0.344493 1
-0.178914 0.776367 -0.344513 1
-0.240346 0.744978 -0.382104 1
-0.160541 0.770928 -0.358722 1
-0.250750 0.744002 -0.351309 1
-0.232802 0.577539 -0.336603 1
-0.167252 0.778456 -0.346621 1
-0.251577 0.744946 -0.372375 1
-0.151346 0.768037 -0.364789 1
-0.247343 0.740562 -0.391097 1
-0.245395 0.590464 -0.351389 1
-0.156683 0.771549 -0.346172 1
-0.254942 0.757897 -0.367462 1
-0.144758 0.756141 -0.368174 1
-0.220815 0.571649 -0.347198 1
-0.167909 0.781060 -0.334355 1
-0.259705 0.740519 -0.380225 1
-0.263382 0.593914 -0.356098 1
-0.146266 0.770872 -0.355362 1
-0.255147 0.724876 -0.395200 1
-0.238989 0.569445 -0.356013 1
-0.155977 0.773016 -0.333199 1
-0.268316 0.639074 -0.374506 1
-0.138325 0.762126 -0.361950 1
-0.207983 0.557664 -0.349754 1
-0.264549 0.735692 -0.389805 1
-0.257514 0.578978 -0.364701 1
-0.144082 0.770441 -0.341626 1
-0.177042 0.550765 -0.332273 1
-0.203462 0.753618 -0.375240 1
-0.209891 0.753933 -0.371621 1
-0.201103 0.745517 -0.380579 1
-0.197808 0.763440 -0.369350 1
-0.215833 0.750988 -0.380070 1
-0.189453 0.749674 -0.378180 1
-0.213904 0.754154 -0.357920 1
-0.186748 0.764039 -0.369873 1
-0.224694 0.752976 -0.371282 1
-0.202951 0.763071 -0.354845 1
-0.179084 0.755501 -0.375638 1
-0.225664 0.755143 -0.355909 1
-0.187786 0.765356 -0.357405 1
-0.231773 0.749423 -0.379307 1
-0.214707 0.760869 -0.345456 1
-0.174231 0.764920 -0.369725 1
-0.236435 0.753323 -0.361201 1
-0.195150 0.768490 -0.347356 1
-0.235036 0.737740 -0.386532 1
-0.229224 0.757626 -0.342678 1
-0.176799 0.766027 -0.355253 1
-0.244596 0.746567 -0.370012 1
-0.164989 0.759732 -0.371979 1
-0.240083 0.760620 -0.353013 1
-0.184455 0.772307 -0.345246 1
-0.246300 0.740201 -0.383417 1
-0.165606 0.768429 -0.360623 1
-0.244758 0.724381 -0.392516 1
-0.231918 0.600885 -0.352509 1
-0.172914 0.773019 -0.346082 1
-0.253348 0.749947 -0.380024 1
-0.262877 0.628549 -0.360510 1
-0.156504 0.763853 -0.365379 1
-0.211687 0.575434 -0.339342 1
-0.253756 0.734672 -0.391951 1
-0.245104 0.607907 -0.364092 1
-0.161637 0.770771 -0.349463 1
-0.262784 0.676606 -0.381853 1
-0.224814 0.574755 -0.353083 1
-0.173749 0.775240 -0.333309 1
-0.269363 0.728221 -0.377165 1
-0.251549 0.644922 -0.384070 1
-0.151493 0.766265 -0.355494 1
-0.198324 0.557515 -0.337666 1
-0.264001 0.713243 -0.393327 1
-0.237610 0.593263 -0.370868 1
-0.161628 0.767203 -0.332180 1
-0.266639 0.654892 -0.386402 1
-0.143155 0.763325 -0.366408 1
-0.213917 0.550533 -0.351035 1
-0.273718 0.724473 -0.387844 1
-0.247378 0.628308 -0.390127 1
-0.149192 0.768858 -0.344174 1
-0.182100 0.549959 -0.336131 1
-0.207145 0.754115 -0.379225 1
-0.213559 0.754375 -0.375665 1
-0.202395 0.760777 -0.371123 1
-0.219786 0.750166 -0.383263 1
-0.193348 0.749676 -0.381678 1
-0.217518 0.754975 -0.362424 1
-0.190920 0.763130 -0.372794 1
-0.229139 0.750819 -0.373699 1
-0.208982 0.755671 -0.353014 1
-0.225549 0.740145 -0.389755 1
-0.183405 0.753652 -0.377834 1
-0.230950 0.750944 -0.356831 1
-0.192740 0.761337 -0.358025 1
-0.236603 0.746064 -0.381026 1
-0.223178 0.746802 -0.338290 1
-0.178537 0.763507 -0.372171 1
-0.241496 0.749799 -0.362756 1
-0.202379 0.756108 -0.341146 1
-0.238074 0.739077 -0.391142 1
-0.181261 0.764347 -0.357568 1
-0.248271 0.746301 -0.373893 1
-0.168938 0.760991 -0.376199 1
-0.244370 0.759204 -0.356132 1
-0.189149 0.769908 -0.347047 1
-0.249725 0.740305 -0.387432 1
-0.254452 0.615849 -0.355331 1
-0.170319 0.764712 -0.361260 1
-0.238731 0.588460 -0.350613 1
-0.180093 0.755870 -0.335458 1
-0.263659 0.734613 -0.374304 1
-0.261454 0.643584 -0.372112 1
-0.160867 0.762498 -0.367723 1
-0.215662 0.575670 -0.343403 1
-0.262393 0.722305 -0.388940 1
-0.248380 0.609381 -0.368839 1
-0.166820 0.763785 -0.347321 1
-0.263845 0.682842 -0.389032 1
-0.229418 0.571182 -0.355469 1
-0.178478 0.773079 -0.335214 1
-0.275673 0.721962 -0.377609 1
-0.255080 0.644824 -0.388009 1
-0.155974 0.764564 -0.357558 1
-0.202849 0.554453 -0.340098 1
-0.272545 0.701072 -0.391029 1
-0.236156 0.613868 -0.383621 1
-0.166662 0.762455 -0.331752 1
-0.268868 0.658057 -0.391935 1
-0.147546 0.761673 -0.368412 1
-0.216768 0.556515 -0.357529 1
-0.278288 0.721755 -0.390479 1
-0.153834 0.766275 -0.345510 1
-0.186861 0.544405 -0.337299 1
-0.211510 0.750461 -0.380041 1
-0.217246 0.753223 -0.378191 1
-0.206201 0.759388 -0.373413 1
-0.223716 0.748054 -0.385200 1
-0.220894 0.755012 -0.365892 1
-0.194951 0.760764 -0.374300 1
-0.233276 0.748290 -0.375422 1
-0.212916 0.754119 -0.355293 1
-0.229101 0.739049 -0.392366 1
-0.187823 0.748826 -0.377697 1
-0.234577 0.750100 -0.359786 1
-0.195860 0.763388 -0.362900 1
-0.240245 0.744782 -0.383622 1
-0.226195 0.748236 -0.343090 1
-0.182331 0.762379 -0.374468 1
-0.244740 0.749742 -0.366313 1
-0.205755 0.757013 -0.345394 1
-0.241466 0.738306 -0.394025 1
-0.184763 0.765233 -0.361497 1
-0.253913 0.740211 -0.373425 1
-0.173164 0.756589 -0.376155 1
-0.248300 0.757517 -0.358548 1
-0.193417 0.767167 -0.348185 1
-0.255193 0.734407 -0.387351 1
-0.257359 0.616985 -0.359542 1
-0.174101 0.764258 -0.364051 1
-0.208184 0.766098 -0.335863 1
-0.254622 0.715493 -0.394964 1
-0.237209 0.608615 -0.363715 1
-0.183076 0.760545 -0.342740 1
-0.265056 0.738234 -0.380223 1
-0.264534 0.643693 -0.375758 1
-0.164641 0.762180 -0.370501 1
-0.219214 0.575223 -0.346664 1
-0.195600 0.770918 -0.335955 1
-0.262145 0.729851 -0.396639 1
-0.243922 0.637076 -0.384896 1
-0.170199 0.767264 -0.353365 1
-0.263352 0.691994 -0.397023 1
-0.229787 0.585263 -0.365220 1
-0.182550 0.771627 -0.337378 1
-0.259569 0.640377 -0.389492 1
-0.159806 0.764615 -0.360661 1
-0.206551 0.553257 -0.342966 1
-0.271276 0.710812 -0.399567 1
-0.246027 0.587014 -0.375688 1
-0.170575 0.762449 -0.335107 1
-0.272464 0.656363 -0.394695 1
-0.151463 0.759856 -0.370006 1
-0.219990 0.557363 -0.361315 1
-0.284235 0.715337 -0.390553 1
-0.157582 0.768523 -0.350521 1
-0.190583 0.543258 -0.340107 1
-0.215224 0.749933 -0.382836 1
-0.221514 0.750810 -0.379788 1
-0.210736 0.756043 -0.374223 1
-0.227747 0.746242 -0.387265 1
-0.225502 0.751848 -0.366957 1
-0.199013 0.759205 -0.376260 1
-0.236340 0.749421 -0.379536 1
-0.216435 0.754875 -0.359213 1
-0.191765 0.747693 -0.379898 1
-0.237415 0.752109 -0.364743 1
-0.199775 0.762845 -0.365649 1
-0.243681 0.744591 -0.386859 1
-0.230434 0.746707 -0.345443 1
-0.186417 0.760704 -0.376230 1
-0.246180 0.754793 -0.373394 1
-0.210771 0.752567 -0.345202 1
-0.246971 0.732309 -0.393858 1
-0.245825 0.742362 -0.342220 1
-0.249540 0.612634 -0.351819 1
-0.188484 0.766043 -0.365192 1
-0.257048 0.740729 -0.377307 1
-0.222351 0.759634 -0.342730 1
-0.270630 0.640540 -0.360039 1
-0.177590 0.752262 -0.376032 1
-0.232171 0.601744 -0.351027 1
-0.199138 0.759083 -0.344795 1
-0.257265 0.737270 -0.392489 1
-0.259285 0.622167 -0.365673 1
-0.177745 0.766175 -0.368453 1
-0.258688 0.713289 -0.397176 1
-0.244180 0.594446 -0.360512 1
-0.187344 0.759166 -0.344804 1
-0.269808 0.734885 -0.381723 1
-0.266064 0.648999 -0.381870 1
-0.168624 0.761698 -0.372973 1
-0.222686 0.576513 -0.350640 1
-0.200091 0.768783 -0.337470 1
-0.267676 0.724313 -0.397036 1
-0.249815 0.627953 -0.384171 1
-0.174373 0.766168 -0.355501 1
-0.269629 0.683888 -0.396529 1
-0.237867 0.563916 -0.359215 1
-0.186997 0.769568 -0.338839 1
-0.263960 0.636829 -0.391394 1
-0.163816 0.764923 -0.363757 1
-0.210266 0.553626 -0.346427 1
-0.279225 0.699587 -0.397379 1
-0.247293 0.595497 -0.382665 1
-0.174721 0.762564 -0.338364 1
-0.277284 0.651861 -0.396232 1
-0.156034 0.749843 -0.365516 1
-0.224821 0.550396 -0.361702 1
-0.161840 0.766999 -0.352202 1
-0.194219 0.545077 -0.344111 1
-0.219739 0.745657 -0.383184 1
-0.225031 0.750118 -0.382526 1
-0.213964 0.756721 -0.377857 1
-0.232963 0.740013 -0.386563 1
-0.228274 0.753692 -0.371591 1
-0.203028 0.756790 -0.377636 1
-0.240921 0.745579 -0.380311 1
-0.220227 0.753734 -0.361668 1
-0.241782 0.749157 -0.366043 1
-0.203515 0.761951 -0.368131 1
-0.247923 0.741626 -0.388325 1
-0.235039 0.743229 -0.346239 1
-0.190003 0.760489 -0.379045 1
-0.249596 0.754220 -0.376435 1
-0.214201 0.753143 -0.349023 1
-0.255030 0.718851 -0.389454 1
-0.250603 0.738680 -0.342995 1
-0.252961 0.612013 -0.354967 1
-0.192653 0.763094 -0.366022 1
-0.261655 0.737127 -0.378448 1
-0.226357 0.758105 -0.344959 1
-0.180752 0.755343 -0.381015 1
-0.236659 0.596450 -0.351747 1
-0.204508 0.751546 -0.341916 1
-0.263656 0.729107 -0.391078 1
-0.243016 0.756013 -0.342207 1
-0.260616 0.628202 -0.372050 1
-0.181900 0.762785 -0.368880 1
-0.215411 0.767107 -0.343694 1
-0.271483 0.687853 -0.387178 1
-0.245295 0.603040 -0.367873 1
-0.191772 0.755348 -0.344873 1
-0.273169 0.734083 -0.384755 1
-0.269893 0.646613 -0.384175 1
-0.172437 0.760431 -0.374914 1
-0.226069 0.576268 -0.353797 1
-0.277787 0.707633 -0.391368 1
-0.255316 0.619241 -0.383621 1
-0.179289 0.757565 -0.351651 1
-0.204982 0.553548 -0.329991 1
-0.278782 0.667690 -0.392156 1
-0.237625 0.580087 -0.369598 1
-0.189952 0.773971 -0.345971 1
-0.284013 0.723394 -0.389376 1
-0.269189 0.629814 -0.391724 1
-0.167955 0.760875 -0.363550 1
-0.214268 0.549473 -0.347751 1
-0.179569 0.755206 -0.335223 1
-0.284348 0.640606 -0.394746 1
-0.159318 0.758202 -0.374274 1
-0.227893 0.551267 -0.365316 1
-0.166501 0.757583 -0.347477 1
-0.199191 0.531553 -0.341125 1
-0.223304 0.745253 -0.386295 1
-0.229533 0.746576 -0.383622 1
-0.218432 0.753187 -0.378794 1
-0.235771 0.741717 -0.391057 1
-0.233074 0.749539 -0.372195 1
-0.206898 0.755527 -0.380057 1
-0.244774 0.744154 -0.382936 1
-0.224070 0.752818 -0.364543 1
-0.246887 0.744556 -0.366438 1
-0.207521 0.760380 -0.370349 1
-0.252271 0.738741 -0.390097 1
-0.240109 0.738800 -0.346612 1
-0.194087 0.758105 -0.380572 1
-0.253790 0.751998 -0.378565 1
-0.218695 0.750169 -0.350292 1
-0.255852 0.725325 -0.396688 1
-0.254632 0.737342 -0.345892 1
-0.256690 0.611284 -0.358461 1
-0.196556 0.762141 -0.368623 1
-0.265946 0.734629 -0.380574 1
-0.234137 0.745175 -0.338118 1
-0.271238 0.657567 -0.376308 1
-0.239630 0.599395 -0.356957 1
-0.207755 0.753950 -0.347469 1
-0.265572 0.732109 -0.396452 1
-0.264613 0.626171 -0.374885 1
-0.185858 0.761532 -0.371162 1
-0.222443 0.577600 -0.341046 1
-0.220017 0.763988 -0.344734 1
-0.272058 0.694615 -0.394411 1
-0.249643 0.599528 -0.370007 1
-0.195793 0.754507 -0.347674 1
-0.272006 0.649977 -0.389529 1
-0.176143 0.761122 -0.378493 1
-0.228835 0.580996 -0.359686 1
-0.207275 0.770100 -0.345651 1
-0.277861 0.714660 -0.398885 1
-0.258231 0.620752 -0.387990 1
-0.182777 0.760511 -0.357322 1
-0.208674 0.555019 -0.334414 1
-0.279268 0.674592 -0.399197 1
-0.241748 0.577225 -0.372075 1
-0.194273 0.771585 -0.347399 1
-0.271104 0.633862 -0.397209 1
-0.171848 0.760846 -0.366675 1
-0.217190 0.554817 -0.353834 1
-0.183531 0.755531 -0.338974 1
-0.163251 0.757176 -0.376534 1
-0.170345 0.759401 -0.352219 1
-0.202355 0.537295 -0.347317 1
-0.227199 0.741807 -0.387430 1
-0.232812 0.745322 -0.386200 1
-0.221940 0.751287 -0.380852 1
-0.239472 0.738997 -0.392772 1
-0.236115 0.749184 -0.375461 1
-0.210486 0.753234 -0.381753 1
-0.248004 0.742957 -0.385666 1
-0.226992 0.753161 -0.368316 1
-0.248447 0.748092 -0.372592 1
-0.210867 0.759369 -0.372964 1
-0.255586 0.737174 -0.392642 1
-0.241817 0.742650 -0.353328 1
-0.269503 0.630207 -0.360274 1
-0.197690 0.755584 -0.382005 1
-0.257559 0.749485 -0.380463 1
-0.221768 0.750375 -0.354062 1
-0.260749 0.719381 -0.396856 1
-0.256219 0.740758 -0.352379 1
-0.260984 0.605923 -0.359677 1
-0.199716 0.762283 -0.372028 1
-0.271725 0.727280 -0.379606 1
-0.238328 0.741738 -0.339156 1
-0.270060 0.668749 -0.385757 1
-0.241173 0.605575 -0.363710 1
-0.210610 0.755509 -0.352283 1
-0.270127 0.727447 -0.397335 1
-0.262855 0.641049 -0.385663 1
-0.188783 0.763590 -0.375876 1
-0.225117 0.579826 -0.345930 1
-0.224192 0.760445 -0.345433 1
-0.275482 0.692494 -0.396954 1
-0.252243 0.600372 -0.374149 1
-0.197444 0.763243 -0.358182 1
-0.274632 0.649979 -0.393242 1
-0.179696 0.758640 -0.379805 1
-0.231541 0.582217 -0.363957 1
-0.212060 0.763811 -0.343826 1
-0.287496 0.698274 -0.393838 1
-0.185908 0.761957 -0.361760 1
-0.211587 0.556610 -0.338952 1
-0.283661 0.669808 -0.400635 1
-0.198288 0.768019 -0.347823 1
-0.175022 0.762666 -0.371182 1
-0.221795 0.544225 -0.352860 1
-0.187033 0.755013 -0.342007 1
-0.166615 0.756947 -0.379361 1
-0.173712 0.760233 -0.356143 1
-0.205519 0.536398 -0.350610 1
-0.232509 0.611994 -0.365471 1
-0.239823 0.620172 -0.365300 1
-0.228538 0.600710 -0.373385 1
-0.229630 0.596635 -0.339045 1
-0.245786 0.627151 -0.382660 1
-0.214688 0.588084 -0.359362 1
-0.244761 0.618834 -0.346804 1
-0.254858 0.639507 -0.377210 1
-0.215684 0.576779 -0.372679 1
-0.202118 0.569012 -0.339259 1
-0.257120 0.634863 -0.353760 1
-0.261380 0.644951 -0.392960 1
-0.200988 0.557800 -0.359505 1
-0.265689 0.652763 -0.373027 1
-0.188019 0.549826 -0.340679 1
-0.257907 0.706744 -0.391564 1
-0.222169 0.536466 -0.391584 1
-0.179927 0.541751 -0.353888 1
-0.240579 0.717069 -0.375704 1
-0.198830 0.542670 -0.389285 1
-0.256056 0.718156 -0.384043 1
-0.234704 0.530471 -0.402862 1
-0.177869 0.550659 -0.377700 1
-0.230334 0.733518 -0.375567 1
-0.273102 0.701986 -0.389041 1
-0.208241 0.527162 -0.400242 1
-0.248655 0.733434 -0.380174 1
-0.251530 0.528291 -0.411099 1
-0.182098 0.535394 -0.391048 1
-0.219069 0.738942 -0.370827 1
-0.267507 0.722714 -0.386089 1
-0.223400 0.513606 -0.409756 1
-0.161142 0.550682 -0.374780 1
-0.239308 0.741427 -0.373231 1
-0.269498 0.537686 -0.418087 1
-0.192191 0.522995 -0.405187 1
-0.206189 0.737755 -0.364948 1
-0.262038 0.729894 -0.374701 1
-0.242221 0.511779 -0.419512 1
-0.165227 0.538667 -0.391650 1
-0.226150 0.751928 -0.371568 1
-0.207952 0.510575 -0.417263 1
-0.191202 0.740741 -0.367096 1
-0.146785 0.566716 -0.374566 1
-0.251509 0.740231 -0.367485 1
-0.263185 0.517829 -0.426615 1
-0.175107 0.521575 -0.406324 1
-0.232671 0.612265 -0.365889 1
-0.239996 0.620289 -0.365636 1
-0.228719 0.600912 -0.373749 1
-0.229816 0.596824 -0.339470 1
-0.246415 0.624792 -0.381659 1
-0.214894 0.588297 -0.359756 1
-0.244917 0.619020 -0.347218 1
-0.255010 0.639590 -0.377508 1
-0.215887 0.577002 -0.373052 1
-0.202347 0.569256 -0.339707 1
-0.257257 0.635016 -0.354145 1
-0.261529 0.645000 -0.393213 1
-0.201223 0.557930 -0.359855 1
-0.265762 0.653077 -0.373472 1
-0.188270 0.550098 -0.341134 1
-0.264728 0.682643 -0.376486 1
-0.222401 0.536357 -0.391797 1
-0.180193 0.541721 -0.354167 1
-0.199080 0.542511 -0.389470 1
-0.256220 0.718076 -0.384228 1
-0.234916 0.530450 -0.403104 1
-0.178091 0.554310 -0.379605 1
-0.230530 0.733412 -0.375742 1
-0.273261 0.701881 -0.389206 1
-0.208483 0.527033 -0.400441 1
-0.248848 0.733263 -0.380298 1
-0.251730 0.528259 -0.411332 1
-0.182356 0.535263 -0.391243 1
-0.219291 0.738757 -0.370947 1
-0.267677 0.722571 -0.386229 1
-0.223626 0.513537 -0.409979 1
-0.161419 0.550605 -0.375003 1
-0.239515 0.741226 -0.373339 1
-0.269683 0.537650 -0.418310 1
-0.192443 0.522828 -0.405367 1
-0.206412 0.737665 -0.365151 1
-0.262234 0.729675 -0.374800 1
-0.242423 0.511788 -0.419757 1
-0.165496 0.538531 -0.391837 1
-0.226364 0.751732 -0.371679 1
-0.208193 0.510428 -0.417451 1
-0.191447 0.740603 -0.367254 1
-0.147059 0.566392 -0.374663 1
-0.251721 0.739975 -0.367560 1
-0.263368 0.517840 -0.426854 1
-0.175367 0.521444 -0.406513 1
-0.232668 0.612240 -0.366199 1
-0.239991 0.620217 -0.365915 1
-0.228727 0.600871 -0.374044 1
-0.229811 0.596741 -0.339793 1
-0.246415 0.624704 -0.381902 1
-0.214908 0.588269 -0.360087 1
-0.244901 0.618927 -0.347511 1
-0.254998 0.639503 -0.377748 1
-0.215906 0.576988 -0.373375 1
-0.202366 0.569218 -0.340074 1
-0.257232 0.634917 -0.354414 1
-0.261518 0.644916 -0.393428 1
-0.201253 0.557878 -0.360191 1
-0.265725 0.653026 -0.373731 1
-0.188302 0.550092 -0.341528 1
-0.264703 0.682530 -0.376697 1
-0.222436 0.536227 -0.392064 1
-0.180240 0.541603 -0.354493 1
-0.199131 0.542356 -0.389734 1
-0.256207 0.717944 -0.384409 1
-0.234943 0.530367 -0.403377 1
-0.178151 0.554097 -0.379853 1
-0.230541 0.733264 -0.375934 1
-0.273237 0.701752 -0.389379 1
-0.208531 0.526900 -0.400710 1
-0.248844 0.733106 -0.380468 1
-0.251750 0.528172 -0.411590 1
-0.182417 0.535120 -0.391522 1
-0.219316 0.738576 -0.371125 1
-0.267655 0.722430 -0.386396 1
-0.223667 0.513436 -0.410254 1
-0.161488 0.550480 -0.375305 1
-0.239520 0.741048 -0.373508 1
-0.269694 0.537563 -0.418549 1
-0.192503 0.522678 -0.405633 1
-0.206444 0.737510 -0.365364 1
-0.262216 0.729508 -0.374968 1
-0.242451 0.511727 -0.420030 1
-0.165567 0.538386 -0.392118 1
-0.226381 0.751549 -0.371850 1
-0.208249 0.510294 -0.417716 1
-0.191497 0.740432 -0.367456 1
-0.147132 0.566140 -0.374901 1
-0.251714 0.739783 -0.367724 1
-0.263384 0.517781 -0.427109 1
-0.175437 0.521308 -0.406791 1
-0.232473 0.612727 -0.366685 1
-0.239168 0.624328 -0.368435 1
-0.228581 0.601083 -0.374365 1
-0.229288 0.599572 -0.341718 1
-0.246363 0.624325 -0.381899 1
-0.215150 0.584569 -0.358353 1
-0.244598 0.619802 -0.348278 1
-0.254773 0.639936 -0.378187 1
-0.215778 0.577126 -0.373663 1
-0.202326 0.567892 -0.339600 1
-0.256848 0.635975 -0.355288 1
-0.261198 0.645726 -0.394029 1
-0.201171 0.557297 -0.360145 1
-0.265432 0.653610 -0.374275 1
-0.188158 0.550819 -0.342178 1
-0.264303 0.683489 -0.377504 1
-0.222392 0.535473 -0.391965 1
-0.180136 0.541151 -0.354528 1
-0.199006 0.542737 -0.390110 1
-0.256055 0.718068 -0.384693 1
-0.235593 0.524272 -0.401265 1
-0.178062 0.554005 -0.380044 1
-0.230681 0.732143 -0.375315 1
-0.273106 0.701733 -0.389549 1
-0.208476 0.526141 -0.400628 1
-0.162233 0.532566 -0.344987 1
-0.248995 0.732133 -0.379966 1
-0.251692 0.527697 -0.411601 1
-0.182304 0.536097 -0.392143 1
-0.219383 0.737718 -0.370690 1
-0.267679 0.721949 -0.386259 1
-0.223663 0.512285 -0.410047 1
-0.161403 0.550430 -0.375524 1
-0.239718 0.739812 -0.372771 1
-0.270533 0.532712 -0.417006 1
-0.192410 0.522567 -0.405804 1
-0.206537 0.736196 -0.364561 1
-0.261348 0.731863 -0.376936 1
-0.242931 0.507307 -0.418749 1
-0.165478 0.537933 -0.392162 1
-0.226446 0.750817 -0.371491 1
-0.208185 0.509686 -0.417712 1
-0.191497 0.739790 -0.367190 1
-0.147070 0.566228 -0.375187 1
-0.251935 0.738585 -0.367002 1
-0.263397 0.516963 -0.427013 1
-0.175352 0.520984 -0.406891 1
-0.232525 0.612787 -0.367214 1
-0.239233 0.624249 -0.368874 1
-0.228651 0.601094 -0.374861 1
-0.229349 0.599529 -0.342244 1
-0.246433 0.624218 -0.382299 1
-0.214858 0.588431 -0.360933 1
-0.244648 0.619719 -0.348752 1
-0.254819 0.639875 -0.378605 1
-0.215861 0.577185 -0.374202 1
-0.202414 0.567952 -0.340214 1
-0.256876 0.635932 -0.355762 1
-0.261243 0.645673 -0.394417 1
-0.201274 0.557275 -0.360685 1
-0.265416 0.653722 -0.374792 1
-0.188271 0.550747 -0.342731 1
-0.264336 0.683386 -0.377871 1
-0.222507 0.535274 -0.392396 1
-0.180261 0.540997 -0.355031 1
-0.199137 0.542463 -0.390512 1
-0.256114 0.717881 -0.384975 1
-0.235697 0.524138 -0.401718 1
-0.178198 0.553660 -0.380417 1
-0.273163 0.701530 -0.389818 1
-0.208604 0.525917 -0.401055 1
-0.162370 0.532470 -0.345545 1
-0.249071 0.731887 -0.380209 1
-0.251791 0.527564 -0.412035 1
-0.182442 0.535856 -0.392568 1
-0.219482 0.737442 -0.370932 1
-0.267741 0.721722 -0.386506 1
-0.223783 0.512126 -0.410498 1
-0.161547 0.550237 -0.375980 1
-0.239801 0.739544 -0.373009 1
-0.270626 0.532565 -0.417418 1
-0.192548 0.522312 -0.406223 1
-0.206631 0.736022 -0.364900 1
-0.261412 0.731615 -0.377179 1
-0.243041 0.507173 -0.419199 1
-0.165624 0.537722 -0.392603 1
-0.226537 0.750544 -0.371724 1
-0.208322 0.509455 -0.418138 1
-0.191616 0.739516 -0.367447 1
-0.147212 0.565839 -0.375540 1
-0.252016 0.738273 -0.367211 1
-0.263487 0.516891 -0.427458 1
-0.175497 0.520775 -0.407332 1
0.361983 0.046433 -0.338289 0
0.408112 0.032764 -0.231909 0
0.245122 0.020203 -0.414658 0
0.571802 0.031035 -0.343665 0
0.252584 0.023769 -0.187594 0
0.341399 0.020988 -0.545309 0
0.613708 0.024027 -0.126019 0
0.100268 0.026437 -0.359586 0
0.605764 0.024734 -0.503592 0
0.360826 0.036426 -0.028455 0
0.159765 0.030301 -0.578889 0
0.788658 0.035667 -0.226780 0
0.077146 0.028513 -0.189712 0
0.446789 0.034628 -0.659917 0
0.620479 0.028512 0.063869 0
0.007704 0.024269 -0.483967 0
0.819877 0.030506 -0.453283 0
0.199978 0.034874 0.018488 0
0.213272 0.036573 -0.709712 0
0.868127 0.059960 -0.037534 0
-0.054935 0.023523 -0.290180 0
0.646458 0.031744 -0.683656 0
0.481802 0.036083 0.185128 0
0.000954 0.030299 -0.631414 0
1.011678 0.042130 -0.293612 0
0.025001 0.017472 -0.032078 0
0.367773 0.021368 -0.800062 0
0.842934 0.051615 0.182187 0
-0.125588 0.014993 -0.439111 0
0.884921 0.041344 -0.615631 0
0.274670 0.025063 0.217313 0
0.078448 0.025420 -0.770008 0
-0.128670 0.022892 -0.170478 0
0.571152 0.044515 -0.833917 0
0.650208 0.076579 0.318012 0
-0.127939 0.011679 -0.607528 0
1.123275 0.056087 -0.443326 0
0.044892 0.025347 0.138315 0
0.221374 0.042018 -0.881511 0
-0.220910 0.023819 -0.348253 0
0.766261 0.130729 -0.789727 0
0.381133 0.091675 0.349714 0
-0.062450 0.022809 -0.772220 0
-0.144541 0.015755 -0.012474 0
0.450832 0.035519 -0.944612 0
-0.242873 0.021682 -0.540399 0
1.117065 0.082864 -0.633999 0
0.141631 0.017052 0.337013 0
0.076412 0.031068 -0.912097 0
-0.272427 0.013425 -0.213075 0
0.718931 0.067814 -0.933564 0
0.442417 0.282563 0.334488 0
-0.192244 0.017281 -0.728685 0
-0.110237 0.020935 0.166818 0
0.296294 0.026929 -1.011879 0
-0.326635 0.014286 -0.431900 0
0.697251 0.393152 -0.832541 0
0.289981 0.046361 0.513340 0
-0.069805 0.018117 -0.898743 0
-0.284800 0.007327 -0.046477 0
0.580021 0.042872 -1.047471 0
0.703121 0.276424 0.456611 0
-0.307017 0.021622 -0.648513 0
-0.009963 0.007381 0.383244 0
0.120768 0.034916 -1.033381 0
-0.384171 0.028045 -0.297706 0
0.833308 0.153939 -0.983596 0
0.393198 0.227199 0.521123 0
-0.211297 0.018559 -0.846481 0
-0.253865 0.011413 0.143576 0
0.394918 0.039332 -1.116508 0
-0.397304 0.016814 -0.534423 0
0.774593 0.496288 -0.825619 0
0.142463 0.031979 0.584920 0
-0.045380 0.031453 -1.015333 0
-0.401155 0.000104 -0.116605 0
0.710364 0.090356 -1.114237 0
0.439731 0.471717 0.391447 0
-0.335314 0.018077 -0.760591 0
-0.170378 0.017599 0.357392 0
0.206272 0.028046 -1.142579 0
-0.461784 0.015336 -0.390926 0
0.663482 0.486367 -0.970363 0
0.321077 0.127969 0.708967 0
-0.200827 0.031418 -0.960831 0
0.362035 0.049584 -0.329702 0
0.406534 0.038355 -0.223917 0
0.232646 0.045625 -0.413205 0
0.570365 0.036238 -0.335039 0
0.244571 0.040874 -0.185252 0
0.337669 0.030279 -0.538255 0
0.612206 0.029422 -0.117059 0
0.097997 0.034370 -0.353446 0
0.608353 0.024789 -0.493556 0
0.353875 0.050329 -0.025015 0
0.162198 0.029026 -0.570283 0
0.790569 0.037226 -0.215772 0
0.079049 0.027004 -0.179567 0
0.446394 0.038464 -0.651370 0
0.624352 0.027416 0.077291 0
0.007214 0.028907 -0.477032 0
0.815111 0.038916 -0.444750 0
0.200482 0.036586 0.028455 0
0.213098 0.040477 -0.701901 0
0.882463 0.049517 -0.018732 0
-0.057566 0.033407 -0.285386 0
0.649560 0.031158 -0.673864 0
0.489907 0.028322 0.203654 0
0.001996 0.031648 -0.623910 0
1.017932 0.040018 -0.280682 0
0.018404 0.035332 -0.031808 0
0.366412 0.026895 -0.791653 0
0.821796 0.077516 0.178075 0
-0.126043 0.019800 -0.432621 0
0.885540 0.043873 -0.605476 0
0.270347 0.035172 0.222621 0
0.079044 0.028183 -0.762427 0
-0.127469 0.021038 -0.160749 0
0.573208 0.044993 -0.824728 0
0.621254 0.114239 0.301961 0
-0.130412 0.023789 -0.602215 0
1.115926 0.065862 -0.434354 0
0.046163 0.024095 0.150377 0
0.225041 0.039170 -0.873458 0
-0.220611 0.025433 -0.340999 0
0.774103 0.125517 -0.779912 0
0.377964 0.099484 0.357031 0
-0.061388 0.024603 -0.765013 0
-0.144531 0.016642 -0.003313 0
0.452510 0.036384 -0.935780 0
-0.242643 0.025112 -0.533990 0
1.124592 0.079579 -0.622314 0
0.141479 0.019193 0.348340 0
0.078586 0.030703 -0.904470 0
-0.274617 0.024649 -0.209701 0
0.718727 0.070847 -0.923953 0
0.446138 0.281820 0.349144 0
-0.193596 0.027628 -0.722692 0
-0.109509 0.019014 0.179014 0
0.296559 0.030172 -1.003249 0
-0.326735 0.018468 -0.425893 0
0.702059 0.391363 -0.824457 0
0.289804 0.049241 0.525709 0
-0.072161 0.030057 -0.891337 0
-0.284160 0.003914 -0.035625 0
0.583142 0.041893 -1.038407 0
0.672046 0.310970 0.436401 0
-0.306231 0.023731 -0.642104 0
-0.018725 0.030160 0.377452 0
0.123783 0.033139 -1.025800 0
-0.383118 0.022711 -0.288242 0
0.830949 0.158701 -0.973791 0
0.394206 0.229407 0.534378 0
-0.209952 0.019985 -0.839702 0
-0.254765 0.013565 0.152393 0
0.395898 0.041252 -1.107554 0
-0.396982 0.020288 -0.528507 0
0.776248 0.497337 -0.817868 0
0.145721 0.026869 0.605031 0
-0.043184 0.031155 -1.008111 0
-0.403020 0.011800 -0.114062 0
0.721488 0.080686 -1.106395 0
0.416598 0.499451 0.373534 0
-0.334851 0.023417 -0.754508 0
-0.171157 0.018600 0.368660 0
