ply
format ascii 1.0
element vertex 1595
property float x
property float y
property float z
property uchar label
end_header
0.169726 0.727057 -0.264489 1
0.211228 0.876479 -0.299789 1
0.166243 0.802642 -0.186266 1
0.187718 0.776912 -0.322567 1
0.222811 0.875303 -0.232640 1
0.159389 0.734920 -0.221016 1
0.215258 0.840375 -0.323855 1
0.240747 0.792829 -0.149401 1
0.177478 0.731939 -0.292192 1
0.209881 0.891448 -0.280810 1
0.155578 0.775860 -0.191814 1
0.204383 0.795849 -0.332372 1
0.209874 0.871718 -0.210102 1
0.162079 0.719820 -0.247112 1
0.218393 0.865953 -0.313120 1
0.170732 0.819581 -0.179406 1
0.178528 0.760121 -0.319134 1
0.220831 0.888619 -0.250975 1
0.152574 0.744914 -0.204735 1
0.218073 0.821021 -0.333534 1
0.193394 0.859851 -0.191168 1
0.172003 0.713315 -0.276451 1
0.215956 0.888067 -0.295904 1
0.155061 0.794011 -0.181553 1
0.195622 0.778647 -0.334816 1
0.217669 0.883922 -0.222048 1
0.156045 0.717415 -0.226805 1
0.220595 0.853308 -0.326765 1
0.220519 0.797142 -0.144030 1
0.174569 0.735632 -0.308849 1
0.186474 0.793127 -0.234950 1
0.186179 0.798358 -0.227559 1
0.180287 0.782901 -0.239617 1
0.192576 0.807885 -0.242013 1
0.177169 0.789715 -0.219837 1
0.186223 0.787265 -0.254220 1
0.194395 0.810680 -0.224108 1
0.172159 0.773509 -0.230236 1
0.193604 0.808793 -0.257128 1
0.179993 0.801416 -0.210176 1
0.181064 0.769366 -0.251985 1
0.200103 0.820954 -0.237192 1
0.169325 0.775756 -0.213262 1
0.190967 0.794711 -0.267604 1
0.192613 0.814273 -0.209652 1
0.171339 0.758389 -0.238243 1
0.198805 0.823478 -0.257653 1
0.170311 0.793591 -0.201586 1
0.183216 0.773493 -0.267535 1
0.204466 0.825797 -0.222980 1
0.165036 0.758805 -0.216644 1
0.193912 0.811983 -0.274682 1
0.183006 0.812062 -0.197636 1
0.174995 0.750881 -0.252695 1
0.202644 0.835854 -0.249229 1
0.162597 0.777479 -0.198596 1
0.186364 0.788125 -0.280842 1
0.203986 0.824300 -0.204904 1
0.161980 0.747221 -0.229650 1
0.199791 0.828092 -0.272814 1
0.168691 0.805065 -0.190949 1
0.179651 0.755678 -0.270335 1
0.206165 0.841762 -0.233148 1
0.157309 0.758037 -0.203104 1
0.191074 0.807548 -0.288094 1
0.198437 0.816153 -0.186803 1
0.165472 0.738745 -0.247138 1
0.205006 0.842188 -0.263098 1
0.158131 0.788195 -0.187503 1
0.183239 0.773099 -0.286839 1
0.207874 0.839993 -0.211758 1
0.157108 0.737636 -0.214644 1
0.198293 0.826364 -0.287117 1
0.173610 0.816766 -0.183077 1
0.175255 0.736114 -0.266255 1
0.208152 0.851949 -0.246611 1
0.149628 0.767526 -0.191370 1
0.188894 0.795245 -0.297132 1
0.216523 0.821129 -0.181753 1
0.157035 0.728740 -0.235674 1
0.205968 0.842772 -0.277843 1
0.156658 0.803673 -0.179833 1
0.179853 0.753438 -0.287091 1
0.209605 0.854340 -0.224402 1
0.149204 0.740450 -0.200265 1
0.194320 0.820031 -0.299789 1
0.200284 0.812198 -0.166414 1
0.165961 0.722656 -0.258056 1
0.209363 0.857206 -0.262078 1
0.147483 0.778895 -0.179170 1
0.184366 0.779594 -0.302490 1
0.210674 0.846239 -0.197392 1
0.152219 0.718999 -0.218419 1
0.202822 0.840422 -0.293050 1
0.162130 0.817382 -0.172815 1
0.172182 0.735989 -0.282970 1
0.213709 0.862625 -0.238769 1
0.141136 0.752567 -0.187549 1
0.191674 0.806449 -0.309032 1
0.201584 0.834383 -0.174217 1
0.156521 0.711964 -0.244865 1
0.207569 0.859107 -0.278958 1
0.147879 0.794789 -0.169954 1
0.179546 0.759640 -0.303049 1
0.210220 0.863414 -0.213380 1
0.141017 0.726359 -0.203951 1
0.200088 0.831793 -0.306225 1
0.195498 0.807939 -0.150366 1
0.166805 0.714498 -0.272168 1
0.211078 0.870961 -0.257559 1
0.137220 0.767695 -0.175253 1
0.187909 0.788493 -0.314852 1
0.191410 0.864280 -0.194301 1
0.147302 0.706086 -0.227887 1
0.203806 0.856887 -0.295566 1
0.151998 0.812235 -0.163564 1
0.174805 0.736045 -0.298156 1
0.218721 0.869904 -0.227343 1
0.136328 0.733023 -0.186031 1
0.198258 0.816626 -0.316582 1
0.193525 0.836051 -0.161736 1
0.156708 0.701154 -0.257869 1
0.206717 0.875171 -0.276897 1
0.139944 0.781875 -0.162344 1
0.184031 0.765755 -0.316239 1
0.201560 0.874764 -0.204912 1
0.138722 0.706822 -0.208797 1
0.204876 0.845200 -0.309241 1
0.165031 0.824448 -0.155962 1
0.170044 0.710313 -0.287321 1
0.176784 0.785562 -0.221263 1
0.175425 0.791902 -0.214442 1
0.171036 0.774783 -0.225759 1
0.185030 0.798460 -0.227383 1
0.166357 0.783162 -0.206732 1
0.178915 0.777309 -0.239590 1
0.183567 0.804300 -0.210969 1
0.163007 0.764917 -0.216177 1
0.188492 0.797186 -0.241667 1
0.168423 0.795662 -0.197524 1
0.172804 0.760010 -0.237655 1
0.193445 0.810873 -0.222033 1
0.158682 0.768696 -0.199913 1
0.186209 0.782458 -0.252149 1
0.179901 0.809607 -0.197593 1
0.162458 0.749250 -0.224004 1
0.193606 0.812414 -0.242334 1
0.158687 0.787768 -0.188964 1
0.177877 0.761128 -0.252209 1
0.196000 0.817269 -0.208479 1
0.155014 0.750685 -0.202784 1
0.189964 0.799614 -0.259231 1
0.169082 0.808626 -0.186529 1
0.165700 0.742398 -0.238789 1
0.198626 0.823961 -0.233224 1
0.148340 0.774739 -0.187807 1
0.182571 0.774815 -0.265365 1
0.192221 0.818527 -0.192069 1
0.153202 0.737440 -0.215165 1
0.195217 0.816816 -0.257642 1
0.155625 0.800854 -0.179462 1
0.173216 0.744087 -0.255415 1
0.203845 0.828373 -0.215800 1
0.145711 0.751756 -0.190237 1
0.187024 0.795355 -0.273040 1
0.181207 0.815410 -0.177547 1
0.156584 0.729303 -0.232938 1
0.200401 0.831199 -0.247767 1
0.145220 0.783752 -0.175866 1
0.179801 0.758893 -0.271297 1
0.209562 0.822786 -0.191200 1
0.146213 0.730205 -0.201179 1
0.194881 0.814175 -0.271884 1
0.159463 0.813563 -0.172390 1
0.163958 0.730282 -0.253308 1
0.203311 0.841202 -0.231031 1
0.138019 0.761268 -0.178612 1
0.184305 0.783373 -0.282400 1
0.217275 0.803483 -0.159928 1
0.148622 0.717996 -0.220937 1
0.199959 0.833206 -0.263375 1
0.146228 0.796364 -0.166326 1
0.175684 0.739302 -0.271675 1
0.209142 0.839819 -0.205851 1
0.134556 0.738309 -0.189606 1
0.190412 0.808304 -0.285043 1
0.175690 0.818318 -0.162685 1
0.156939 0.713219 -0.243936 1
0.205498 0.846013 -0.246506 1
0.136402 0.771905 -0.165946 1
0.180582 0.766373 -0.287561 1
0.211177 0.830203 -0.176900 1
0.142070 0.710074 -0.204330 1
0.198632 0.829451 -0.278285 1
0.149661 0.812427 -0.160990 1
0.165842 0.723874 -0.268220 1
0.206734 0.853702 -0.224071 1
0.129888 0.745436 -0.174328 1
0.186540 0.795698 -0.294771 1
0.209302 0.810736 -0.147042 1
0.148336 0.700546 -0.230015 1
0.206375 0.846053 -0.262882 1
0.137241 0.787383 -0.156386 1
0.176158 0.745138 -0.287900 1
0.202050 0.855160 -0.198911 1
0.129605 0.719260 -0.190792 1
0.195771 0.820894 -0.291747 1
0.167293 0.817851 -0.150233 1
0.157683 0.705351 -0.258240 1
0.209496 0.858385 -0.241010 1
0.125280 0.761645 -0.162713 1
0.180715 0.779601 -0.301163 1
0.183926 0.855399 -0.179310 1
0.137688 0.696186 -0.213551 1
0.203246 0.843433 -0.279848 1
0.141582 0.804803 -0.149873 1
0.170723 0.721282 -0.282936 1
0.208656 0.863233 -0.214019 1
0.121936 0.730353 -0.175288 1
0.190134 0.809142 -0.303169 1
0.196768 0.816105 -0.136879 1
0.148945 0.689062 -0.242986 1
0.209205 0.859911 -0.259555 1
0.126456 0.777877 -0.151212 1
0.173735 0.760089 -0.303275 1
0.191712 0.867974 -0.191628 1
0.127588 0.698879 -0.195257 1
0.197482 0.837301 -0.295681 1
0.151349 0.820514 -0.145003 1
0.159554 0.703455 -0.274052 1
0.165454 0.782918 -0.212309 1
0.164149 0.789130 -0.205529 1
0.160834 0.770962 -0.216200 1
0.174049 0.795416 -0.218157 1
0.153670 0.782065 -0.198859 1
0.170295 0.771810 -0.229136 1
0.171367 0.802299 -0.202527 1
0.150936 0.763315 -0.207820 1
0.180452 0.791239 -0.230921 1
0.156300 0.793703 -0.189339 1
0.163567 0.755069 -0.227485 1
0.182158 0.807913 -0.212878 1
0.145699 0.768045 -0.192325 1
0.178028 0.776676 -0.241499 1
0.167189 0.808003 -0.189638 1
0.151602 0.746160 -0.214790 1
0.186446 0.805749 -0.231194 1
0.146615 0.785807 -0.180897 1
0.169605 0.755248 -0.241597 1
0.184497 0.814271 -0.199433 1
0.142915 0.748981 -0.194497 1
0.183227 0.792628 -0.248068 1
0.156586 0.806879 -0.178708 1
0.157405 0.736082 -0.228113 1
0.190834 0.817862 -0.222294 1
0.139277 0.769044 -0.177514 1
0.174744 0.768807 -0.254684 1
0.179804 0.816239 -0.183688 1
0.142790 0.733589 -0.205706 1
0.189378 0.809171 -0.246110 1
0.143971 0.798337 -0.171250 1
0.164909 0.738103 -0.244810 1
0.194382 0.823515 -0.205543 1
0.134145 0.749259 -0.181738 1
0.180902 0.787905 -0.261816 1
0.168004 0.813942 -0.169983 1
0.147496 0.723811 -0.222687 1
0.194683 0.823523 -0.236059 1
0.136567 0.777458 -0.165182 1
0.172207 0.752513 -0.260519 1
0.202340 0.815474 -0.179208 1
0.135465 0.726540 -0.191910 1
0.188679 0.807050 -0.260667 1
0.148184 0.810474 -0.163879 1
0.159366 0.718943 -0.240922 1
0.197398 0.833622 -0.219188 1
0.127378 0.757442 -0.169525 1
0.178550 0.775479 -0.271132 1
0.190935 0.813183 -0.160544 1
0.139000 0.712902 -0.210925 1
0.195077 0.825044 -0.251572 1
0.136357 0.791592 -0.156655 1
0.167158 0.733843 -0.261222 1
0.202814 0.832206 -0.193725 1
0.127013 0.729751 -0.177918 1
0.184846 0.800691 -0.273790 1
0.161678 0.817568 -0.155955 1
0.148666 0.706495 -0.233224 1
0.199092 0.839101 -0.235111 1
0.125628 0.768134 -0.156982 1
0.174720 0.758371 -0.276358 1
0.200849 0.825484 -0.166765 1
0.131176 0.706515 -0.195080 1
0.194312 0.820927 -0.266506 1
0.138890 0.808737 -0.152161 1
0.157932 0.717350 -0.257551 1
0.203136 0.844371 -0.210967 1
0.120135 0.740056 -0.164366 1
0.181618 0.787361 -0.283431 1
0.194261 0.809882 -0.140059 1
0.139483 0.694155 -0.219481 1
0.200203 0.839149 -0.251562 1
0.126415 0.783637 -0.147520 1
0.169932 0.737162 -0.276773 1
0.197042 0.846685 -0.186091 1
0.119383 0.714580 -0.181199 1
0.189746 0.813991 -0.280697 1
0.152253 0.818217 -0.144672 1
0.149993 0.697930 -0.247352 1
0.202548 0.851956 -0.229819 1
0.115138 0.756900 -0.153196 1
0.175698 0.771154 -0.289945 1
0.178233 0.847288 -0.166693 1
0.128200 0.690377 -0.203335 1
0.198958 0.835160 -0.268095 1
0.129984 0.801972 -0.141788 1
0.162408 0.715568 -0.272455 1
0.196508 0.860514 -0.205399 1
0.113889 0.721941 -0.163701 1
0.184363 0.802032 -0.292184 1
0.181167 0.815943 -0.130837 1
0.139685 0.683440 -0.232744 1
0.203504 0.852758 -0.248054 1
0.115600 0.774120 -0.142411 1
0.172098 0.747100 -0.291112 1
0.179699 0.865227 -0.183444 1
0.117747 0.693296 -0.185225 1
0.195426 0.827196 -0.283558 1
0.138926 0.818404 -0.137604 1
0.154579 0.692268 -0.262186 1
0.155260 0.779092 -0.203790 1
0.153545 0.785751 -0.197321 1
0.152632 0.764707 -0.206464 1
0.166706 0.788542 -0.207983 1
0.143616 0.778050 -0.190374 1
0.161110 0.766861 -0.219956 1
0.161396 0.798157 -0.193893 1
0.144245 0.754868 -0.197025 1
0.172268 0.785331 -0.221229 1
0.146513 0.789311 -0.180666 1
0.154413 0.749905 -0.218245 1
0.173032 0.802924 -0.203665 1
0.136379 0.762903 -0.183241 1
0.170459 0.770035 -0.231528 1
0.156820 0.804222 -0.181329 1
0.142127 0.741204 -0.205738 1
0.178528 0.799711 -0.221394 1
0.137975 0.779895 -0.171326 1
0.161392 0.749072 -0.231898 1
0.174412 0.810082 -0.190733 1
0.133489 0.743726 -0.185359 1
0.176921 0.784965 -0.237637 1
0.146814 0.802453 -0.170066 1
0.148694 0.730081 -0.218559 1
0.183389 0.811378 -0.212195 1
0.129828 0.763896 -0.168456 1
0.167961 0.761337 -0.244491 1
0.168206 0.813436 -0.176039 1
0.133396 0.728225 -0.196519 1
0.183421 0.801421 -0.235536 1
0.138115 0.789159 -0.159399 1
0.157111 0.731155 -0.234875 1
0.186778 0.817022 -0.195342 1
0.124551 0.744097 -0.172700 1
0.177569 0.777139 -0.250354 1
0.156332 0.811278 -0.162597 1
0.138270 0.718304 -0.213414 1
0.188684 0.815926 -0.225403 1
0.127389 0.771902 -0.155857 1
0.165232 0.745043 -0.250404 1
0.191761 0.811210 -0.170424 1
0.125032 0.722429 -0.183384 1
0.183883 0.798304 -0.249818 1
0.139300 0.804981 -0.154521 1
0.151059 0.712257 -0.231125 1
0.192703 0.824854 -0.207647 1
0.117973 0.751986 -0.160343 1
0.173535 0.766367 -0.260457 1
0.175026 0.814003 -0.155765 1
0.129118 0.708043 -0.201984 1
0.190417 0.816442 -0.240563 1
0.127189 0.786128 -0.147367 1
0.159728 0.726600 -0.251249 1
0.201775 0.819944 -0.179414 1
0.116729 0.725284 -0.169294 1
0.182513 0.789463 -0.262274 1
0.150137 0.814723 -0.148601 1
0.139683 0.700477 -0.223753 1
0.194873 0.830223 -0.223666 1
0.115878 0.763153 -0.148090 1
0.169596 0.749027 -0.265751 1
0.193846 0.817965 -0.155566 1
0.120646 0.702341 -0.186512 1
0.189643 0.812428 -0.255724 1
0.130351 0.802715 -0.142406 1
0.152918 0.706201 -0.246430 1
0.202877 0.832083 -0.196897 1
0.110146 0.735107 -0.155524 1
0.177376 0.777882 -0.272728 1
0.178347 0.810376 -0.135361 1
0.129744 0.688871 -0.210344 1
0.195704 0.830691 -0.240523 1
0.116307 0.779231 -0.139037 1
0.163401 0.729074 -0.266618 1
0.196312 0.834543 -0.171455 1
0.111320 0.706177 -0.170598 1
0.186347 0.804314 -0.269724 1
0.140466 0.815680 -0.137702 1
0.142111 0.690290 -0.237371 1
0.199803 0.842119 -0.217624 1
0.106505 0.749995 -0.143093 1
0.174516 0.757776 -0.278378 1
0.174334 0.837552 -0.153631 1
0.118144 0.685298 -0.194368 1
0.194598 0.826690 -0.257256 1
0.120703 0.796641 -0.132588 1
0.155217 0.707813 -0.262460 1
0.189999 0.853610 -0.194851 1
0.103572 0.717213 -0.155016 1
0.180462 0.792696 -0.281571 1
0.165360 0.816587 -0.126623 1
0.130818 0.676752 -0.223120 1
0.199291 0.844297 -0.236890 1
0.106540 0.768053 -0.132766 1
0.168736 0.735475 -0.280161 1
0.173271 0.858233 -0.172741 1
0.107364 0.688536 -0.176482 1
0.191058 0.818758 -0.272952 1
0.129018 0.813903 -0.129058 1
0.146910 0.684461 -0.252207 1
0.147002 0.779687 -0.194381 1
0.146708 0.784662 -0.187049 1
0.144264 0.765489 -0.197014 1
0.157851 0.789668 -0.198844 1
0.137948 0.775474 -0.179246 1
0.154407 0.765624 -0.209439 1
0.153399 0.798315 -0.184399 1
0.135042 0.756788 -0.188177 1
0.163618 0.786241 -0.211817 1
0.138802 0.789198 -0.171053 1
0.144724 0.752473 -0.209391 1
0.165022 0.803021 -0.194062 1
0.128903 0.762505 -0.173308 1
0.162161 0.770672 -0.221789 1
0.149307 0.803834 -0.171587 1
0.133503 0.742469 -0.196378 1
0.172400 0.797928 -0.210685 1
0.130905 0.778948 -0.161149 1
0.156184 0.745933 -0.220469 1
0.165761 0.810729 -0.181571 1
0.125008 0.744708 -0.176037 1
0.171945 0.781965 -0.226348 1
0.140600 0.800604 -0.159349 1
0.139264 0.732497 -0.209448 1
0.177121 0.809721 -0.201559 1
0.122352 0.763412 -0.158510 1
0.164023 0.756914 -0.232644 1
0.163317 0.810296 -0.164326 1
0.127386 0.725589 -0.185241 1
0.179156 0.797844 -0.223985 1
0.129694 0.789829 -0.150385 1
0.148658 0.732231 -0.225035 1
0.179038 0.816664 -0.185487 1
0.116023 0.745138 -0.163530 1
0.171331 0.775532 -0.239640 1
0.147134 0.812583 -0.154162 1
0.132123 0.715953 -0.202262 1
0.184239 0.812629 -0.213915 1
0.119023 0.772569 -0.146747 1
0.158874 0.743477 -0.239591 1
0.180187 0.814262 -0.162920 1
0.116232 0.723959 -0.174208 1
0.181122 0.793264 -0.237752 1
0.131299 0.805132 -0.145288 1
0.141898 0.714411 -0.221584 1
0.189209 0.820728 -0.195472 1
0.111453 0.749991 -0.149436 1
0.170015 0.761672 -0.248640 1
0.167313 0.813529 -0.145844 1
0.123260 0.704966 -0.190473 1
0.187099 0.812180 -0.228724 1
0.120406 0.784703 -0.136868 1
0.153601 0.724635 -0.240223 1
0.197237 0.816563 -0.167292 1
0.107954 0.726737 -0.160235 1
0.178813 0.785322 -0.250683 1
0.140723 0.816257 -0.140495 1
0.130935 0.702142 -0.214067 1
0.191992 0.825709 -0.211469 1
0.107469 0.763919 -0.139056 1
0.163747 0.746958 -0.254780 1
0.185869 0.817577 -0.145596 1
0.111399 0.704698 -0.177551 1
0.187241 0.807324 -0.243693 1
0.123792 0.801112 -0.131803 1
0.146501 0.704458 -0.235393 1
0.199859 0.827634 -0.184274 1
0.100311 0.738244 -0.147700 1
0.175856 0.771260 -0.260428 1
0.163623 0.816640 -0.131016 1
0.119946 0.692295 -0.201427 1
0.193594 0.825587 -0.228247 1
0.108593 0.778984 -0.129413 1
0.156219 0.728665 -0.256066 1
0.194302 0.829172 -0.157752 1
0.102295 0.708114 -0.161636 1
0.185152 0.797961 -0.257433 1
0.132381 0.815821 -0.128534 1
0.133560 0.691760 -0.227411 1
0.199689 0.835530 -0.204012 1
0.097724 0.751356 -0.134405 1
0.170607 0.753554 -0.266823 1
0.173949 0.830543 -0.138295 1
0.112185 0.681907 -0.182654 1
0.192886 0.821233 -0.245077 1
0.113464 0.795790 -0.122562 1
0.149205 0.705666 -0.251321 1
0.189198 0.847685 -0.181194 1
0.094260 0.719600 -0.146573 1
0.180134 0.785226 -0.269163 1
0.154197 0.819513 -0.119745 1
0.122099 0.678486 -0.213315 1
0.198415 0.838428 -0.224112 1
0.097920 0.769097 -0.124067 1
0.163481 0.732677 -0.268936 1
0.171497 0.853002 -0.159243 1
0.096752 0.693552 -0.168851 1
0.188020 0.814419 -0.261438 1
0.121768 0.813115 -0.119122 1
0.139698 0.683893 -0.241441 1
0.140052 0.782180 -0.184949 1
0.140179 0.786614 -0.177369 1
0.136458 0.769144 -0.188053 1
0.150970 0.791961 -0.189306 1
0.132533 0.776063 -0.168723 1
0.145753 0.770224 -0.200773 1
0.147245 0.799775 -0.174497 1
0.129019 0.758182 -0.178007 1
0.157000 0.788251 -0.202012 1
0.133041 0.790211 -0.160868 1
0.136649 0.756627 -0.200420 1
0.158930 0.804375 -0.184053 1
0.122441 0.764440 -0.163539 1
0.155051 0.773346 -0.212116 1
0.143543 0.804844 -0.161438 1
0.125075 0.747302 -0.187809 1
0.166128 0.799473 -0.200677 1
0.124107 0.781229 -0.151748 1
0.144686 0.754384 -0.213072 1
0.161338 0.810366 -0.170455 1
0.117065 0.748835 -0.167348 1
0.165123 0.784185 -0.216484 1
0.133839 0.802730 -0.149998 1
0.131465 0.736497 -0.200198 1
0.172228 0.809857 -0.190790 1
0.115455 0.765899 -0.149143 1
0.157589 0.758860 -0.222451 1
0.160414 0.808331 -0.151901 1
0.119113 0.730350 -0.176543 1
0.173022 0.799240 -0.213832 1
0.122889 0.792060 -0.141071 1
0.141434 0.735396 -0.215246 1
0.184643 0.806935 -0.168041 1
0.108398 0.748836 -0.154739 1
0.166681 0.775427 -0.228710 1
0.144986 0.809690 -0.141006 1
0.124880 0.719257 -0.192608 1
0.179781 0.812379 -0.202950 1
0.111729 0.775542 -0.137849 1
0.152033 0.746055 -0.229531 1
0.180080 0.809804 -0.148463 1
0.107866 0.729010 -0.165826 1
0.176782 0.792880 -0.226737 1
0.125754 0.805842 -0.134937 1
0.134380 0.718145 -0.211899 1
0.190937 0.814947 -0.180833 1
0.102338 0.755884 -0.142212 1
0.162350 0.765060 -0.238924 1
0.166974 0.809041 -0.131052 1
0.114670 0.710515 -0.181864 1
0.184094 0.810607 -0.217146 1
0.110829 0.790566 -0.130311 1
0.146537 0.727646 -0.230164 1
0.192003 0.816917 -0.156322 1
0.099880 0.731332 -0.151808 1
0.175402 0.783976 -0.239315 1
0.141296 0.810357 -0.124604 1
0.122709 0.707177 -0.204911 1
0.192180 0.821463 -0.198133 1
0.099237 0.768377 -0.131203 1
0.157538 0.748769 -0.244382 1
0.236072 0.767237 -0.093025 1
0.103024 0.710035 -0.169061 1
0.184551 0.805447 -0.232094 1
0.115994 0.804502 -0.123580 1
0.138578 0.708878 -0.225698 1
0.190464 0.831539 -0.175974 1
0.092822 0.741840 -0.138948 1
0.171102 0.771328 -0.249542 1
0.186524 0.789087 -0.095781 1
0.112905 0.695489 -0.191580 1
0.191188 0.823626 -0.216465 1
0.099860 0.783966 -0.122237 1
0.150450 0.729994 -0.245408 1
0.166756 0.848559 -0.162233 1
0.094230 0.712914 -0.153111 1
0.183329 0.795174 -0.245584 1
0.132560 0.810090 -0.112483 1
0.126282 0.695407 -0.217483 1
0.197393 0.833576 -0.191898 1
0.089782 0.755561 -0.126294 1
0.165490 0.754052 -0.255984 1
0.151771 0.846314 -0.141085 1
0.102780 0.689298 -0.174743 1
0.190933 0.818852 -0.233279 1
0.104826 0.800376 -0.115360 1
0.142863 0.707837 -0.240784 1
0.181289 0.850325 -0.172402 1
0.087053 0.722804 -0.137410 1
0.178666 0.781923 -0.257264 1
0.144590 0.824272 -0.112820 1
0.113667 0.684240 -0.204226 1
0.198922 0.834248 -0.211009 1
0.090067 0.772998 -0.116020 1
0.157075 0.734853 -0.258458 1
0.152708 0.864858 -0.158855 1
0.089061 0.697922 -0.159923 1
0.187788 0.810392 -0.249205 1
0.117881 0.811790 -0.106864 1
0.132636 0.687252 -0.231189 1
0.133684 0.784204 -0.175204 1
0.133471 0.788954 -0.167854 1
0.130249 0.771042 -0.178183 1
0.144139 0.794467 -0.179780 1
0.124352 0.780256 -0.160374 1
0.137149 0.775147 -0.192330 1
0.140254 0.802319 -0.165143 1
0.122044 0.761045 -0.168691 1
0.149047 0.792086 -0.193057 1
0.127070 0.791526 -0.150795 1
0.130036 0.759222 -0.190794 1
0.151501 0.807354 -0.174849 1
0.115945 0.766503 -0.153904 1
0.147463 0.777003 -0.202869 1
0.136703 0.807111 -0.152002 1
0.118431 0.749903 -0.178286 1
0.157412 0.803882 -0.192066 1
0.116955 0.783976 -0.142684 1
0.136833 0.758668 -0.204047 1
0.158860 0.808163 -0.157753 1
0.109928 0.751936 -0.158263 1
0.156861 0.788419 -0.207468 1
0.126364 0.805686 -0.141177 1
0.124763 0.739321 -0.190582 1
0.168035 0.809579 -0.179437 1
0.108075 0.769053 -0.140321 1
0.147016 0.766321 -0.214587 1
0.153249 0.810741 -0.142395 1
0.109330 0.737697 -0.169448 1
0.166055 0.801892 -0.204098 1
0.115310 0.795198 -0.132429 1
0.134143 0.739140 -0.205827 1
0.178260 0.808572 -0.157671 1
0.101062 0.752147 -0.145924 1
0.158611 0.779624 -0.219452 1
0.139175 0.810641 -0.130549 1
0.114589 0.727629 -0.185518 1
0.175674 0.812137 -0.191617 1
0.103720 0.779425 -0.129716 1
0.144918 0.749540 -0.219879 1
0.247566 0.741027 -0.084005 1
0.101097 0.731659 -0.156436 1
0.168943 0.796522 -0.217302 1
0.118027 0.809003 -0.126441 1
0.127208 0.721866 -0.202425 1
0.193186 0.808865 -0.165320 1
0.095031 0.759003 -0.133449 1
0.156725 0.766660 -0.228524 1
0.160607 0.810444 -0.120641 1
0.105591 0.717215 -0.174157 1
0.178303 0.812036 -0.206720 1
0.103318 0.793612 -0.121754 1
0.140221 0.730215 -0.220080 1
0.202042 0.803803 -0.134700 1
0.093068 0.733883 -0.142496 1
0.170459 0.784770 -0.228549 1
0.132208 0.814746 -0.117041 1
0.115810 0.710572 -0.195394 1
0.195534 0.814723 -0.182630 1
0.091679 0.771704 -0.122770 1
0.152046 0.750309 -0.233905 1
0.299713 0.703582 -0.026527 1
0.096390 0.712579 -0.159524 1
0.179386 0.806393 -0.221398 1
0.107907 0.808087 -0.115569 1
0.131339 0.712895 -0.216115 1
0.205801 0.814767 -0.152352 1
0.086334 0.743675 -0.129353 1
0.165628 0.772807 -0.239014 1
0.158404 0.811924 -0.103975 1
0.106190 0.698503 -0.181979 1
0.190645 0.820435 -0.203486 1
0.092608 0.786667 -0.113487 1
0.145456 0.730923 -0.234696 1
0.163402 0.847589 -0.150223 1
0.085498 0.719016 -0.145706 1
0.178168 0.796220 -0.234892 1
0.123568 0.814382 -0.105009 1
0.118989 0.699652 -0.208079 1
0.199043 0.828665 -0.177203 1
0.081740 0.759759 -0.118476 1
0.160582 0.754970 -0.245224 1
0.144460 0.848717 -0.132056 1
0.093210 0.697369 -0.167651 1
0.189837 0.816182 -0.220846 1
0.097116 0.803523 -0.107086 1
0.136590 0.710584 -0.230621 1
0.168341 0.857271 -0.166650 1
0.080576 0.724590 -0.127726 1
0.174325 0.782229 -0.246293 1
0.142461 0.821246 -0.098521 1
0.107193 0.687076 -0.194417 1
0.200444 0.829588 -0.196927 1
0.083178 0.775145 -0.106859 1
0.152223 0.735741 -0.247683 1
0.150791 0.862744 -0.145909 1
0.082575 0.700128 -0.150305 1
0.187434 0.807006 -0.236736 1
0.109064 0.816009 -0.099557 1
0.125896 0.690770 -0.221296 1
0.129664 0.784303 -0.163381 1
0.128376 0.790247 -0.156736 1
0.124064 0.773897 -0.167985 1
0.138111 0.797007 -0.169297 1
0.118977 0.781759 -0.149490 1
0.132393 0.776414 -0.181179 1
0.134884 0.803900 -0.154130 1
0.114755 0.765331 -0.159411 1
0.143408 0.794375 -0.182330 1
0.121050 0.793666 -0.140311 1
0.125179 0.760585 -0.179757 1
0.146322 0.808875 -0.163656 1
0.109714 0.769070 -0.143769 1
0.141997 0.779288 -0.192093 1
0.130624 0.809291 -0.141459 1
0.113165 0.751600 -0.167553 1
0.152031 0.805843 -0.181068 1
0.109720 0.787592 -0.133362 1
0.132018 0.760212 -0.193014 1
0.152752 0.810435 -0.146926 1
0.103812 0.754496 -0.148146 1
0.150693 0.791485 -0.196981 1
0.119907 0.808159 -0.131008 1
0.119300 0.741560 -0.179988 1
0.162943 0.811099 -0.167996 1
0.100937 0.772667 -0.131039 1
0.141614 0.768746 -0.203826 1
0.146297 0.813688 -0.132181 1
0.103305 0.740406 -0.159346 1
0.159882 0.804807 -0.193474 1
0.106476 0.800602 -0.124624 1
0.129065 0.741107 -0.194960 1
0.175448 0.807698 -0.144286 1
0.095002 0.754392 -0.135760 1
0.153305 0.781935 -0.208511 1
0.132130 0.813577 -0.120572 1
0.109474 0.729281 -0.174759 1
0.171258 0.813166 -0.179798 1
0.096700 0.782635 -0.120322 1
0.139494 0.752155 -0.209148 1
0.265997 0.719124 -0.052233 1
0.095064 0.734158 -0.146332 1
0.163809 0.798559 -0.206141 1
0.111456 0.811393 -0.116354 1
0.122169 0.723759 -0.191571 1
0.196398 0.802772 -0.148187 1
0.088596 0.761561 -0.123614 1
0.152158 0.768288 -0.217272 1
0.155030 0.811727 -0.108918 1
0.099869 0.719639 -0.163870 1
0.175577 0.811657 -0.194150 1
0.096312 0.796583 -0.112289 1
0.135175 0.732414 -0.209175 1
0.287989 0.723336 -0.058281 1
0.087057 0.736044 -0.132330 1
0.164559 0.787792 -0.217736 1
0.125462 0.817170 -0.106771 1
0.110877 0.712177 -0.184551 1
0.198912 0.808884 -0.166057 1
0.085113 0.774205 -0.113011 1
0.147825 0.751614 -0.222557 1
0.258523 0.737255 -0.039947 1
0.090479 0.715031 -0.149383 1
0.175642 0.807123 -0.209479 1
0.101373 0.810276 -0.105461 1
0.123928 0.718659 -0.206629 1
0.174128 0.838723 -0.157074 1
0.079761 0.746466 -0.119738 1
0.161844 0.773704 -0.227376 1
0.148140 0.817731 -0.096340 1
0.100788 0.700627 -0.171463 1
0.188380 0.819766 -0.190514 1
0.085738 0.789373 -0.103950 1
0.141344 0.732100 -0.223349 1
0.154013 0.852510 -0.141774 1
0.079807 0.720729 -0.135349 1
0.173880 0.797626 -0.223316 1
0.117375 0.816012 -0.094139 1
0.114135 0.701428 -0.197230 1
0.190782 0.832831 -0.167146 1
0.075212 0.762175 -0.108758 1
0.155320 0.757706 -0.234260 1
0.140889 0.848263 -0.119082 1
0.087335 0.700032 -0.157594 1
0.185505 0.817490 -0.209066 1
0.090335 0.805914 -0.097296 1
0.131976 0.712422 -0.219567 1
0.163100 0.858785 -0.155285 1
0.074150 0.727193 -0.117989 1
0.171252 0.782507 -0.234339 1
0.137470 0.821590 -0.086086 1
0.102478 0.688308 -0.183480 1
0.200402 0.827191 -0.182632 1
0.076657 0.777251 -0.096935 1
0.149546 0.735273 -0.235753 1
0.146460 0.863249 -0.133820 1
0.076509 0.702733 -0.140414 1
0.184085 0.807571 -0.224687 1
0.102262 0.818258 -0.089490 1
0.121240 0.692534 -0.210310 1
0.124663 0.785189 -0.153354 1
0.122996 0.791502 -0.146958 1
0.119600 0.774136 -0.157650 1
0.133204 0.797887 -0.159198 1
0.112525 0.784287 -0.140634 1
0.127967 0.776835 -0.170894 1
0.129244 0.805416 -0.144477 1
0.109366 0.766642 -0.149784 1
0.138895 0.794981 -0.172034 1
0.114146 0.796563 -0.131775 1
0.120227 0.761630 -0.169861 1
0.143109 0.807928 -0.152229 1
0.103160 0.771752 -0.135079 1
0.137071 0.780483 -0.182122 1
0.124324 0.811386 -0.132296 1
0.107679 0.753199 -0.158072 1
0.146970 0.807049 -0.171028 1
0.103127 0.790081 -0.124669 1
0.127086 0.761435 -0.183135 1
0.146058 0.812944 -0.137754 1
0.097667 0.756746 -0.139183 1
0.144733 0.793875 -0.187556 1
0.113656 0.810091 -0.121865 1
0.113921 0.743225 -0.170421 1
0.157666 0.812389 -0.157841 1
0.094496 0.775006 -0.122283 1
0.136633 0.770176 -0.193950 1
0.138946 0.816726 -0.123563 1
0.097504 0.742376 -0.150158 1
0.154215 0.806769 -0.183762 1
0.100497 0.802138 -0.115325 1
0.123772 0.742880 -0.185305 1
0.170884 0.808080 -0.133211 1
0.088925 0.756343 -0.126738 1
0.147207 0.784656 -0.199123 1
0.125506 0.815763 -0.111481 1
0.104127 0.730839 -0.165228 1
0.165802 0.814746 -0.169736 1
0.090798 0.784013 -0.110969 1
0.134411 0.753821 -0.199341 1
0.218160 0.760388 -0.072401 1
0.089020 0.736315 -0.137341 1
0.157889 0.800930 -0.196536 1
0.105491 0.812790 -0.106886 1
0.117172 0.725085 -0.181746 1
0.216267 0.781040 -0.121138 1
0.082449 0.763392 -0.114629 1
0.146501 0.770686 -0.207657 1
0.146575 0.815603 -0.100953 1
0.093966 0.721938 -0.154804 1
0.171071 0.812482 -0.183604 1
0.090528 0.797668 -0.102726 1
0.130261 0.733896 -0.199276 1
0.247549 0.755440 -0.070531 1
0.080933 0.738073 -0.123387 1
0.158830 0.790138 -0.208023 1
0.119445 0.818517 -0.097043 1
0.105698 0.713677 -0.174914 1
0.217388 0.789216 -0.141507 1
0.079291 0.775323 -0.103582 1
0.142889 0.753273 -0.212624 1
0.159445 0.825160 -0.104654 1
0.084733 0.716801 -0.140158 1
0.170917 0.808305 -0.199147 1
0.095618 0.811245 -0.095726 1
0.119051 0.720074 -0.196810 1
0.166871 0.841612 -0.148058 1
0.073358 0.748707 -0.111085 1
0.156770 0.775510 -0.217391 1
0.140767 0.820373 -0.087455 1
0.095094 0.702785 -0.162220 1
0.186804 0.818020 -0.178257 1
0.079970 0.790263 -0.094329 1
0.137134 0.732839 -0.213097 1
0.158348 0.845198 -0.124236 1
0.074034 0.722242 -0.126139 1
0.168798 0.799310 -0.213216 1
0.111104 0.817484 -0.084595 1
0.109277 0.702664 -0.187409 1
0.183988 0.835379 -0.157565 1
0.068809 0.764160 -0.100063 1
0.151080 0.758660 -0.223990 1
0.134046 0.850513 -0.110132 1
0.081541 0.702118 -0.148514 1
0.181622 0.817917 -0.198232 1
0.084309 0.807086 -0.087855 1
0.127164 0.713971 -0.209662 1
0.158735 0.859209 -0.144521 1
0.068035 0.728944 -0.109007 1
0.166467 0.784046 -0.224149 1
0.129598 0.824661 -0.077814 1
0.097207 0.690000 -0.173952 1
0.241802 0.790283 -0.147411 1
0.070403 0.778737 -0.087873 1
0.146084 0.735232 -0.225165 1
0.141962 0.863554 -0.123028 1
0.070317 0.705219 -0.131721 1
0.179750 0.808540 -0.214161 1
0.096092 0.819529 -0.079965 1
0.116368 0.694058 -0.200472 1
0.117592 0.787040 -0.142089 1
0.115393 0.793892 -0.136109 1
0.112544 0.776068 -0.146464 1
0.126545 0.799316 -0.147596 1
0.104213 0.787562 -0.130510 1
0.122042 0.777545 -0.158904 1
0.121810 0.807510 -0.133408 1
0.101052 0.770224 -0.139726 1
0.133275 0.795420 -0.159766 1
0.105937 0.799480 -0.121495 1
0.113391 0.763508 -0.158574 1
0.134342 0.811505 -0.141970 1
0.094751 0.775212 -0.125146 1
0.131139 0.781404 -0.170150 1
0.116377 0.813885 -0.121646 1
0.099993 0.756133 -0.147533 1
0.140770 0.808145 -0.159059 1
0.095233 0.792555 -0.114206 1
0.120877 0.762705 -0.171433 1
0.137970 0.815571 -0.126845 1
0.089792 0.759627 -0.128843 1
0.139036 0.794635 -0.175439 1
0.105803 0.812369 -0.111209 1
0.106510 0.746006 -0.159601 1
0.151682 0.813122 -0.145416 1
0.086405 0.777809 -0.112098 1
0.130779 0.771181 -0.182022 1
0.129136 0.820992 -0.114149 1
0.089638 0.745548 -0.139864 1
0.147105 0.808966 -0.172346 1
0.093910 0.802730 -0.103480 1
0.116710 0.745395 -0.174160 1
0.164272 0.809151 -0.120671 1
0.080967 0.759147 -0.116508 1
0.140300 0.786943 -0.187714 1
0.116526 0.819096 -0.101556 1
0.096656 0.733721 -0.154552 1
0.159638 0.815812 -0.157457 1
0.083101 0.786011 -0.100304 1
0.128159 0.755428 -0.187660 1
0.164429 0.806599 -0.096372 1
0.081303 0.739041 -0.126913 1
0.150483 0.803601 -0.185256 1
0.097461 0.815065 -0.096366 1
0.110172 0.727535 -0.170578 1
0.199522 0.791286 -0.114424 1
0.074371 0.766132 -0.104522 1
0.139859 0.772844 -0.196103 1
0.134830 0.821503 -0.092997 1
0.086589 0.724525 -0.144106 1
0.161438 0.816995 -0.173310 1
0.083296 0.798854 -0.091448 1
0.123853 0.735756 -0.187669 1
0.167082 0.823027 -0.111526 1
0.072920 0.741016 -0.113257 1
0.151519 0.792911 -0.196664 1
0.110533 0.821594 -0.087047 1
0.098313 0.716705 -0.164144 1
0.205358 0.795222 -0.131544 1
0.071857 0.776789 -0.092638 1
0.136470 0.755302 -0.200972 1
0.144489 0.833800 -0.099123 1
0.077176 0.719411 -0.129608 1
0.162326 0.812045 -0.188257 1
0.087907 0.812956 -0.084839 1
0.114325 0.719371 -0.184275 1
0.192436 0.815121 -0.113716 1
0.065577 0.750951 -0.100691 1
0.150306 0.777555 -0.205634 1
0.130839 0.824250 -0.077897 1
0.087458 0.706077 -0.151713 1
0.186606 0.813931 -0.162458 1
0.072608 0.791439 -0.083154 1
0.130988 0.734578 -0.201319 1
0.148555 0.849004 -0.114460 1
0.066362 0.724738 -0.115742 1
0.162439 0.801093 -0.201279 1
0.101883 0.820791 -0.074963 1
0.102095 0.705668 -0.176463 1
0.174856 0.838838 -0.146790 1
0.061319 0.765626 -0.089236 1
0.144474 0.761051 -0.212353 1
0.126149 0.852541 -0.099155 1
0.073880 0.705219 -0.138171 1
0.177317 0.817631 -0.185050 1
0.076892 0.808252 -0.076614 1
0.120288 0.716797 -0.198354 1
0.150920 0.861436 -0.133422 1
0.060228 0.731241 -0.098620 1
0.160971 0.785098 -0.211868 1
0.119073 0.829105 -0.069107 1
0.089804 0.693218 -0.163255 1
0.221014 0.803259 -0.141665 1
0.061917 0.781547 -0.078143 1
0.140198 0.736815 -0.213192 1
0.133738 0.865955 -0.112398 1
0.062514 0.708205 -0.121556 1
0.173299 0.810374 -0.202116 1
0.087710 0.821816 -0.069611 1
0.109496 0.696835 -0.189230 1
0.110757 0.789417 -0.133640 1
0.108515 0.796232 -0.127722 1
0.106057 0.778128 -0.137804 1
0.120120 0.801180 -0.138759 1
0.097322 0.789939 -0.122264 1
0.116940 0.777969 -0.149165 1
0.114711 0.809977 -0.125129 1
0.094521 0.772324 -0.131217 1
0.128624 0.795387 -0.149651 1
0.099374 0.801267 -0.112887 1
0.107884 0.764439 -0.149189 1
0.127802 0.813368 -0.133106 1
0.088162 0.777192 -0.116685 1
0.126395 0.781556 -0.160190 1
0.109508 0.815957 -0.113206 1
0.093937 0.757706 -0.138645 1
0.135568 0.808752 -0.149272 1
0.088756 0.794181 -0.105578 1
0.115804 0.763236 -0.161763 1
0.130478 0.818248 -0.118598 1
0.084007 0.760503 -0.119656 1
0.133735 0.795518 -0.165834 1
0.099426 0.813777 -0.102363 1
0.100953 0.747027 -0.150292 1
0.146074 0.814017 -0.135658 1
0.080016 0.779323 -0.103429 1
0.125817 0.771728 -0.172283 1
0.121694 0.823513 -0.105974 1
0.083840 0.746625 -0.130775 1
0.142226 0.809379 -0.162403 1
0.088018 0.803429 -0.094154 1
0.111149 0.746633 -0.164837 1
0.156969 0.811460 -0.111769 1
0.074544 0.760824 -0.107940 1
0.134539 0.788490 -0.178415 1
0.109783 0.820783 -0.092830 1
0.090854 0.735055 -0.145481 1
0.154718 0.816153 -0.147265 1
0.077036 0.786868 -0.091187 1
0.122666 0.756733 -0.178263 1
0.146233 0.819383 -0.096458 1
0.075115 0.740544 -0.118143 1
0.144593 0.805190 -0.175930 1
0.091043 0.816350 -0.087506 1
0.104381 0.729093 -0.161417 1
0.167205 0.816534 -0.122260 1
0.068271 0.767087 -0.095546 1
0.134533 0.774005 -0.186562 1
0.126556 0.824636 -0.085363 1
0.080938 0.725432 -0.134894 1
0.156789 0.817227 -0.163094 1
0.077135 0.799728 -0.082348 1
0.118166 0.737370 -0.178380 1
0.152842 0.831543 -0.107993 1
0.066473 0.742727 -0.104728 1
0.145487 0.794795 -0.187402 1
0.103771 0.823147 -0.078273 1
0.092713 0.717886 -0.154915 1
0.192307 0.802639 -0.125605 1
0.065288 0.778291 -0.084120 1
0.130755 0.757046 -0.191647 1
0.133653 0.839269 -0.093650 1
0.071169 0.720668 -0.120671 1
0.156101 0.813929 -0.178977 1
0.081454 0.814141 -0.075976 1
0.108823 0.720712 -0.174926 1
0.164042 0.835545 -0.119378 1
0.059019 0.752626 -0.092273 1
0.143854 0.780075 -0.196561 1
0.120350 0.829549 -0.072529 1
0.081423 0.707814 -0.142846 1
0.184483 0.811866 -0.150387 1
0.065594 0.793445 -0.075107 1
0.125490 0.736106 -0.191884 1
0.140652 0.851689 -0.106426 1
0.059952 0.726480 -0.107244 1
0.155547 0.803811 -0.192308 1
0.093870 0.823706 -0.067606 1
0.096603 0.706894 -0.167168 1
0.169430 0.839595 -0.136717 1
0.054102 0.768220 -0.081638 1
0.138583 0.763104 -0.203050 1
0.118356 0.855113 -0.091383 1
0.067685 0.707031 -0.129520 1
0.171529 0.819016 -0.175331 1
0.069495 0.810635 -0.068961 1
0.114776 0.718370 -0.189002 1
0.143446 0.863809 -0.125125 1
0.052794 0.734602 -0.091308 1
0.154610 0.787478 -0.202615 1
0.108967 0.834027 -0.063697 1
0.083705 0.695320 -0.154455 1
0.213711 0.805515 -0.131908 1
0.054440 0.784303 -0.070806 1
0.134687 0.738491 -0.203687 1
0.126533 0.867997 -0.104089 1
0.056148 0.710029 -0.113079 1
0.167152 0.812268 -0.192658 1
0.079788 0.824657 -0.062387 1
0.104018 0.698261 -0.179885 1
0.102194 0.791500 -0.125292 1
0.099960 0.798217 -0.119415 1
0.098870 0.778537 -0.128361 1
0.114275 0.799998 -0.128164 1
0.091436 0.788427 -0.111618 1
0.108920 0.779560 -0.140286 1
0.106767 0.811097 -0.116227 1
0.089395 0.769718 -0.119977 1
0.121210 0.796134 -0.140209 1
0.091909 0.801729 -0.103642 1
0.100461 0.765328 -0.139946 1
0.119534 0.814840 -0.124305 1
0.080497 0.778021 -0.107738 1
0.120364 0.780783 -0.149844 1
0.102244 0.816161 -0.103694 1
0.086797 0.758081 -0.129256 1
0.128470 0.809108 -0.139553 1
0.081538 0.794226 -0.096109 1
0.108727 0.763802 -0.152225 1
0.121797 0.819952 -0.110036 1
0.076453 0.761225 -0.110615 1
0.127582 0.795014 -0.155591 1
0.092237 0.813770 -0.092772 1
0.093891 0.747436 -0.140801 1
0.134600 0.818617 -0.128873 1
0.072651 0.779522 -0.094134 1
0.119379 0.771594 -0.162289 1
0.113818 0.824262 -0.096800 1
0.076393 0.747367 -0.121687 1
0.135803 0.809151 -0.152245 1
0.081021 0.803034 -0.084329 1
0.104006 0.747354 -0.155369 1
0.141940 0.819143 -0.107625 1
0.066873 0.761568 -0.099033 1
0.131042 0.785062 -0.166668 1
0.100074 0.823524 -0.085557 1
0.086824 0.730472 -0.133431 1
0.148028 0.816014 -0.137010 1
0.069521 0.787109 -0.081963 1
0.115829 0.757189 -0.168548 1
0.133978 0.824264 -0.090592 1
0.067263 0.741768 -0.109441 1
0.137587 0.805715 -0.166167 1
0.084278 0.815623 -0.077340 1
0.097538 0.729313 -0.151730 1
0.156504 0.819862 -0.114492 1
0.060358 0.768034 -0.086891 1
0.128133 0.774001 -0.176539 1
0.117448 0.826419 -0.077112 1
0.073670 0.725928 -0.125624 1
0.150311 0.817043 -0.152809 1
0.069008 0.800728 -0.073799 1
0.111009 0.738288 -0.168856 1
0.140395 0.836393 -0.102063 1
0.058616 0.743750 -0.096031 1
0.139738 0.794093 -0.176961 1
0.095728 0.823835 -0.069255 1
0.085647 0.718369 -0.145463 1
0.175543 0.811284 -0.121193 1
0.056531 0.780418 -0.076496 1
0.124005 0.757547 -0.181837 1
0.122286 0.843194 -0.087450 1
0.063562 0.721512 -0.111702 1
0.149340 0.814183 -0.168955 1
0.073486 0.814807 -0.067149 1
0.101843 0.721355 -0.165341 1
0.153414 0.838620 -0.111715 1
0.050433 0.754764 -0.084514 1
0.136501 0.781267 -0.186973 1
0.109442 0.833125 -0.066229 1
0.073841 0.709009 -0.133858 1
0.178363 0.811163 -0.139397 1
0.055685 0.797137 -0.068992 1
0.118309 0.737225 -0.182315 1
0.130425 0.854429 -0.099073 1
0.053601 0.724666 -0.096793 1
0.148019 0.804988 -0.182704 1
0.084252 0.826205 -0.060493 1
0.089439 0.707746 -0.157786 1
0.168313 0.834632 -0.122557 1
0.045917 0.769455 -0.073386 1
0.133546 0.761621 -0.192352 1
0.109653 0.856502 -0.083081 1
0.059956 0.708318 -0.120771 1
0.165781 0.818250 -0.164546 1
0.060111 0.813258 -0.062090 1
0.107823 0.719186 -0.179384 1
0.135251 0.864847 -0.116169 1
0.043731 0.737770 -0.084205 1
0.146196 0.789781 -0.193389 1
0.097151 0.838630 -0.058766 1
0.075858 0.697236 -0.145691 1
0.186762 0.822086 -0.132767 1
0.044605 0.788104 -0.064839 1
0.127643 0.739536 -0.193949 1
0.117986 0.869255 -0.095631 1
0.048200 0.711467 -0.104601 1
0.159080 0.813853 -0.183162 1
0.070189 0.827242 -0.055563 1
0.096635 0.699680 -0.170581 1
0.094644 0.784255 -0.117069 1
0.092256 0.791228 -0.111286 1
0.091337 0.771011 -0.120093 1
0.103657 0.796682 -0.122491 1
0.082551 0.782710 -0.104437 1
0.102003 0.771456 -0.131712 1
0.097870 0.805751 -0.109174 1
0.081061 0.762972 -0.112251 1
0.113471 0.789423 -0.132303 1
0.083025 0.796118 -0.096459 1
0.095371 0.754186 -0.129805 1
0.108589 0.811856 -0.118904 1
0.074492 0.767733 -0.097483 1
0.110899 0.776091 -0.143211 1
0.092546 0.811698 -0.097334 1
0.082655 0.744716 -0.117785 1
0.119885 0.803531 -0.132279 1
0.074506 0.785760 -0.086792 1
0.103672 0.752911 -0.142415 1
0.106951 0.821019 -0.107953 1
0.068597 0.753304 -0.102190 1
0.121868 0.786131 -0.146492 1
0.084761 0.806403 -0.084055 1
0.089937 0.733750 -0.129577 1
0.121347 0.817853 -0.124982 1
0.064989 0.771465 -0.085296 1
0.113294 0.762610 -0.153472 1
0.100662 0.823495 -0.093559 1
0.072319 0.732894 -0.109615 1
0.128402 0.802417 -0.144239 1
0.071885 0.797521 -0.077213 1
0.100108 0.734142 -0.144682 1
0.119404 0.827345 -0.111196 1
0.058747 0.753803 -0.090644 1
0.123819 0.777896 -0.158660 1
0.089904 0.819453 -0.079590 1
0.078540 0.722913 -0.125583 1
0.132034 0.817769 -0.134623 1
0.059290 0.782982 -0.076047 1
0.111797 0.745060 -0.158468 1
0.113475 0.830437 -0.093463 1
0.060340 0.731477 -0.099756 1
0.132339 0.796782 -0.157013 1
0.075575 0.809630 -0.069718 1
0.089244 0.722142 -0.144142 1
0.134456 0.826815 -0.116745 1
0.052216 0.760182 -0.078292 1
0.123189 0.763936 -0.167308 1
0.101371 0.828442 -0.076813 1
0.067258 0.714609 -0.115774 1
0.138013 0.815237 -0.147784 1
0.059583 0.795474 -0.066922 1
0.103707 0.730179 -0.160819 1
0.130738 0.831591 -0.095324 1
0.050652 0.734984 -0.087149 1
0.132327 0.787441 -0.169168 1
0.082526 0.823225 -0.066641 1
0.080425 0.705376 -0.135168 1
0.146351 0.824286 -0.127203 1
0.047397 0.774366 -0.069108 1
0.120003 0.745768 -0.172123 1
0.116917 0.834199 -0.076796 1
0.054670 0.714215 -0.104031 1
0.139606 0.810039 -0.162389 1
0.063080 0.811013 -0.061545 1
0.094218 0.713186 -0.157415 1
0.146881 0.830952 -0.102515 1
0.040816 0.749125 -0.077630 1
0.130815 0.772518 -0.178364 1
0.094936 0.833493 -0.064752 1
0.065120 0.701590 -0.126295 1
0.150273 0.823170 -0.143531 1
0.046267 0.791790 -0.062070 1
0.112663 0.726971 -0.173479 1
0.132279 0.839207 -0.082505 1
0.043509 0.719466 -0.090345 1
0.140803 0.798353 -0.174842 1
0.071304 0.825477 -0.057947 1
0.086282 0.691035 -0.146235 1
0.163323 0.825610 -0.112373 1
0.036227 0.764080 -0.066612 1
0.127561 0.752809 -0.183934 1
0.111538 0.840518 -0.065011 1
0.053985 0.694858 -0.109988 1
0.149618 0.819867 -0.161306 1
0.050205 0.808806 -0.055904 1
0.102856 0.707060 -0.169992 1
0.140158 0.847844 -0.098231 1
0.033578 0.732774 -0.077867 1
0.138787 0.783258 -0.185701 1
0.085974 0.835492 -0.053901 1
0.072716 0.678956 -0.133321 1
0.172833 0.820640 -0.128174 1
0.034434 0.783836 -0.058894 1
0.119930 0.732507 -0.186403 1
0.120323 0.854003 -0.078234 1
0.040750 0.700442 -0.094872 1
0.148430 0.810642 -0.176952 1
0.058687 0.824923 -0.051505 1
0.090543 0.688281 -0.161586 1
0.079054 0.762538 -0.108006 1
0.076735 0.769686 -0.102075 1
0.075308 0.749135 -0.111296 1
0.086650 0.777799 -0.115055 1
0.066516 0.761094 -0.095269 1
0.086292 0.749549 -0.123057 1
0.081276 0.786459 -0.101191 1
0.064822 0.740498 -0.103158 1
0.096683 0.770003 -0.124745 1
0.068360 0.773130 -0.085819 1
0.080030 0.730355 -0.120474 1
0.091301 0.793896 -0.111824 1
0.057551 0.746155 -0.088614 1
0.097492 0.751691 -0.133239 1
0.077817 0.789931 -0.087224 1
0.065946 0.721802 -0.108999 1
0.102067 0.785981 -0.125644 1
0.057048 0.765900 -0.078577 1
0.088398 0.729421 -0.133521 1
0.089962 0.802806 -0.100517 1
0.052026 0.730079 -0.092696 1
0.104394 0.767748 -0.139649 1
0.066506 0.788737 -0.077163 1
0.072166 0.712307 -0.122014 1
0.103184 0.801047 -0.118660 1
0.045394 0.754257 -0.079241 1
0.098054 0.740194 -0.145051 1
0.083951 0.804714 -0.085569 1
0.053153 0.713092 -0.102771 1
0.111498 0.783903 -0.137047 1
0.051889 0.782018 -0.072113 1
0.083155 0.711978 -0.136924 1
0.099068 0.812963 -0.106670 1
0.041528 0.731182 -0.081297 1
0.107012 0.758615 -0.151523 1
0.072113 0.801573 -0.072333 1
0.060255 0.701382 -0.118173 1
0.113967 0.800824 -0.128204 1
0.039418 0.766740 -0.070486 1
0.095579 0.723055 -0.150703 1
0.092150 0.816938 -0.089890 1
0.041291 0.710912 -0.092392 1
0.116625 0.776928 -0.149212 1
0.055392 0.794605 -0.064967 1
0.072579 0.698490 -0.135971 1
0.109464 0.816892 -0.115564 1
0.032730 0.741849 -0.071570 1
0.107968 0.742036 -0.159271 1
0.080184 0.814709 -0.073234 1
0.048956 0.691863 -0.107794 1
0.120762 0.797539 -0.140889 1
0.039072 0.780661 -0.062381 1
0.089954 0.703189 -0.151277 1
0.103145 0.824023 -0.096842 1
0.028746 0.720083 -0.083153 1
0.117662 0.766235 -0.160963 1
0.063038 0.807515 -0.061230 1
0.064653 0.677928 -0.125486 1
0.120159 0.815183 -0.126311 1
0.027743 0.757071 -0.062812 1
0.103922 0.724088 -0.164631 1
0.092313 0.823729 -0.076368 1
0.036615 0.690120 -0.095120 1
0.125005 0.789645 -0.154069 1
0.042349 0.797021 -0.057636 1
0.080496 0.684175 -0.147421 1
0.116209 0.825581 -0.105633 1
0.020916 0.730813 -0.071088 1
0.116502 0.750308 -0.170133 1
0.073272 0.820376 -0.061882 1
0.051772 0.667624 -0.113353 1
0.127921 0.810429 -0.139743 1
0.026235 0.776121 -0.056768 1
0.097166 0.703129 -0.165560 1
0.105337 0.830477 -0.083702 1
0.022167 0.702420 -0.085241 1
0.125836 0.778153 -0.166943 1
0.050415 0.811891 -0.054457 1
0.071543 0.660824 -0.136048 1
0.128582 0.823265 -0.117273 1
0.014814 0.749686 -0.062613 1
0.112056 0.731161 -0.176427 1
0.088068 0.828824 -0.063768 1
0.035335 0.670389 -0.101513 1
0.132634 0.802149 -0.154312 1
0.030200 0.793761 -0.050974 1
0.090772 0.675417 -0.159516 1
0.122904 0.829793 -0.090824 1
0.011096 0.719040 -0.074647 1
0.123957 0.762489 -0.177933 1
0.062399 0.824892 -0.053649 1
0.055544 0.651298 -0.124247 1
0.136241 0.819809 -0.133041 1
0.014013 0.768520 -0.053909 1
0.107448 0.705063 -0.177247 1
0.105372 0.833864 -0.068539 1
0.019913 0.680699 -0.088593 1
0.132498 0.791981 -0.169588 1
0.038276 0.810889 -0.047504 1
0.081309 0.648069 -0.148124 1
0.055922 0.722036 -0.100097 1
0.054936 0.727469 -0.092538 1
0.051826 0.707555 -0.103524 1
0.066618 0.734938 -0.105147 1
0.041267 0.723110 -0.088588 1
0.064032 0.706939 -0.115113 1
0.059323 0.746734 -0.092346 1
0.038700 0.701861 -0.097227 1
0.073157 0.732218 -0.118528 1
0.040434 0.740695 -0.082191 1
0.053185 0.693037 -0.116125 1
0.069961 0.754870 -0.103384 1
0.028059 0.713874 -0.086016 1
0.073310 0.713314 -0.127698 1
0.050723 0.757741 -0.083241 1
0.040057 0.680350 -0.102592 1
0.081509 0.745748 -0.117296 1
0.028609 0.733300 -0.074966 1
0.067193 0.682795 -0.125027 1
0.067958 0.765038 -0.092247 1
0.022823 0.695405 -0.089278 1
0.084529 0.725170 -0.131368 1
0.039382 0.756126 -0.072754 1
0.046541 0.670032 -0.116050 1
0.081532 0.763569 -0.111118 1
0.016818 0.720655 -0.075279 1
0.076973 0.696070 -0.137608 1
0.057121 0.773231 -0.081653 1
0.026905 0.670034 -0.095710 1
0.090079 0.745281 -0.130036 1
0.024185 0.749662 -0.067917 1
0.059607 0.667043 -0.130248 1
0.075388 0.778718 -0.100596 1
0.010465 0.700007 -0.079785 1
0.086524 0.716604 -0.144357 1
0.043464 0.772173 -0.070059 1
0.037210 0.650755 -0.108609 1
0.091555 0.764679 -0.121743 1
0.010788 0.734352 -0.066702 1
0.074172 0.677330 -0.143639 1
0.068283 0.782488 -0.083337 1
0.011871 0.673652 -0.088265 1
0.095595 0.737709 -0.142489 1
0.026310 0.765493 -0.062910 1
0.052645 0.643154 -0.125453 1
0.086112 0.782794 -0.109601 1
0.003170 0.708040 -0.067804 1
0.087941 0.697646 -0.152134 1
0.051571 0.786041 -0.071293 1
0.026260 0.636401 -0.095882 1
0.097794 0.762366 -0.135306 1
0.010364 0.749635 -0.059035 1
0.070271 0.650838 -0.142595 1
0.078479 0.791281 -0.091507 1
0.001205 0.678471 -0.075747 1
0.096849 0.726239 -0.154636 1
0.032027 0.782118 -0.062105 1
0.045678 0.614219 -0.111978 1
0.096009 0.782143 -0.121267 1
-0.003427 0.728610 -0.062057 1
0.083814 0.677546 -0.157735 1
0.064932 0.793666 -0.073203 1
0.010978 0.639156 -0.084842 1
0.102278 0.754100 -0.148751 1
0.014021 0.766795 -0.054375 1
0.063274 0.622031 -0.135804 1
0.088056 0.797000 -0.103526 1
-0.009228 0.696557 -0.067367 1
0.096396 0.707961 -0.163802 1
0.042661 0.794703 -0.062469 1
0.027278 0.612227 -0.103359 1
0.102958 0.778422 -0.135551 1
-0.003372 0.746273 -0.054292 1
0.083671 0.640909 -0.154059 1
0.076845 0.801995 -0.081818 1
-0.001004 0.644536 -0.069682 1
0.105936 0.738568 -0.160414 1
0.022109 0.782700 -0.051761 1
0.056255 0.586554 -0.120356 1
0.098096 0.797075 -0.116853 1
-0.013946 0.714234 -0.057003 1
0.095350 0.681238 -0.168427 1
0.056758 0.803733 -0.065039 1
0.015440 0.599175 -0.083033 1
0.108129 0.769598 -0.150105 1
0.000015 0.766743 -0.050317 1
0.076448 0.607733 -0.147374 1
0.088266 0.807515 -0.094177 1
-0.014254 0.668662 -0.061490 1
0.105136 0.720346 -0.171354 1
0.032245 0.799074 -0.053964 1
0.040370 0.569367 -0.105007 1
0.108120 0.791191 -0.130805 1
-0.015427 0.737149 -0.050337 1
0.090479 0.651171 -0.169313 1
0.072369 0.810083 -0.071193 1
-0.000547 0.608658 -0.067478 1
0.110740 0.756166 -0.164240 1
0.008301 0.784620 -0.047262 1
0.062263 0.582214 -0.137471 1
0.031938 0.693931 -0.102586 1
0.031032 0.699289 -0.094830 1
0.029519 0.674783 -0.104024 1
0.046240 0.701571 -0.104308 1
0.018459 0.692238 -0.089336 1
0.044516 0.669351 -0.113443 1
0.037785 0.715929 -0.092391 1
0.018012 0.664185 -0.095204 1
0.054723 0.695963 -0.116479 1
0.017803 0.710991 -0.082943 1
0.037317 0.645541 -0.110380 1
0.053074 0.717591 -0.099344 1
0.005153 0.681934 -0.086377 1
0.056089 0.673208 -0.124867 1
0.029450 0.727120 -0.082848 1
0.023739 0.629514 -0.095278 1
0.063246 0.710619 -0.115271 1
0.004145 0.706438 -0.077695 1
0.049201 0.639696 -0.122258 1
0.047521 0.733949 -0.091479 1
0.003402 0.652202 -0.084279 1
0.066004 0.689144 -0.130047 1
0.016518 0.727884 -0.073919 1
0.034155 0.609745 -0.105891 1
0.064494 0.727981 -0.107911 1
-0.005261 0.686706 -0.073917 1
0.062758 0.648814 -0.132880 1
0.035524 0.744394 -0.081970 1
0.010801 0.614417 -0.086252 1
0.072138 0.710316 -0.128361 1
0.001078 0.721246 -0.069007 1
0.048828 0.605520 -0.120880 1
0.060298 0.741148 -0.095111 1
-0.008802 0.655334 -0.073223 1
0.072014 0.673585 -0.140649 1
0.021215 0.744040 -0.070798 1
0.023199 0.588337 -0.098269 1
0.074602 0.729650 -0.119058 1
-0.010956 0.700744 -0.064732 1
0.064633 0.618032 -0.135512 1
0.046984 0.753729 -0.083530 1
-0.004503 0.616350 -0.077109 1
0.078410 0.701519 -0.140790 1
0.003085 0.738611 -0.064596 1
0.040539 0.578382 -0.116009 1
0.069348 0.748562 -0.106342 1
-0.015840 0.662380 -0.059574 1
0.075606 0.648776 -0.147389 1
0.029404 0.758786 -0.072325 1
0.008188 0.579133 -0.087903 1
0.081655 0.726673 -0.132624 1
-0.012133 0.719349 -0.058612 1
0.055288 0.597803 -0.138332 1
0.060040 0.759262 -0.089141 1
-0.016744 0.623854 -0.064772 1
0.080308 0.688541 -0.153050 1
0.009781 0.754724 -0.062917 1
0.025502 0.562468 -0.108604 1
0.078710 0.749102 -0.118990 1
-0.024800 0.692226 -0.058261 1
0.075504 0.617971 -0.150546 1
0.042751 0.766636 -0.074375 1
-0.008656 0.583608 -0.076743 1
0.086547 0.717757 -0.146399 1
-0.008926 0.739209 -0.055351 1
