ply
format ascii 1.0
element vertex 1622
property float x
property float y
property float z
property uchar label
end_header
0.157386 1.399123 0.953693 0
-0.441824 1.199174 0.901818 0
0.181743 0.891373 0.947887 0
-0.119249 1.544652 0.911925 0
-0.352241 0.842920 0.955358 0
0.294374 1.231673 0.945306 0
-0.421615 1.399344 0.965491 0
-0.011288 0.837306 0.741022 0
0.090343 1.540045 0.903318 0
-0.484009 1.081591 0.815084 0
0.328799 0.967929 0.966198 0
-0.258515 1.579318 0.861030 0
-0.241859 0.818334 0.726981 0
0.299055 1.396607 0.941121 0
-0.548338 1.288352 0.966411 0
0.149086 0.837161 0.740340 0
-0.027665 1.639180 0.938052 0
-0.491894 0.863768 0.896132 0
0.471406 1.080537 1.111288 0
-0.419429 1.540428 0.901906 0
-0.098517 0.806153 0.600538 0
0.217676 1.562528 0.889071 0
-0.576848 1.175054 0.774528 0
0.332641 0.872192 0.832105 0
-0.193969 1.685818 0.946286 0
-0.362092 0.822893 0.654554 0
0.439039 1.326161 0.962528 0
-0.576753 1.428036 0.935518 0
0.067295 0.812679 0.561458 0
0.099567 1.690120 0.966234 0
-0.579605 0.994305 0.739284 0
0.536519 0.946798 1.048354 0
-0.361381 1.664138 0.803091 0
-0.208558 0.774832 0.541834 0
0.354632 1.532405 0.891111 0
-0.696683 1.246835 0.947696 0
0.262852 0.821507 0.644280 0
-0.083216 1.768795 0.989496 0
-0.507271 0.808957 0.704835 0
0.600294 1.178418 1.072127 0
-0.547311 1.572482 0.875424 0
-0.023621 0.715116 0.548153 0
0.218495 1.694789 0.858095 0
-0.663393 1.106380 0.704922 0
0.542449 0.798659 0.967288 0
-0.273527 1.758265 0.716442 0
-0.336501 0.761279 0.524332 0
0.496481 1.452404 0.912322 0
-0.719117 1.399000 0.942080 0
0.169228 0.770587 0.512962 0
0.056541 1.815343 0.987203 0
-0.666783 0.826987 0.796003 0
0.639699 1.046849 0.961516 0
-0.474411 1.700996 0.800115 0
0.345227 1.659415 0.806414 0
-0.724305 1.234033 0.705367 0
0.385795 0.819066 0.617181 0
-0.170855 1.853638 0.913982 0
-0.476406 0.772138 0.538104 0
0.650178 1.314997 0.979121 0
-0.674482 1.561259 0.871645 0
0.192869 1.813066 0.883816 0
-0.721426 1.011406 0.658431 0
0.581711 0.951063 0.752698 0
-0.364497 1.797361 0.667377 0
0.499288 1.581953 0.843443 0
-0.847000 1.332569 0.943619 0
0.355839 0.596939 0.694900 0
-0.025186 1.906357 0.924576 0
-0.623748 0.808575 0.584675 0
0.788747 1.121312 1.046727 0
-0.590669 1.704544 0.794958 0
0.287360 1.765391 0.680480 0
-0.977597 1.000360 1.059757 0
0.548766 0.794133 0.692067 0
-0.255202 1.875270 0.657234 0
0.659168 1.455032 0.897796 0
-0.806485 1.514694 0.891645 0
-0.124006 1.177084 0.917361 0
-0.187300 1.233442 0.924973 0
-0.110696 1.047038 0.924213 0
-0.037138 1.293943 0.935240 0
-0.294256 1.133142 0.950050 0
0.043898 1.063867 0.937081 0
-0.180880 1.369373 0.971951 0
-0.228830 0.945194 0.951412 0
0.098957 1.262951 0.927402 0
-0.361198 1.265669 0.949123 0
0.004480 0.891940 0.963802 0
-0.045576 1.440679 0.961171 0
-0.377971 1.026945 0.888171 0
0.180750 1.112171 0.916886 0
-0.308099 1.426844 0.966498 0
-0.161719 0.852958 0.844778 0
0.130812 1.393801 0.965034 0
-0.465449 1.197615 0.880602 0
0.155083 0.888330 0.948251 0
-0.146927 1.540371 0.904904 0
-0.377029 0.842538 0.938309 0
0.262089 1.233206 0.930742 0
-0.450622 1.392670 0.964702 0
-0.034515 0.836962 0.733740 0
0.062738 1.535996 0.905342 0
-0.505342 1.081431 0.793000 0
0.286032 0.988745 0.912343 0
-0.286965 1.573265 0.876492 0
-0.263513 0.819393 0.712609 0
0.272615 1.392205 0.951842 0
-0.576018 1.282193 0.957703 0
0.124003 0.840703 0.729711 0
-0.057442 1.635025 0.915394 0
-0.512552 0.868163 0.866989 0
0.442805 1.076010 1.121928 0
-0.445900 1.535228 0.890878 0
-0.119636 0.822726 0.567013 0
0.191608 1.558460 0.899964 0
-0.599864 1.170644 0.761240 0
0.311914 0.862792 0.849027 0
-0.221409 1.680426 0.915923 0
-0.383396 0.817756 0.648408 0
0.412318 1.322234 0.973777 0
-0.608487 1.419661 0.941805 0
0.046405 0.814561 0.554142 0
0.070887 1.685906 0.971940 0
-0.607879 0.980884 0.746058 0
0.512215 0.939434 1.066951 0
-0.390139 1.658940 0.815211 0
-0.227642 0.772495 0.535180 0
0.325431 1.529650 0.891820 0
-0.724954 1.239508 0.939487 0
0.240583 0.821147 0.643770 0
-0.112890 1.763778 0.987312 0
-0.519301 0.826341 0.658400 0
0.556908 1.184850 1.047154 0
-0.575478 1.566309 0.871750 0
-0.043970 0.721835 0.533215 0
0.202445 1.692148 0.914508 0
-0.688964 1.097721 0.701164 0
0.516935 0.794609 0.977456 0
-0.298285 1.753417 0.710686 0
-0.354678 0.760107 0.513574 0
0.471743 1.448567 0.928522 0
-0.749428 1.391149 0.938442 0
0.148539 0.773452 0.507089 0
0.028962 1.812681 1.010361 0
-0.690154 0.821125 0.783859 0
0.605500 1.049992 0.956093 0
-0.499320 1.695376 0.788141 0
0.318414 1.656362 0.812018 0
-0.757757 1.220593 0.717960 0
0.355681 0.832061 0.598394 0
-0.198790 1.845949 0.888980 0
-0.495811 0.766626 0.530369 0
0.619319 1.313576 0.984395 0
-0.703783 1.554507 0.868471 0
0.170307 1.811865 0.916467 0
-0.740629 1.008456 0.640315 0
0.568637 0.938598 0.782992 0
-0.392541 1.794614 0.684774 0
0.477101 1.578649 0.864253 0
-0.881444 1.322278 0.946227 0
0.272953 0.729013 0.521187 0
-0.050084 1.911662 0.993379 0
-0.646088 0.799098 0.579773 0
0.752380 1.123454 1.044785 0
-0.617771 1.698793 0.789938 0
0.268360 1.763861 0.705731 0
-1.009140 0.990086 1.049946 0
0.544824 0.769119 0.737319 0
-0.273564 1.860756 0.589087 0
0.633924 1.452117 0.913682 0
-0.838048 1.506943 0.889822 0
-0.141849 1.170729 0.920208 0
-0.205384 1.227093 0.927841 0
-0.128660 1.041685 0.923262 0
-0.056228 1.292702 0.917782 0
-0.310009 1.136306 0.921003 0
0.024260 1.063775 0.923199 0
-0.199360 1.363551 0.973852 0
-0.247644 0.935745 0.958186 0
0.078855 1.261417 0.913801 0
-0.378746 1.261644 0.941026 0
-0.014510 0.889836 0.956152 0
-0.063492 1.434534 0.968060 0
-0.397953 1.015644 0.899640 0
0.162281 1.107993 0.915590 0
-0.326641 1.421334 0.966164 0
-0.178590 0.858968 0.821340 0
0.111308 1.389698 0.959605 0
-0.479871 1.197062 0.861066 0
0.134780 0.888519 0.937356 0
-0.164808 1.532664 0.938210 0
-0.392566 0.846376 0.915590 0
0.241301 1.230986 0.922131 0
-0.470085 1.386493 0.966835 0
-0.052174 0.845051 0.710287 0
0.046896 1.529672 0.921959 0
-0.523087 1.074949 0.792182 0
0.268504 0.982993 0.916061 0
-0.305972 1.567293 0.892008 0
-0.279207 0.815905 0.707179 0
0.252476 1.388210 0.947337 0
-0.593390 1.277842 0.948747 0
0.103953 0.848711 0.707928 0
-0.074624 1.629676 0.928080 0
-0.530003 0.863188 0.861017 0
0.393599 1.100084 1.033239 0
-0.467509 1.528531 0.908497 0
-0.133804 0.811021 0.576265 0
0.174638 1.553113 0.906261 0
-0.613459 1.168953 0.746589 0
0.293625 0.859626 0.847706 0
-0.237332 1.675053 0.879736 0
-0.396814 0.819605 0.633637 0
0.394544 1.316419 0.980468 0
-0.630715 1.412412 0.950798 0
0.030732 0.817020 0.543805 0
0.051198 1.680479 0.963140 0
-0.624187 0.976130 0.739766 0
0.502537 0.922723 1.098500 0
-0.407668 1.654166 0.817456 0
-0.241381 0.771533 0.527459 0
0.310634 1.523695 0.905757 0
-0.740978 1.235958 0.926499 0
0.220099 0.828578 0.626184 0
-0.131459 1.758090 0.981107 0
-0.531118 0.829706 0.639640 0
0.543526 1.175135 1.067771 0
-0.596412 1.560610 0.879996 0
-0.057706 0.714931 0.535237 0
0.189998 1.687372 0.943537 0
-0.702589 1.095457 0.688674 0
0.520276 0.759870 1.038517 0
-0.313234 1.748571 0.703148 0
-0.369256 0.752952 0.513120 0
0.452791 1.443648 0.931432 0
-0.774941 1.382757 0.951429 0
0.134712 0.769660 0.507166 0
0.011186 1.808099 1.022205 0
-0.692624 0.838095 0.737777 0
0.593979 1.038942 0.977268 0
-0.521037 1.691153 0.806398 0
0.307258 1.651333 0.835265 0
-0.759550 1.226286 0.678113 0
0.345588 0.820015 0.613226 0
-0.213422 1.832741 0.815548 0
-0.512539 0.755738 0.533683 0
0.592657 1.311896 0.972858 0
-0.725872 1.548723 0.875694 0
0.166054 1.813065 0.991708 0
-0.739312 1.022182 0.595629 0
0.560144 0.925391 0.805270 0
-0.411116 1.791874 0.700235 0
0.460788 1.573421 0.872753 0
-0.905106 1.314696 0.949870 0
-0.067896 1.908313 1.008817 0
-0.658660 0.798326 0.567236 0
0.733020 1.117859 1.052056 0
-0.642850 1.694752 0.812039 0
0.256712 1.760222 0.723960 0
-1.045677 0.971395 1.073702 0
0.531349 0.760873 0.747384 0
-0.289775 1.859327 0.606229 0
0.612638 1.447816 0.913591 0
-0.862999 1.500383 0.899100 0
-0.148707 1.169161 0.919401 0
-0.212538 1.223609 0.933913 0
-0.135258 1.033313 0.940277 0
-0.062990 1.290614 0.919868 0
-0.317309 1.133174 0.924136 0
0.019340 1.055652 0.940989 0
-0.206607 1.361301 0.976393 0
-0.254364 0.935463 0.953605 0
0.072593 1.258860 0.918325 0
-0.386081 1.259320 0.942006 0
-0.020936 0.885644 0.961260 0
-0.070441 1.432393 0.971870 0
-0.405045 1.012995 0.900168 0
0.156674 1.104388 0.922251 0
-0.334772 1.418288 0.974258 0
-0.184701 0.863883 0.807898 0
0.104766 1.387596 0.963628 0
-0.486609 1.195264 0.859482 0
0.129754 0.882164 0.947746 0
-0.171957 1.530484 0.944974 0
-0.398369 0.847724 0.907501 0
0.234269 1.229718 0.922311 0
-0.477180 1.384763 0.964837 0
-0.058587 0.847941 0.702193 0
0.040896 1.527478 0.930749 0
-0.531293 1.070377 0.797403 0
0.262607 0.980170 0.920079 0
-0.313572 1.565257 0.898006 0
-0.284029 0.821433 0.693887 0
0.248025 1.384982 0.959085 0
-0.598305 1.277869 0.938515 0
0.097227 0.850088 0.703175 0
-0.082527 1.628497 0.909668 0
-0.535448 0.863728 0.854078 0
0.412348 1.071567 1.118351 0
-0.475001 1.526608 0.909521 0
-0.139242 0.813010 0.570295 0
0.169895 1.550924 0.918213 0
-0.619300 1.167718 0.742914 0
0.283424 0.865106 0.835082 0
-0.243701 1.673407 0.869435 0
-0.401556 0.821143 0.626849 0
0.387820 1.314727 0.983255 0
-0.637558 1.410725 0.947573 0
0.025568 0.815464 0.543974 0
0.044422 1.678978 0.967473 0
-0.633401 0.969993 0.746505 0
0.496370 0.919772 1.103542 0
-0.415445 1.652544 0.822739 0
-0.246858 0.767310 0.530060 0
0.305439 1.521784 0.913270 0
-0.747907 1.234114 0.923526 0
0.213354 0.830069 0.622252 0
-0.138705 1.756967 0.990062 0
-0.535706 0.830523 0.633333 0
0.542327 1.169290 1.085719 0
-0.604051 1.558709 0.880607 0
-0.061251 0.697037 0.556338 0
0.181629 1.685823 0.938649 0
-0.709495 1.092876 0.688124 0
0.511889 0.760116 1.036654 0
-0.323952 1.749464 0.740777 0
-0.378539 0.734327 0.534382 0
0.446593 1.442005 0.935467 0
-0.783176 1.380365 0.951517 0
0.133086 0.757740 0.521896 0
0.004311 1.807067 1.029637 0
-0.697659 0.837957 0.731935 0
0.584320 1.039820 0.973216 0
-0.527394 1.689515 0.803554 0
0.302409 1.649977 0.843087 0
-0.762029 1.227177 0.667127 0
0.333609 0.829918 0.596717 0
-0.220197 1.831373 0.816348 0
-0.520581 0.747244 0.540855 0
0.586143 1.310278 0.976452 0
-0.734374 1.546622 0.877599 0
0.161620 1.812958 1.008864 0
-0.690229 1.080095 0.471480 0
0.563162 0.914508 0.826960 0
-0.420073 1.791731 0.713564 0
0.455721 1.571877 0.879333 0
-0.911193 1.313212 0.944214 0
-0.074363 1.909856 1.031389 0
-0.661009 0.801964 0.556596 0
0.729285 1.114271 1.061864 0
-0.649709 1.693092 0.810476 0
0.259088 1.761092 0.756195 0
-1.046445 0.974386 1.056127 0
0.527435 0.756948 0.753333 0
-0.295987 1.858406 0.608269 0
0.605660 1.446562 0.915951 0
-0.873746 1.497656 0.904497 0
-0.134313 1.170068 0.919875 0
-0.198025 1.226674 0.926053 0
-0.120425 1.037296 0.932573 0
-0.047964 1.288419 0.934928 0
-0.305084 1.125587 0.950371 0
0.033724 1.059102 0.934764 0
-0.192490 1.362087 0.977635 0
-0.239298 0.933439 0.960618 0
0.087633 1.259179 0.922766 0
-0.372452 1.258598 0.947864 0
-0.004351 0.882259 0.970866 0
-0.056308 1.433285 0.975080 0
-0.392941 1.006003 0.919815 0
0.171726 1.105848 0.921840 0
-0.320180 1.419839 0.968433 0
-0.170503 0.844335 0.847054 0
0.119649 1.388743 0.966859 0
-0.474304 1.193005 0.869147 0
0.147444 0.878693 0.957382 0
-0.158592 1.531646 0.944136 0
-0.386121 0.836972 0.931092 0
0.248440 1.232213 0.918981 0
-0.463071 1.384999 0.965943 0
-0.044878 0.850785 0.698684 0
0.054806 1.528904 0.933785 0
-0.515607 1.073227 0.792045 0
0.278143 0.981898 0.918769 0
-0.298833 1.567096 0.878426 0
-0.269357 0.827367 0.685645 0
0.260562 1.388443 0.950050 0
-0.584184 1.277546 0.941328 0
0.111647 0.850404 0.703865 0
-0.068301 1.629363 0.936079 0
-0.522255 0.859794 0.863980 0
0.425521 1.077689 1.104732 0
-0.461836 1.526734 0.910981 0
-0.126157 0.814141 0.569788 0
0.181664 1.553609 0.908849 0
-0.605915 1.167523 0.744989 0
0.302427 0.860286 0.846084 0
-0.233941 1.674675 0.922620 0
-0.387272 0.824279 0.623652 0
0.403959 1.316627 0.984351 0
-0.621535 1.411515 0.942513 0
0.038136 0.818453 0.540330 0
0.061073 1.681166 0.994092 0
-0.621464 0.966675 0.755500 0
0.505207 0.931698 1.077784 0
-0.401583 1.652873 0.812997 0
-0.233621 0.771118 0.526103 0
0.318301 1.524574 0.908362 0
-0.734252 1.232917 0.928818 0
0.226940 0.831889 0.620043 0
-0.125763 1.758277 0.989870 0
-0.530515 0.811530 0.666172 0
0.556512 1.173806 1.076894 0
-0.586534 1.559492 0.865997 0
-0.048637 0.705203 0.546427 0
0.193728 1.688077 0.932257 0
-0.696899 1.091658 0.692716 0
0.525593 0.767324 1.024389 0
-0.309410 1.748129 0.710484 0
-0.367960 0.723476 0.550665 0
0.461135 1.444847 0.933196 0
-0.766767 1.380620 0.948667 0
0.144147 0.765255 0.511979 0
0.016663 1.808245 1.020741 0
-0.692796 0.822735 0.760969 0
0.595522 1.046742 0.958724 0
-0.514454 1.689314 0.800861 0
0.313411 1.652658 0.835075 0
-0.777109 1.206075 0.734873 0
0.345029 0.835504 0.588320 0
-0.209571 1.834866 0.839243 0
-0.505937 0.750987 0.537756 0
0.604503 1.312074 0.979727 0
-0.720308 1.546106 0.877633 0
0.169162 1.812754 0.977977 0
-0.753496 0.996149 0.644263 0
0.557447 0.938624 0.779053 0
-0.403925 1.789227 0.685062 0
0.468770 1.575018 0.875117 0
-0.896081 1.312373 0.946784 0
-0.063514 1.906345 0.994893 0
-0.645737 0.805161 0.554174 0
0.745842 1.117853 1.057139 0
-0.632293 1.692223 0.795796 0
0.259307 1.760922 0.714439 0
-1.027077 0.975315 1.055314 0
0.528636 0.777600 0.720225 0
-0.286383 1.859377 0.611330 0
0.619405 1.450174 0.910649 0
-0.854625 1.497831 0.895383 0
-0.104515 1.164880 0.922587 0
-0.168682 1.221405 0.929192 0
-0.089396 1.030387 0.938433 0
-0.019069 1.285841 0.929156 0
-0.275262 1.118106 0.958603 0
0.065143 1.054121 0.936202 0
-0.163269 1.356551 0.984171 0
-0.207856 0.924182 0.970361 0
0.118687 1.253981 0.929345 0
-0.343477 1.252131 0.954103 0
0.028980 0.874665 0.976035 0
-0.027297 1.429510 0.975755 0
-0.363223 0.997396 0.929038 0
0.201949 1.103906 0.915659 0
-0.291576 1.414535 0.971548 0
-0.140066 0.857921 0.811709 0
0.149687 1.385572 0.967683 0
-0.448879 1.181766 0.890191 0
0.179977 0.875666 0.952653 0
-0.130867 1.527396 0.947413 0
-0.353651 0.833508 0.928092 0
0.285026 1.223614 0.939180 0
-0.434100 1.379060 0.969103 0
-0.016047 0.845824 0.698474 0
0.083127 1.525951 0.935239 0
-0.492218 1.058383 0.817955 0
0.323488 0.959439 0.961203 0
-0.273324 1.561619 0.892431 0
-0.240646 0.825996 0.680175 0
0.291017 1.386136 0.949282 0
-0.553947 1.271764 0.942235 0
0.142677 0.841759 0.709496 0
-0.040950 1.625927 0.940522 0
-0.493445 0.848761 0.876451 0
0.467028 1.069040 1.119402 0
-0.435032 1.520710 0.916938 0
-0.099829 0.818602 0.555620 0
0.207697 1.552290 0.898616 0
-0.581313 1.158166 0.758428 0
0.335492 0.855405 0.844826 0
-0.207737 1.670366 0.929728 0
-0.359098 0.822143 0.620342 0
0.435952 1.314898 0.981388 0
-0.591888 1.405284 0.943621 0
0.064753 0.815466 0.536630 0
0.086630 1.678462 0.976947 0
-0.598447 0.951290 0.778676 0
0.527972 0.943155 1.037973 0
-0.376331 1.647689 0.813894 0
-0.207189 0.767728 0.524347 0
0.346438 1.523583 0.903491 0
-0.700485 1.228710 0.922710 0
0.256369 0.826996 0.618453 0
-0.098841 1.754578 0.990392 0
-0.493339 0.827572 0.633860 0
0.590843 1.172671 1.070331 0
-0.562468 1.552353 0.880326 0
-0.018341 0.679645 0.572342 0
0.213032 1.686027 0.894892 0
-0.668223 1.086810 0.693709 0
0.529390 0.805355 0.938860 0
-0.288701 1.745036 0.734568 0
-0.337684 0.734850 0.529741 0
0.491554 1.444197 0.928943 0
-0.734531 1.374447 0.946427 0
0.170466 0.763968 0.505159 0
0.042462 1.804450 1.007165 0
-0.654377 0.830315 0.740753 0
0.625186 1.048745 0.942681 0
-0.488989 1.683344 0.801388 0
0.338476 1.652074 0.826834 0
-0.722617 1.220067 0.674755 0
0.383212 0.817810 0.606191 0
-0.187071 1.839236 0.916587 0
-0.478027 0.748923 0.535703 0
0.642522 1.309312 0.985019 0
-0.690746 1.539348 0.876338 0
0.180149 1.804342 0.898329 0
-0.730904 0.984125 0.660749 0
0.573966 0.951952 0.741083 0
-0.384185 1.785592 0.703190 0
0.497511 1.575033 0.870845 0
-0.863558 1.305318 0.948407 0
0.443079 0.411877 0.921878 0
-0.039238 1.899366 0.967857 0
-0.616924 0.802894 0.552871 0
0.788582 1.113305 1.062176 0
-0.607940 1.685561 0.802555 0
0.277103 1.759122 0.691559 0
-0.991253 0.967832 1.059914 0
0.538229 0.803028 0.668129 0
-0.267895 1.859006 0.637919 0
0.650870 1.450408 0.905665 0
-0.829332 1.489000 0.909223 0
-0.072051 1.142057 0.923908 0
-0.136698 1.199749 0.928102 0
-0.054585 0.996242 0.964422 0
0.013361 1.264355 0.928765 0
-0.242907 1.094150 0.961877 0
0.100148 1.028733 0.939817 0
-0.130751 1.333407 0.991363 0
-0.174219 0.900016 0.968793 0
0.153022 1.231219 0.932617 0
-0.311046 1.231302 0.949828 0
0.060601 0.863623 0.943885 0
0.005343 1.408135 0.977138 0
-0.331914 0.970785 0.937119 0
0.239867 1.076513 0.926447 0
-0.260949 1.390017 0.990500 0
-0.109168 0.846615 0.787183 0
0.183063 1.364828 0.965261 0
-0.417552 1.160620 0.889261 0
0.211464 0.861106 0.927175 0
-0.099458 1.506195 0.953539 0
-0.318243 0.822678 0.901169 0
0.327235 1.195074 0.961121 0
-0.402729 1.356446 0.974140 0
0.010976 0.840798 0.665363 0
0.116198 1.505309 0.941967 0
-0.468311 1.024632 0.848798 0
0.354033 0.944765 0.934405 0
-0.245061 1.539039 0.923390 0
-0.209439 0.836636 0.624819 0
0.326380 1.365090 0.950385 0
-0.521202 1.250644 0.940147 0
0.161456 0.853205 0.646651 0
-0.011970 1.606655 0.917342 0
-0.460770 0.828460 0.870480 0
0.505122 1.046771 1.107466 0
-0.406147 1.498413 0.930369 0
-0.072923 0.804432 0.541598 0
0.242692 1.532239 0.910017 0
-0.554157 1.135482 0.766602 0
0.360432 0.848973 0.805557 0
-0.177578 1.649864 0.938672 0
-0.328653 0.815509 0.596233 0
0.475083 1.292408 0.984378 0
-0.563379 1.381140 0.959297 0
0.094089 0.791286 0.535443 0
0.116685 1.658618 0.965568 0
-0.584864 0.901753 0.836865 0
0.548719 0.938796 0.982813 0
-0.351860 1.627281 0.847011 0
-0.180946 0.738340 0.532244 0
0.379886 1.504677 0.901696 0
-0.637403 1.233773 0.827146 0
0.269649 0.840833 0.555931 0
-0.067801 1.733864 0.989646 0
-0.460541 0.821384 0.610032 0
0.635037 1.147333 1.072985 0
-0.535283 1.530182 0.896371 0
0.244034 1.667638 0.893443 0
-0.643385 1.062930 0.705125 0
0.540222 0.815523 0.864107 0
-0.264247 1.727863 0.765944 0
0.531283 1.423453 0.935292 0
-0.705403 1.350326 0.959681 0
0.072271 1.783352 0.994258 0
-0.623491 0.811552 0.736437 0
0.635441 1.048895 0.875629 0
-0.462571 1.663312 0.814453 0
0.368609 1.634855 0.821854 0
-0.694465 1.201003 0.676953 0
0.422103 0.786550 0.611734 0
-0.157639 1.819704 0.925117 0
-0.455391 0.718580 0.547526 0
0.705316 1.277968 1.027965 0
-0.666556 1.516053 0.900861 0
0.214784 1.787638 0.917294 0
-0.708730 0.957085 0.676822 0
0.587209 0.952493 0.688101 0
-0.357815 1.766915 0.705198 0
0.529863 1.557580 0.864041 0
-0.828447 1.283838 0.947667 0
0.413194 0.524479 0.730201 0
-0.008437 1.880210 0.975842 0
-0.589110 0.786657 0.547648 0
0.840013 1.085365 1.069078 0
-0.580879 1.665051 0.813215 0
0.313435 1.745217 0.716571 0
-0.757807 1.119325 0.627418 0
0.570749 0.784176 0.652028 0
-0.244626 1.844367 0.661012 0
0.698083 1.429037 0.920365 0
-0.800264 1.465909 0.921653 0
-0.049004 1.093952 0.934159 0
-0.114517 1.154603 0.934111 0
-0.028616 0.928883 1.009731 0
0.037890 1.218455 0.937982 0
-0.221956 1.046496 0.969717 0
0.125397 0.978629 0.943904 0
-0.108651 1.301445 0.939954 0
-0.152778 0.878280 0.911391 0
0.178318 1.185894 0.933870 0
-0.289271 1.190438 0.945323 0
0.073387 0.852661 0.863482 0
0.031071 1.362797 0.992062 0
-0.316646 0.905526 0.981111 0
0.269216 1.023754 0.937927 0
-0.238566 1.346417 1.000654 0
-0.092020 0.834333 0.724339 0
0.211544 1.318135 0.978864 0
-0.398261 1.118824 0.891650 0
0.220075 0.847134 0.851226 0
-0.075296 1.463310 0.970302 0
-0.291680 0.821514 0.814685 0
0.374699 1.127757 1.026666 0
-0.381017 1.314891 0.977588 0
0.019378 0.849262 0.575186 0
0.145986 1.460094 0.971916 0
-0.464129 0.952285 0.919441 0
0.380762 0.895402 0.927501 0
-0.224441 1.495071 0.970107 0
-0.192268 0.814571 0.589242 0
0.361984 1.314898 0.978605 0
-0.491401 1.221777 0.897873 0
0.171044 0.838168 0.592247 0
0.011097 1.566926 0.912566 0
-0.424398 0.840313 0.765163 0
0.528621 1.001369 1.082767 0
-0.387240 1.456316 0.955699 0
-0.054649 0.745677 0.558368 0
0.273063 1.488821 0.930073 0
-0.541676 1.090837 0.784887 0
0.370143 0.825714 0.752302 0
-0.154021 1.610770 0.916137 0
-0.310167 0.796370 0.559615 0
0.519034 1.236372 1.020927 0
-0.542134 1.340946 0.963247 0
0.115531 0.738575 0.540107 0
0.134587 1.618241 0.925488 0
-0.567968 0.860600 0.833569 0
0.536169 0.932252 0.875897 0
-0.335983 1.587838 0.901394 0
0.416343 1.459189 0.930066 0
-0.600049 1.214514 0.767119 0
0.286646 0.806071 0.533747 0
-0.044451 1.692306 0.970715 0
-0.437831 0.808654 0.565402 0
0.667064 1.096299 1.067826 0
-0.518636 1.489909 0.922512 0
0.264675 1.627822 0.877624 0
-0.632021 1.020739 0.717204 0
0.557714 0.778141 0.829359 0
-0.248619 1.694436 0.858621 0
0.560820 1.378963 0.935136 0
-0.679838 1.313679 0.949173 0
0.097062 1.741650 0.993143 0
-0.571851 0.842638 0.615969 0
0.631279 1.028234 0.801400 0
-0.449842 1.626339 0.864741 0
0.406498 1.594263 0.857996 0
-0.684855 1.160623 0.695351 0
0.463933 0.713054 0.639318 0
-0.133412 1.783283 0.968050 0
0.760337 1.218249 1.068397 0
-0.651991 1.475874 0.928435 0
0.229517 1.745123 0.875771 0
-0.705204 0.905927 0.702533 0
0.589699 0.931332 0.632558 0
-0.341694 1.734898 0.743947 0
0.565997 1.514586 0.882145 0
-0.804993 1.246714 0.943352 0
0.415783 0.516908 0.660312 0
0.016943 1.839813 0.983583 0
-0.582494 0.738523 0.557775 0
0.858909 1.042328 1.033630 0
-0.564351 1.629064 0.837079 0
0.035733 0.071837 0.903912 0
0.348170 1.710455 0.751466 0
-0.748960 1.080113 0.641147 0
0.586037 0.750650 0.618243 0
-0.228629 1.820183 0.746363 0
0.732691 1.383290 0.924723 0
-0.785669 1.425635 0.944785 0
-0.019063 1.062379 0.957083 0
-0.086473 1.133916 0.929635 0
-0.001352 0.910287 0.992578 0
0.066796 1.196531 0.932771 0
-0.194171 1.025843 0.966147 0
0.158208 0.943351 0.963200 0
-0.079229 1.279086 0.944937 0
-0.127188 0.866785 0.885946 0
0.206434 1.164200 0.922043 0
-0.262898 1.163111 0.970504 0
0.087456 0.868677 0.780904 0
0.062384 1.339799 0.993228 0
-0.290421 0.881455 0.985633 0
0.296794 1.000765 0.924430 0
-0.208468 1.325268 1.004717 0
-0.073268 0.855960 0.646493 0
0.243027 1.294098 0.975507 0
-0.371540 1.100514 0.891146 0
0.228911 0.859509 0.772558 0
-0.043466 1.440117 0.987020 0
-0.265220 0.822905 0.773400 0
0.428825 1.078772 1.088903 0
-0.352063 1.294811 0.983526 0
0.040631 0.826013 0.572644 0
0.176460 1.438226 0.963254 0
-0.443839 0.919698 0.950288 0
0.444145 0.819488 1.018843 0
-0.193935 1.474428 0.978663 0
-0.172134 0.808799 0.565066 0
0.399200 1.286423 0.988586 0
-0.461297 1.207974 0.886363 0
0.189769 0.823500 0.571883 0
0.042898 1.545596 0.921405 0
-0.389075 0.864202 0.689200 0
0.554226 0.979509 1.053132 0
-0.360284 1.434473 0.983124 0
-0.028714 0.669208 0.628059 0
0.310411 1.463444 0.946787 0
-0.518143 1.073038 0.790448 0
0.367636 0.844700 0.665393 0
-0.123494 1.591627 0.908182 0
-0.289332 0.791714 0.537814 0
0.569588 1.198290 1.054989 0
-0.513262 1.322707 0.969405 0
0.128296 0.740769 0.499156 0
0.164335 1.597108 0.913719 0
-0.552511 0.826617 0.865578 0
0.546418 0.925029 0.821312 0
-0.306647 1.569259 0.911920 0
0.451098 1.434176 0.930862 0
-0.575594 1.198465 0.772762 0
0.331569 0.737703 0.587531 0
-0.012202 1.671612 0.970645 0
-0.421676 0.784766 0.575220 0
0.706640 1.063189 1.067074 0
-0.492684 1.470578 0.945323 0
0.292340 1.606473 0.860742 0
-0.619010 0.992013 0.749718 0
0.554340 0.788761 0.749840 0
-0.218513 1.676288 0.861401 0
0.604143 1.349092 0.949945 0
-0.652751 1.295650 0.960901 0
0.130072 1.719847 0.990438 0
-0.549395 0.833225 0.606940 0
0.637480 1.020277 0.745335 0
-0.418985 1.609547 0.862932 0
0.440209 1.571344 0.858266 0
-0.665177 1.142833 0.709885 0
0.483927 0.692800 0.617459 0
-0.100555 1.763718 0.977101 0
0.789703 1.191971 1.044595 0
-0.621530 1.459666 0.932564 0
0.246152 1.721415 0.814010 0
-0.709983 0.853759 0.774652 0
0.614335 0.907069 0.616824 0
-0.315304 1.719369 0.765420 0
-0.271685 0.090156 0.964747 0
0.602035 1.489509 0.881661 0
-0.778001 1.229911 0.953893 0
0.443388 0.479651 0.657013 0
0.049985 1.818397 0.980038 0
-0.552535 0.750604 0.520391 0
0.895700 1.010268 1.021772 0
-0.538218 1.612764 0.856145 0
0.386130 1.690323 0.769385 0
-0.730411 1.063553 0.653438 0
0.619265 0.713369 0.618029 0
-0.203354 1.813274 0.850173 0
0.786649 1.350029 0.949859 0
-0.755191 1.410103 0.950865 0
0.382234 0.158833 0.809539 0
0.002219 1.065265 0.941470 0
-0.064266 1.132088 0.928576 0
0.021351 0.908223 0.990191 0
0.089386 1.194110 0.931199 0
-0.171626 1.025593 0.962416 0
0.179250 0.944144 0.951633 0
-0.057190 1.279858 0.932699 0
-0.105800 0.861726 0.891682 0
0.229474 1.160916 0.920700 0
-0.239479 1.165121 0.959474 0
0.113410 0.847714 0.813079 0
0.084788 1.339149 0.983168 0
-0.264205 0.903007 0.936049 0
0.321269 0.994898 0.926856 0
-0.184526 1.327844 0.983664 0
-0.055138 0.854621 0.644272 0
0.268497 1.289744 0.979954 0
-0.350729 1.097090 0.899575 0
0.250561 0.853650 0.773827 0
-0.020116 1.438420 0.984820 0
-0.245215 0.823956 0.769649 0
0.463281 1.066181 1.111767 0
-0.328137 1.295123 0.977939 0
0.056964 0.827843 0.563891 0
0.201009 1.435233 0.965774 0
-0.423674 0.913352 0.964812 0
0.482134 0.796125 1.053032 0
-0.170618 1.472959 0.978398 0
-0.155069 0.809945 0.560659 0
0.424451 1.282648 0.987136 0
-0.440906 1.204882 0.896877 0
0.208306 0.818377 0.571596 0
0.066016 1.543565 0.921839 0
-0.369858 0.864972 0.688042 0
0.552354 1.000774 0.981124 0
-0.337383 1.432740 0.988832 0
-0.009912 0.658899 0.637247 0
0.332620 1.461506 0.937971 0
-0.499451 1.069474 0.801178 0
0.398331 0.823602 0.689762 0
-0.100842 1.589985 0.909980 0
-0.273015 0.788387 0.541802 0
0.596372 1.193762 1.051960 0
-0.489767 1.322181 0.970826 0
0.187815 1.594991 0.913272 0
-0.529429 0.830343 0.860777 0
0.565044 0.924443 0.807414 0
-0.284258 1.567856 0.915881 0
-0.127118 0.251381 1.052604 0
0.475109 1.431262 0.926230 0
-0.555536 1.197438 0.778208 0
0.327649 0.775271 0.524474 0
0.010372 1.669789 0.958337 0
-0.403177 0.788457 0.570806 0
0.709755 1.074408 1.013188 0
-0.470348 1.469235 0.951933 0
0.316339 1.604134 0.861509 0
-0.606913 0.980248 0.779208 0
0.546229 0.819663 0.683872 0
-0.198110 1.675516 0.912366 0
0.645963 1.338745 0.980668 0
-0.628054 1.296221 0.960159 0
0.154223 1.717948 0.988351 0
-0.541562 0.811787 0.644374 0
0.629262 1.039966 0.683783 0
-0.398022 1.608281 0.872599 0
0.465401 1.568541 0.858728 0
-0.642440 1.145653 0.706107 0
0.514921 0.670340 0.635874 0
-0.076645 1.762405 0.980954 0
0.838872 1.176506 1.078303 0
-0.597259 1.459515 0.932340 0
0.265793 1.719126 0.801415 0
-0.679458 0.868913 0.751371 0
0.635828 0.901080 0.612281 0
-0.293997 1.718095 0.763646 0
0.627522 1.486166 0.878526 0
-0.753017 1.230914 0.954749 0
0.463508 0.472706 0.653508 0
0.073910 1.816627 0.977863 0
-0.535461 0.751562 0.522210 0
0.940322 0.993969 1.042305 0
-0.515430 1.611983 0.857132 0
0.410839 1.688370 0.772245 0
-0.722157 1.052340 0.684899 0
0.642123 0.704485 0.616015 0
-0.182852 1.818692 0.919008 0
0.855743 1.332031 1.017717 0
-0.729869 1.410481 0.951021 0
0.413612 0.122943 0.835115 0
0.025647 1.062711 0.935545 0
-0.041225 1.130835 0.919254 0
0.044602 0.909350 0.975608 0
0.112152 1.192059 0.922321 0
-0.147595 1.029252 0.941894 0
0.203320 0.940450 0.946457 0
-0.033227 1.274482 0.938865 0
-0.082090 0.850771 0.904323 0
0.254939 1.155037 0.923185 0
-0.215435 1.163013 0.954178 0
0.135307 0.845388 0.806199 0
0.111257 1.332619 0.995681 0
-0.241323 0.893219 0.949136 0
0.362102 0.968078 0.977325 0
-0.160547 1.323507 0.986879 0
-0.032310 0.830071 0.677578 0
0.284564 1.293270 0.942359 0
-0.329956 1.086529 0.920720 0
0.273692 0.847841 0.771948 0
0.004010 1.434730 0.984062 0
-0.223411 0.822660 0.765276 0
0.488628 1.063285 1.100750 0
-0.305899 1.287581 0.997047 0
0.074685 0.829930 0.551825 0
0.224194 1.432309 0.957815 0
-0.395510 0.921464 0.939671 0
0.513207 0.785137 1.058462 0
-0.146745 1.469877 0.973651 0
-0.136139 0.807227 0.558453 0
0.472590 1.264131 1.047644 0
-0.418188 1.200838 0.900808 0
0.223173 0.825389 0.550238 0
0.089098 1.540308 0.918276 0
-0.360279 0.819997 0.762811 0
0.561015 1.011979 0.933708 0
-0.313614 1.428735 0.992745 0
0.002321 0.707568 0.563439 0
0.357008 1.457983 0.934286 0
-0.482694 1.057069 0.827050 0
0.459521 0.760360 0.782006 0
-0.077920 1.586609 0.909253 0
-0.254863 0.781305 0.547317 0
0.628164 1.186453 1.056605 0
-0.468359 1.315869 0.986799 0
0.210736 1.591841 0.908162 0
-0.500153 0.841464 0.835456 0
0.572106 0.936799 0.765156 0
-0.260023 1.565319 0.899944 0
0.506739 1.425271 0.938715 0
-0.536438 1.191194 0.791048 0
0.351904 0.762412 0.530726 0
0.036230 1.666571 0.978614 0
-0.381573 0.794518 0.558466 0
0.731338 1.073394 0.994597 0
-0.446312 1.465860 0.952321 0
0.344349 1.600506 0.873677 0
-0.581801 0.982068 0.771489 0
0.564862 0.819350 0.669097 0
-0.175817 1.672367 0.940061 0
0.666548 1.337110 0.962203 0
-0.605609 1.291366 0.969788 0
0.175923 1.714255 0.972672 0
-0.518291 0.815831 0.635563 0
0.659414 1.029837 0.689252 0
-0.375128 1.604901 0.871809 0
0.492081 1.565042 0.861115 0
-0.626421 1.137393 0.724466 0
0.541977 0.657526 0.638944 0
-0.052095 1.759950 0.996116 0
0.864642 1.173266 1.064868 0
-0.576173 1.454751 0.945530 0
0.276529 1.714754 0.757874 0
-0.664946 0.854940 0.775631 0
0.655117 0.898975 0.599790 0
-0.273684 1.715164 0.771965 0
-0.224962 0.103924 0.942227 0
0.661486 1.480883 0.890480 0
-0.730161 1.226366 0.963611 0
0.503927 0.432046 0.686533 0
0.099744 1.814749 0.990426 0
-0.376651 1.087450 0.060986 0
0.988085 0.977369 1.062352 0
-0.492757 1.608507 0.859081 0
0.096309 0.068211 0.849687 0
0.434846 1.685793 0.772145 0
-0.698545 1.052445 0.682416 0
0.674621 0.686934 0.624521 0
-0.160244 1.817396 0.940900 0
0.874888 1.330835 0.994640 0
-0.705355 1.407027 0.954598 0
0.395846 0.228225 0.715772 0
0.046523 1.065749 0.934694 0
-0.019953 1.130263 0.929695 0
0.064331 0.919730 0.958273 0
0.134612 1.191842 0.932826 0
-0.126583 1.031292 0.944293 0
0.223707 0.945905 0.939409 0
-0.012937 1.277449 0.938165 0
-0.061474 0.858580 0.894468 0
0.276738 1.157206 0.924752 0
-0.194119 1.170552 0.938270 0
0.159311 0.837891 0.824435 0
0.130961 1.337322 0.986801 0
-0.219625 0.897907 0.946063 0
0.420045 0.924630 1.090386 0
-0.139906 1.324329 0.997129 0
-0.013923 0.835110 0.673181 0
0.314614 1.289263 0.974567 0
-0.311587 1.081177 0.944913 0
0.293172 0.851860 0.767659 0
0.024294 1.437952 0.982342 0
-0.203649 0.825465 0.765969 0
0.516032 1.063651 1.108081 0
-0.284291 1.291826 0.990092 0
0.095888 0.819195 0.571119 0
0.244830 1.435737 0.956578 0
-0.375682 0.918915 0.953413 0
0.527424 0.801016 1.029717 0
-0.126655 1.472639 0.973642 0
-0.118557 0.808764 0.560201 0
0.485096 1.274217 1.016536 0
-0.398579 1.201884 0.907035 0
0.246418 0.815806 0.566685 0
0.110296 1.542786 0.928131 0
-0.340382 0.822631 0.764574 0
0.583663 1.015142 0.930767 0
-0.293137 1.431158 0.993797 0
0.085337 0.323917 1.085796 0
0.379140 1.461183 0.936694 0
-0.468282 1.048855 0.856578 0
0.497401 0.738808 0.819707 0
-0.058770 1.589410 0.909768 0
-0.237377 0.782712 0.550008 0
0.649396 1.191824 1.047630 0
-0.446953 1.318557 0.986318 0
0.229018 1.595637 0.900784 0
-0.484535 0.831546 0.862071 0
0.588119 0.944522 0.751543 0
-0.241383 1.567301 0.907358 0
0.530409 1.428508 0.941327 0
-0.520609 1.188733 0.808071 0
0.368928 0.766489 0.525615 0
0.056521 1.669915 0.982461 0
-0.364463 0.794030 0.564807 0
0.777797 1.062422 1.033715 0
-0.427090 1.467319 0.959293 0
0.356225 1.605198 0.846823 0
-0.571946 0.968185 0.810320 0
0.566902 0.842788 0.630737 0
-0.156743 1.675101 0.948565 0
0.689466 1.341151 0.958996 0
-0.584552 1.293235 0.972998 0
0.422974 0.368840 0.826614 0
0.193412 1.717587 0.959276 0
-0.499013 0.819116 0.637039 0
0.691993 1.023531 0.705811 0
-0.355309 1.607140 0.865294 0
0.513327 1.569074 0.860513 0
-0.610252 1.135936 0.736918 0
0.556067 0.668396 0.623738 0
-0.032538 1.763078 0.995407 0
0.884011 1.180171 1.050251 0
-0.554579 1.457108 0.943048 0
0.292105 1.718154 0.747760 0
-0.647464 0.852339 0.788734 0
0.681568 0.895289 0.606224 0
-0.259723 1.718977 0.814984 0
0.683877 1.485114 0.888160 0
-0.708209 1.228426 0.966359 0
0.517296 0.448287 0.667302 0
0.120264 1.819017 0.995347 0
-0.498220 0.753020 0.525143 0
1.015884 0.980283 1.059374 0
-0.474328 1.610116 0.862782 0
0.124044 0.040718 0.879617 0
0.458950 1.690259 0.782580 0
-0.680839 1.052636 0.690144 0
0.695736 0.688494 0.621059 0
-0.141534 1.824245 0.982630 0
0.911528 1.331564 1.010238 0
-0.683395 1.409050 0.954767 0
0.427098 0.205428 0.738667 0
0.066764 1.069076 0.945744 0
-0.001785 1.139530 0.923222 0
0.083248 0.928508 0.955402 0
0.153604 1.198668 0.933367 0
-0.107432 1.036145 0.951899 0
0.242981 0.953130 0.938859 0
0.006895 1.281343 0.952366 0
-0.042615 0.865248 0.896838 0
0.303028 1.156038 0.951192 0
-0.175171 1.179689 0.932343 0
0.180577 0.836862 0.839448 0
0.150079 1.344700 0.985877 0
-0.200468 0.903229 0.952753 0
0.449960 0.921420 1.116324 0
-0.120791 1.331121 0.999952 0
0.002880 0.840584 0.675785 0
0.338688 1.293108 0.989620 0
-0.294386 1.081326 0.967582 0
0.311986 0.856607 0.770215 0
0.043135 1.445220 0.981900 0
-0.185148 0.846433 0.742714 0
0.536781 1.072133 1.103998 0
-0.265107 1.299014 0.991172 0
0.113604 0.818372 0.582025 0
0.263957 1.443011 0.955825 0
-0.362386 0.905367 1.004440 0
0.539500 0.819438 1.005340 0
-0.108037 1.479779 0.973322 0
-0.102774 0.810696 0.568284 0
0.506079 1.281480 1.015889 0
-0.382808 1.203386 0.928718 0
0.261107 0.823926 0.562619 0
0.128591 1.549973 0.927142 0
-0.326502 0.811781 0.799539 0
0.596928 1.028011 0.913209 0
-0.274301 1.437969 0.996518 0
0.403826 1.466663 0.951744 0
-0.452566 1.050213 0.874186 0
0.527719 0.729473 0.844952 0
-0.040797 1.596251 0.911536 0
-0.221980 0.786018 0.556817 0
0.674901 1.197182 1.053774 0
-0.427424 1.325788 0.987169 0
0.246060 1.603088 0.894193 0
-0.466279 0.836835 0.869817 0
0.592654 0.963933 0.721662 0
-0.223215 1.574276 0.901855 0
0.550465 1.435954 0.939303 0
-0.507373 1.189188 0.830981 0
0.387941 0.766366 0.532442 0
0.075264 1.677362 0.982861 0
-0.348878 0.798592 0.570795 0
0.814471 1.060626 1.058021 0
-0.406271 1.475443 0.948068 0
0.374941 1.612407 0.846496 0
-0.560030 0.964194 0.838731 0
0.575726 0.857919 0.612730 0
-0.138687 1.682070 0.949882 0
0.712830 1.347754 0.960942 0
-0.564681 1.300394 0.974606 0
0.420712 0.423051 0.769250 0
0.199496 1.722777 0.897801 0
-0.485036 0.818463 0.652971 0
0.719220 1.023047 0.717374 0
-0.337710 1.613495 0.865241 0
0.533304 1.576402 0.860221 0
-0.593751 1.140918 0.744322 0
0.575899 0.670506 0.626741 0
-0.013952 1.770602 0.996483 0
0.910937 1.185953 1.053664 0
-0.535609 1.463698 0.944948 0
0.304564 1.724463 0.731229 0
-0.630453 0.856548 0.798981 0
0.703955 0.896342 0.610960 0
-0.245011 1.726506 0.844116 0
0.705053 1.492465 0.886862 0
-0.686445 1.236714 0.964617 0
0.537083 0.450622 0.670433 0
0.138242 1.826400 0.989877 0
-0.483049 0.757155 0.532630 0
1.035453 0.989871 1.049281 0
-0.456554 1.616278 0.863617 0
0.143092 0.053241 0.877583 0
0.476851 1.697611 0.779841 0
-0.662263 1.060045 0.691941 0
0.726681 0.679014 0.639110 0
-0.123340 1.831881 0.986729 0
0.908420 1.347027 0.964897 0
-0.665360 1.414949 0.962327 0
0.425919 0.260798 0.689634 0
0.082710 1.076165 0.941575 0
0.015492 1.140936 0.936396 0
0.101715 0.929551 0.966352 0
0.169344 1.205035 0.930479 0
-0.091089 1.044487 0.944801 0
0.258111 0.962131 0.930730 0
0.023815 1.284671 0.962337 0
-0.024071 0.856594 0.926618 0
0.324566 1.156749 0.967886 0
-0.159192 1.184050 0.936170 0
0.192516 0.853060 0.818780 0
0.165286 1.351680 0.979349 0
-0.183668 0.906315 0.959414 0
0.470423 0.926040 1.119918 0
-0.104616 1.336435 1.001096 0
0.020803 0.829225 0.704297 0
0.357553 1.297834 0.995547 0
-0.278426 1.083789 0.977206 0
0.343237 0.835702 0.818571 0
0.057641 1.452361 0.970025 0
-0.170054 0.844259 0.757072 0
0.550217 1.083238 1.088384 0
-0.247879 1.307394 0.976638 0
0.133861 0.803943 0.611944 0
0.278141 1.450057 0.947310 0
-0.340926 0.924946 0.973786 0
0.541344 0.845541 0.962609 0
-0.092620 1.485717 0.968181 0
-0.088730 0.815098 0.569651 0
0.517714 1.291364 0.998580 0
-0.368074 1.205643 0.939956 0
0.281933 0.815348 0.582533 0
0.143557 1.555923 0.924644 0
-0.309958 0.819091 0.797557 0
0.618110 1.031077 0.919131 0
-0.257161 1.445313 0.979448 0
0.043258 0.755824 0.516883 0
0.414064 1.475124 0.931817 0
-0.434020 1.059763 0.863815 0
0.549386 0.729258 0.853438 0
-0.025401 1.601363 0.920265 0
-0.208014 0.789206 0.560503 0
0.687820 1.207152 1.039292 0
-0.410769 1.331113 0.986265 0
0.258449 1.609518 0.881819 0
-0.458084 0.819554 0.916150 0
0.595244 0.981858 0.693397 0
-0.208695 1.579010 0.906365 0
0.568027 1.442395 0.938892 0
-0.496851 1.187086 0.855046 0
0.428467 0.727993 0.592015 0
0.091858 1.683505 0.991796 0
-0.335435 0.799353 0.578725 0
0.838786 1.064543 1.064134 0
-0.391890 1.479346 0.956537 0
0.389181 1.618773 0.842134 0
-0.535022 0.983527 0.808444 0
0.588898 0.865342 0.606615 0
-0.123806 1.687557 0.959471 0
0.740575 1.351182 0.977453 0
-0.547086 1.305953 0.972108 0
0.420998 0.464483 0.725069 0
0.212174 1.728508 0.886942 0
-0.474717 0.810946 0.675777 0
0.730802 1.032189 0.706538 0
-0.321327 1.618455 0.848779 0
0.542708 1.583773 0.843008 0
-0.582579 1.140429 0.760287 0
0.581873 0.688794 0.606711 0
0.001079 1.776450 0.995638 0
-0.424370 0.277663 1.059085 0
0.942917 1.187825 1.070778 0
-0.518026 1.469019 0.938483 0
0.313535 1.729682 0.714295 0
-0.618850 0.853073 0.818102 0
0.727627 0.894498 0.620463 0
-0.233022 1.732649 0.874485 0
0.722633 1.499322 0.885086 0
-0.668132 1.242290 0.962795 0
0.552201 0.458163 0.666363 0
0.152263 1.832126 0.982319 0
-0.467798 0.763924 0.532378 0
1.061607 0.993775 1.053919 0
-0.439722 1.620785 0.852534 0
0.481706 1.703428 0.753823 0
-0.648464 1.062500 0.698976 0
0.765938 0.658834 0.671739 0
-0.108844 1.836009 0.972962 0
0.942181 1.350052 0.985033 0
-0.647885 1.419731 0.960670 0
0.426769 0.304460 0.650380 0
0.098647 1.092605 0.944686 0
0.031386 1.156728 0.941107 0
0.115339 0.954145 0.951745 0
0.186183 1.219933 0.938055 0
-0.075879 1.068012 0.928893 0
0.274515 0.978381 0.934400 0
0.040386 1.299364 0.973036 0
-0.005485 0.858045 0.963127 0
0.363928 1.150230 1.050927 0
-0.143565 1.203416 0.927911 0
0.220364 0.839995 0.878667 0
0.184319 1.365683 0.997265 0
-0.167598 0.916507 0.979484 0
0.483957 0.949749 1.108501 0
-0.088980 1.354176 0.997570 0
0.038727 0.826958 0.738715 0
0.374054 1.315084 0.996072 0
-0.261563 1.103371 0.972375 0
0.373957 0.826686 0.868995 0
0.073108 1.469072 0.970802 0
-0.155996 0.828073 0.820564 0
0.569722 1.100198 1.093336 0
-0.232603 1.322473 0.985979 0
0.150657 0.808688 0.630832 0
0.298082 1.465017 0.963612 0
-0.322832 0.947423 0.965888 0
0.538183 0.885894 0.915598 0
-0.078214 1.504414 0.945315 0
-0.074968 0.822672 0.584279 0
0.541632 1.305216 1.016235 0
-0.355661 1.215079 0.968924 0
0.306349 0.808149 0.618840 0
0.158633 1.572461 0.924419 0
-0.295203 0.831349 0.809781 0
0.633696 1.048771 0.917239 0
-0.240948 1.463200 0.967877 0
0.056313 0.768692 0.522401 0
0.435173 1.490561 0.946053 0
-0.418468 1.075346 0.868819 0
0.554415 0.760199 0.830803 0
-0.009985 1.617350 0.930097 0
-0.194763 0.800483 0.569969 0
0.709549 1.223156 1.046853 0
-0.393999 1.348518 0.983128 0
0.228405 0.743995 0.515363 0
0.271362 1.626125 0.872868 0
-0.445328 0.825752 0.943535 0
0.606274 1.000022 0.686806 0
-0.194264 1.594712 0.908499 0
-0.052330 0.686420 0.542403 0
0.587093 1.458920 0.943347 0
-0.485763 1.196796 0.878570 0
0.463229 0.708879 0.642612 0
0.109851 1.701171 1.010053 0
-0.324709 0.799487 0.606248 0
0.849579 1.087364 1.049601 0
-0.375405 1.496126 0.949671 0
0.396424 1.635474 0.817978 0
-0.517021 1.003008 0.804519 0
0.600461 0.882174 0.603195 0
-0.108660 1.704749 0.986782 0
0.761890 1.367642 0.983006 0
-0.529168 1.323600 0.967662 0
0.411328 0.531556 0.666648 0
0.215674 1.742448 0.835802 0
-0.462123 0.819913 0.692180 0
1.033807 0.847552 1.171781 0
-0.306365 1.633636 0.840407 0
0.565736 1.599741 0.857539 0
-0.571536 1.150432 0.778482 0
0.593196 0.706914 0.603772 0
0.018434 1.795714 1.021342 0
-0.406080 0.293506 1.073847 0
0.954274 1.209580 1.056562 0
-0.499747 1.486013 0.927399 0
0.330601 1.745627 0.722772 0
-0.607621 0.860349 0.841665 0
0.737361 0.912938 0.613325 0
-0.218872 1.747841 0.869193 0
0.755127 1.513862 0.911518 0
-0.649042 1.260299 0.958616 0
0.562971 0.480317 0.662282 0
0.166820 1.849289 0.977276 0
-0.454841 0.775242 0.542908 0
1.075540 1.015026 1.044745 0
-0.422238 1.635891 0.835320 0
0.180871 0.066730 0.898908 0
0.501022 1.719844 0.762122 0
-0.632257 1.078235 0.700849 0
0.789270 0.665026 0.685711 0
-0.093404 1.857042 1.009090 0
0.960791 1.368063 0.982669 0
-0.625015 1.438519 0.940190 0
0.432225 0.341619 0.633867 0
0.103523 1.120317 0.957820 0
0.035686 1.185412 0.950208 0
0.117052 0.990424 0.945126 0
0.191012 1.248253 0.947796 0
-0.071490 1.094669 0.944508 0
0.277891 1.009027 0.940549 0
0.046004 1.326244 0.992577 0
0.000020 0.880904 0.989962 0
0.356616 1.192581 1.016332 0
-0.139542 1.231691 0.937081 0
0.228543 0.859609 0.908398 0
0.187493 1.396667 0.995904 0
-0.162857 0.956702 0.965884 0
0.487810 0.982825 1.115952 0
-0.085142 1.385502 0.993911 0
0.044969 0.842452 0.770307 0
0.380060 1.344275 1.006304 0
-0.255778 1.139858 0.958616 0
0.393860 0.830342 0.929854 0
0.076134 1.499512 0.965414 0
-0.151943 0.853893 0.836028 0
0.569577 1.135709 1.088509 0
-0.228430 1.352662 0.988717 0
0.158467 0.821379 0.662541 0
0.302480 1.494612 0.966950 0
-0.318804 0.975976 0.979270 0
0.551104 0.905543 0.947209 0
-0.074584 1.534126 0.940566 0
-0.069690 0.825012 0.631119 0
0.540675 1.338457 1.006842 0
-0.351936 1.243831 0.978647 0
0.314567 0.824025 0.644725 0
0.162453 1.601487 0.924695 0
-0.296412 0.831312 0.874671 0
0.673536 1.051113 1.000977 0
-0.236787 1.493077 0.966595 0
0.061346 0.784638 0.545252 0
0.442744 1.519231 0.957630 0
-0.413115 1.105851 0.870323 0
0.540746 0.810511 0.803075 0
-0.004269 1.646141 0.954951 0
-0.191810 0.813633 0.598819 0
0.704731 1.258925 1.032553 0
-0.390157 1.377963 0.989124 0
0.230691 0.769649 0.524412 0
0.271805 1.654439 0.859375 0
-0.441501 0.853512 0.959520 0
0.626346 1.011604 0.726417 0
-0.190473 1.623298 0.906979 0
-0.047691 0.698309 0.571931 0
0.595661 1.487445 0.955135 0
-0.485900 1.219593 0.904794 0
0.479326 0.714736 0.684201 0
0.114946 1.731906 1.016747 0
-0.325841 0.801439 0.654510 0
0.852080 1.119956 1.052863 0
-0.369147 1.526600 0.935098 0
0.406544 1.662952 0.835485 0
-0.510589 1.033894 0.804954 0
0.602873 0.907615 0.611422 0
-0.104813 1.734721 0.987772 0
0.764114 1.398574 0.981784 0
-0.526170 1.352115 0.977471 0
0.408335 0.570729 0.665300 0
0.216496 1.769234 0.821240 0
-0.467196 0.822385 0.744941 0
0.946037 0.942746 1.031849 0
-0.302980 1.660995 0.842051 0
0.569994 1.627921 0.857756 0
-0.565580 1.179102 0.779208 0
0.589733 0.740307 0.603870 0
0.022502 1.826484 1.020909 0
-0.318547 0.738777 0.532833 0
0.949824 1.244676 1.046730 0
-0.493327 1.515725 0.918268 0
0.328114 1.770113 0.701957 0
-0.593327 0.904440 0.820480 0
0.754580 0.926153 0.643850 0
-0.217069 1.778194 0.901404 0
0.752320 1.543953 0.899303 0
-0.648417 1.286914 0.976548 0
0.553993 0.526902 0.653375 0
0.165705 1.875720 0.946131 0
-0.450650 0.799406 0.554692 0
1.077650 1.047836 1.048746 0
-0.420423 1.663106 0.844979 0
0.188885 0.079610 0.940117 0
0.504346 1.746440 0.759014 0
-0.632026 1.099284 0.720443 0
0.844390 0.637192 0.777647 0
-0.090193 1.884593 0.984668 0
0.958600 1.400077 0.974834 0
-0.621450 1.467187 0.944997 0
0.438794 0.360583 0.659445 0
0.102436 1.154444 0.954364 0
0.034352 1.220486 0.939547 0
0.118537 1.019030 0.960260 0
0.193360 1.276414 0.964198 0
-0.071293 1.128455 0.941629 0
0.278214 1.040226 0.949057 0
0.045503 1.358504 0.990336 0
0.001490 0.909010 1.008776 0
0.370755 1.212237 1.072199 0
-0.139106 1.262067 0.941124 0
0.235291 0.877360 0.947047 0
0.187546 1.427969 0.999293 0
-0.161868 0.990248 0.968690 0
0.481375 1.024045 1.105393 0
-0.085118 1.417008 0.992817 0
0.053015 0.839207 0.841404 0
0.379932 1.376189 1.009923 0
-0.255716 1.167747 0.973726 0
0.404491 0.846378 0.973278 0
0.075333 1.530555 0.961187 0
-0.151468 0.854807 0.903546 0
0.566575 1.171588 1.087688 0
-0.228164 1.383247 0.992503 0
0.160695 0.844146 0.681121 0
0.301805 1.525747 0.966647 0
-0.314199 1.019733 0.954743 0
0.547944 0.940948 0.949303 0
-0.075833 1.566006 0.908687 0
-0.066738 0.827664 0.681785 0
0.542461 1.369762 1.015778 0
-0.349934 1.276819 0.972374 0
0.314189 0.852499 0.653497 0
0.167495 1.630919 0.954050 0
-0.297860 0.847260 0.913047 0
0.688443 1.073046 1.041166 0
-0.236349 1.523727 0.961751 0
0.063197 0.805662 0.563281 0
0.435410 1.551645 0.938325 0
-0.411716 1.135532 0.874585 0
0.551075 0.827984 0.837713 0
-0.001352 1.676677 0.995295 0
-0.191333 0.827478 0.628984 0
0.703946 1.292101 1.036476 0
-0.389318 1.408825 0.988826 0
0.232211 0.792654 0.539624 0
0.264859 1.683175 0.832880 0
-0.433425 0.901207 0.933215 0
0.629124 1.037535 0.740569 0
-0.191534 1.652264 0.932600 0
-0.049156 0.752551 0.545265 0
0.592562 1.519251 0.950494 0
-0.487904 1.245373 0.922930 0
0.487643 0.730872 0.715681 0
0.114748 1.763393 1.016384 0
-0.327258 0.814868 0.687163 0
0.843124 1.158134 1.044305 0
-0.367113 1.556875 0.922144 0
0.401383 1.691581 0.820873 0
-0.508070 1.063715 0.807593 0
0.606597 0.930554 0.628485 0
-0.104995 1.765988 0.997387 0
-0.179886 0.743187 0.532522 0
0.766652 1.429862 0.990352 0
-0.526642 1.381418 0.985002 0
0.375806 0.663715 0.595058 0
0.211842 1.795938 0.800281 0
-0.470098 0.838625 0.776179 0
0.943076 0.978253 1.037222 0
-0.302314 1.688741 0.833314 0
0.572434 1.657420 0.863836 0
-0.564985 1.205639 0.786425 0
0.583954 0.774537 0.605721 0
0.019946 1.855284 0.995154 0
-0.315310 0.771128 0.534223 0
0.948360 1.278621 1.050334 0
-0.492174 1.544968 0.914743 0
0.322707 1.795201 0.684249 0
-0.589456 0.936234 0.822538 0
0.739279 0.965539 0.630528 0
-0.217247 1.806754 0.894220 0
0.751085 1.574577 0.898784 0
-0.645231 1.318447 0.972616 0
0.541474 0.575913 0.643262 0
0.153643 1.896723 0.878414 0
-0.457833 0.800021 0.602739 0
1.066924 1.086864 1.041895 0
-0.416662 1.690464 0.822588 0
0.491003 1.771947 0.727142 0
-0.632649 1.123285 0.732962 0
0.740847 0.772737 0.632044 0
-0.092556 1.904994 0.911997 0
0.961006 1.431698 0.982400 0
-0.618431 1.497307 0.937410 0
0.434092 0.401396 0.664548 0
0.098726 1.170728 0.953033 0
0.031057 1.235888 0.939614 0
0.115306 1.034595 0.963275 0
0.194231 1.286743 0.987727 0
-0.074301 1.143708 0.943228 0
0.273024 1.058364 0.944997 0
0.042410 1.373419 0.992851 0
-0.004542 0.941267 0.974383 0
0.360820 1.233854 1.052148 0
-0.142103 1.275679 0.947589 0
0.235205 0.886304 0.966080 0
0.183413 1.443726 0.996052 0
-0.164683 1.007005 0.968304 0
0.474693 1.043708 1.100682 0
-0.088400 1.432621 0.989211 0
0.053940 0.837442 0.877983 0
0.375235 1.392269 1.007475 0
-0.257571 1.186855 0.961451 0
0.393284 0.873874 0.953866 0
0.067470 1.547995 0.923690 0
-0.154362 0.862501 0.922878 0
0.561167 1.189070 1.086719 0
-0.231294 1.398072 0.994237 0
0.160855 0.849798 0.699806 0
0.297292 1.541005 0.962748 0
-0.315692 1.039088 0.946233 0
0.552458 0.948126 0.974079 0
-0.078915 1.580268 0.908432 0
-0.068528 0.833343 0.699746 0
0.533146 1.387689 1.003010 0
-0.352969 1.291456 0.974596 0
0.315037 0.859255 0.670102 0
0.165655 1.645537 0.961848 0
-0.302481 0.852381 0.937406 0
0.684034 1.089641 1.044065 0
-0.237439 1.540761 0.929469 0
0.061913 0.813635 0.575538 0
0.430903 1.566586 0.935685 0
-0.415392 1.147743 0.882876 0
0.557896 0.830600 0.866846 0
-0.004277 1.691703 0.999422 0
-0.194160 0.831108 0.648859 0
0.696379 1.309600 1.031228 0
-0.392022 1.423956 0.987153 0
0.229279 0.806135 0.543821 0
0.259454 1.696742 0.823462 0
-0.429238 0.932847 0.899903 0
0.638158 1.041429 0.768826 0
-0.195047 1.666643 0.942468 0
-0.051550 0.767608 0.547063 0
0.587028 1.534556 0.946904 0
-0.504843 1.243634 0.989926 0
0.489491 0.737602 0.733641 0
0.108917 1.777409 0.997963 0
-0.331374 0.819549 0.706185 0
0.835339 1.176234 1.041190 0
-0.368787 1.571632 0.912356 0
0.396399 1.705157 0.815293 0
-0.507908 1.081342 0.799848 0
0.600156 0.946919 0.627632 0
-0.108326 1.780790 0.994425 0
-0.181756 0.757288 0.535372 0
0.756954 1.446735 0.980876 0
-0.529826 1.396010 0.986448 0
0.360531 0.701277 0.569241 0
0.208553 1.809278 0.797960 0
-0.475050 0.845730 0.792699 0
0.933014 0.998387 1.032655 0
-0.302129 1.701549 0.803598 0
0.569850 1.671583 0.865679 0
