ply
format ascii 1.0
element vertex 1595
property float x
property float y
property float z
property uchar label
end_header
1.320680 0.045847 -1.320496 1
1.429077 0.031749 -1.556387 1
1.447650 0.011897 -1.303892 1
1.292861 0.030010 -1.451385 1
1.492889 0.094025 -1.401529 1
1.359521 0.017328 -1.293926 1
1.359241 0.029712 -1.561797 1
1.493674 0.017526 -1.345529 1
1.307522 0.093871 -1.319769 1
1.470927 0.033776 -1.537979 1
1.415348 0.016934 -1.281179 1
1.301034 0.026505 -1.511065 1
1.514142 0.040262 -1.403271 1
1.328435 0.040741 -1.296623 1
1.403397 0.022712 -1.591613 1
1.472141 0.012174 -1.309293 1
1.283623 0.046096 -1.407097 1
1.501851 0.050295 -1.482518 1
1.378467 0.013347 -1.278016 1
1.328517 0.032155 -1.557217 1
1.514453 0.018424 -1.368031 1
1.308663 0.088944 -1.294753 1
1.452553 0.031504 -1.576614 1
1.440093 0.013799 -1.279703 1
1.282059 0.039808 -1.472329 1
1.512227 0.088529 -1.395015 1
1.343565 0.045300 -1.269326 1
1.371463 0.032479 -1.593871 1
1.497252 0.010490 -1.324702 1
1.286273 0.079263 -1.346133 1
1.496654 0.034104 -1.542128 1
1.401891 0.010898 -1.267126 1
1.298731 0.033817 -1.540430 1
1.530272 0.026787 -1.393090 1
1.314765 0.076911 -1.274668 1
1.425278 0.024383 -1.615379 1
1.466756 0.011951 -1.285345 1
1.267949 0.044370 -1.434906 1
1.523224 0.053196 -1.470101 1
1.361028 0.020825 -1.263467 1
1.429176 0.080912 -1.368945 1
1.437651 0.088853 -1.373868 1
1.429475 0.052992 -1.369059 1
1.415308 0.074280 -1.396835 1
1.454496 0.072981 -1.372092 1
1.406771 0.071363 -1.355654 1
1.437261 0.066308 -1.423898 1
1.448946 0.027152 -1.375449 1
1.395677 0.092546 -1.371837 1
1.463563 0.084449 -1.387896 1
1.415246 0.028656 -1.363025 1
1.415430 0.034952 -1.467379 1
1.472810 0.027966 -1.387152 1
1.386835 0.085958 -1.348735 1
1.459528 0.047831 -1.456837 1
1.440027 0.023284 -1.352969 1
1.387604 0.058525 -1.430738 1
1.480691 0.081583 -1.375520 1
1.393657 0.030199 -1.358065 1
1.431862 0.038867 -1.489377 1
1.471493 0.021293 -1.363504 1
1.372498 0.082458 -1.372859 1
1.477317 0.088532 -1.412071 1
1.420236 0.025671 -1.336415 1
1.393431 0.032863 -1.489682 1
1.497169 0.026821 -1.393810 1
1.373967 0.065601 -1.342802 1
1.459460 0.027765 -1.512835 1
1.457491 0.018609 -1.339401 1
1.364141 0.050916 -1.434493 1
1.494799 0.090516 -1.389415 1
1.395291 0.027762 -1.333024 1
1.414030 0.031315 -1.521812 1
1.494218 0.019248 -1.365374 1
1.359025 0.085598 -1.351348 1
1.488478 0.036504 -1.496942 1
1.434367 0.016165 -1.323518 1
1.369068 0.034611 -1.490910 1
1.513754 0.042453 -1.398983 1
1.368807 0.022327 -1.349338 1
1.445466 0.033237 -1.537365 1
1.479135 0.014060 -1.337184 1
1.345942 0.053323 -1.415921 1
1.508814 0.062754 -1.445582 1
1.405517 0.022047 -1.314218 1
1.389565 0.032857 -1.531952 1
1.515237 0.023955 -1.373701 1
1.350379 0.065148 -1.343145 1
1.482369 0.030625 -1.538362 1
1.453679 0.016473 -1.311898 1
1.345349 0.032658 -1.482095 1
1.521737 0.070722 -1.400700 1
1.375112 0.023980 -1.321747 1
1.423434 0.029523 -1.563743 1
1.502200 0.014444 -1.341526 1
1.337830 0.082095 -1.366396 1
1.516710 0.028996 -1.516492 1
1.422138 0.020968 -1.297532 1
1.362582 0.034809 -1.528423 1
1.533625 0.030230 -1.390467 1
1.346876 0.028305 -1.342600 1
1.465514 0.031598 -1.569397 1
1.476984 0.012701 -1.311148 1
1.324936 0.028425 -1.464118 1
1.522895 0.099110 -1.405951 1
1.387964 0.021019 -1.300368 1
1.395030 0.030024 -1.574346 1
1.525440 0.015332 -1.355058 1
1.333367 0.086909 -1.334572 1
1.508316 0.029377 -1.555364 1
1.443476 0.019257 -1.287642 1
1.336041 0.033053 -1.516130 1
1.542886 0.055877 -1.398559 1
1.354836 0.027888 -1.314326 1
1.440521 0.026169 -1.600992 1
1.501629 0.014679 -1.315193 1
1.316332 0.057050 -1.407887 1
1.534329 0.060298 -1.482996 1
1.406507 0.018502 -1.283298 1
1.363982 0.033361 -1.568625 1
1.545988 0.021624 -1.373712 1
1.329389 0.052974 -1.330244 1
1.490088 0.030975 -1.590605 1
1.468754 0.012940 -1.287742 1
1.314698 0.039744 -1.483896 1
1.545766 0.082117 -1.410233 1
1.368593 0.021033 -1.293010 1
1.408234 0.030763 -1.609632 1
1.527221 0.014455 -1.329493 1
1.316532 0.090060 -1.346929 1
1.536999 0.021240 -1.569337 1
1.429625 0.015261 -1.272536 1
1.334156 0.038695 -1.547388 1
1.562479 0.030565 -1.398523 1
1.334953 0.034763 -1.311939 1
1.463427 0.026237 -1.627256 1
1.495369 0.015003 -1.290716 1
1.296998 0.032809 -1.456986 1
1.565210 0.030436 -1.504470 1
1.388113 0.013971 -1.275890 1
1.448117 0.078627 -1.375672 1
1.456755 0.085752 -1.381389 1
1.449204 0.045728 -1.379763 1
1.434396 0.079160 -1.397449 1
1.474298 0.067837 -1.381132 1
1.425683 0.057659 -1.371731 1
1.456602 0.074627 -1.421173 1
1.468802 0.026898 -1.380307 1
1.414254 0.072186 -1.395115 1
1.482538 0.086984 -1.390311 1
1.434540 0.029937 -1.366837 1
1.436360 0.042738 -1.465480 1
1.493111 0.027596 -1.392055 1
1.404862 0.083056 -1.355994 1
1.480253 0.051628 -1.458565 1
1.459392 0.023402 -1.357403 1
1.407721 0.062703 -1.432293 1
1.501070 0.075970 -1.384982 1
1.412788 0.030801 -1.362532 1
1.453467 0.041285 -1.492824 1
1.491141 0.022625 -1.366857 1
1.391297 0.088447 -1.372697 1
1.496157 0.094423 -1.411279 1
1.439187 0.024656 -1.341690 1
1.415065 0.036115 -1.492442 1
1.517149 0.030008 -1.395674 1
1.391870 0.057382 -1.354198 1
1.481935 0.029204 -1.517416 1
1.476756 0.018835 -1.343497 1
1.384436 0.052856 -1.438358 1
1.514579 0.089861 -1.394631 1
1.413972 0.029259 -1.336690 1
1.436142 0.037966 -1.520964 1
1.514018 0.020904 -1.368317 1
1.377273 0.088360 -1.354062 1
1.508777 0.047941 -1.490811 1
1.453172 0.016899 -1.327352 1
1.390512 0.032057 -1.499745 1
1.533377 0.046905 -1.399622 1
1.388149 0.029800 -1.348908 1
1.468163 0.035597 -1.541196 1
1.498438 0.015176 -1.340451 1
1.366786 0.065192 -1.410674 1
1.531422 0.057525 -1.455963 1
1.423998 0.020692 -1.319645 1
1.412026 0.034488 -1.536694 1
1.535214 0.025937 -1.376284 1
1.368510 0.064432 -1.348797 1
1.505581 0.031536 -1.543727 1
1.472377 0.016891 -1.315681 1
1.366608 0.031759 -1.489218 1
1.542509 0.069575 -1.406292 1
1.393631 0.025522 -1.325532 1
1.446449 0.034566 -1.564716 1
1.521549 0.016521 -1.343942 1
1.356307 0.083111 -1.370803 1
1.540135 0.028710 -1.522768 1
1.440424 0.019592 -1.302651 1
1.384842 0.035183 -1.534595 1
1.553870 0.032703 -1.392639 1
1.365916 0.031595 -1.345393 1
1.488640 0.036200 -1.570824 1
1.495533 0.015306 -1.313283 1
1.346504 0.032712 -1.466135 1
1.557984 0.048128 -1.461008 1
1.406106 0.021890 -1.304405 1
1.418366 0.032200 -1.578779 1
1.545387 0.016697 -1.357890 1
1.350810 0.085078 -1.341153 1
1.530483 0.037483 -1.552637 1
1.462388 0.011253 -1.296525 1
1.357881 0.031907 -1.523910 1
1.566669 0.046468 -1.411225 1
1.372943 0.026212 -1.320437 1
1.464734 0.026945 -1.607320 1
1.520240 0.017705 -1.316827 1
1.336347 0.060262 -1.410719 1
1.563095 0.039122 -1.511209 1
1.424391 0.019215 -1.287174 1
1.386998 0.032789 -1.576298 1
1.566435 0.022970 -1.376561 1
1.346366 0.043976 -1.342152 1
1.514111 0.033529 -1.594611 1
1.486956 0.014480 -1.290519 1
1.334479 0.030002 -1.500257 1
1.574083 0.059569 -1.436482 1
1.386472 0.019585 -1.298664 1
1.432164 0.035820 -1.610720 1
1.546373 0.016984 -1.331298 1
1.334372 0.089885 -1.352359 1
1.561376 0.022831 -1.574160 1
1.447479 0.015044 -1.276665 1
1.356662 0.039156 -1.553695 1
1.585120 0.027052 -1.405602 1
1.352361 0.028927 -1.321046 1
1.488628 0.025170 -1.636258 1
1.513610 0.017218 -1.292819 1
1.317726 0.032244 -1.463769 1
1.588185 0.032754 -1.507676 1
1.405895 0.015399 -1.279518 1
1.449684 0.081802 -1.376373 1
1.458489 0.087078 -1.383693 1
1.450259 0.055908 -1.374874 1
1.436543 0.073095 -1.406710 1
1.475299 0.074798 -1.378564 1
1.427070 0.069028 -1.365799 1
1.459239 0.067913 -1.431436 1
1.470112 0.032250 -1.379552 1
1.415850 0.091011 -1.381746 1
1.483691 0.092292 -1.388917 1
1.436206 0.032161 -1.368615 1
1.438567 0.039283 -1.473053 1
1.494072 0.034270 -1.390108 1
1.406486 0.082433 -1.359960 1
1.483245 0.045844 -1.468335 1
1.461090 0.024716 -1.359831 1
1.409517 0.055232 -1.443458 1
1.504279 0.069851 -1.393878 1
1.414470 0.033545 -1.363944 1
1.455829 0.038996 -1.499529 1
1.492832 0.024259 -1.369008 1
1.392861 0.087031 -1.377525 1
1.499318 0.088818 -1.420433 1
1.440809 0.026448 -1.343763 1
1.417098 0.034373 -1.498625 1
1.518146 0.035418 -1.394682 1
1.393839 0.067281 -1.349809 1
1.482051 0.045286 -1.504704 1
1.478422 0.020161 -1.345855 1
1.385925 0.047446 -1.447589 1
1.516146 0.092276 -1.395840 1
1.415607 0.029658 -1.339787 1
1.438429 0.035716 -1.527991 1
1.515233 0.024981 -1.368558 1
1.378892 0.089516 -1.356559 1
1.511898 0.044207 -1.498942 1
1.454791 0.018189 -1.329746 1
1.392559 0.034920 -1.501256 1
1.533479 0.055393 -1.395740 1
1.389840 0.032049 -1.350738 1
1.470711 0.033945 -1.547730 1
1.499437 0.020545 -1.339911 1
1.367856 0.058829 -1.420446 1
1.524884 0.093558 -1.423726 1
1.425611 0.021191 -1.322599 1
1.414143 0.033068 -1.543018 1
1.536848 0.027926 -1.378080 1
1.371109 0.077048 -1.342248 1
1.508218 0.030949 -1.549006 1
1.474015 0.017788 -1.318264 1
1.368375 0.031028 -1.494413 1
1.543748 0.073239 -1.406417 1
1.395265 0.027856 -1.327289 1
1.448897 0.032926 -1.571548 1
1.523339 0.017343 -1.346577 1
1.357417 0.079661 -1.377452 1
1.537128 0.051113 -1.503038 1
1.442025 0.020008 -1.305560 1
1.386768 0.033783 -1.540928 1
1.555637 0.034354 -1.394686 1
1.367801 0.035794 -1.345815 1
1.491440 0.034491 -1.577740 1
1.497268 0.015691 -1.316152 1
1.348135 0.032086 -1.471067 1
1.559626 0.050981 -1.462049 1
1.407647 0.021533 -1.307887 1
1.420638 0.030357 -1.586060 1
1.545498 0.024444 -1.355398 1
1.353028 0.091219 -1.339607 1
1.533347 0.036663 -1.558240 1
1.463334 0.018687 -1.295035 1
1.360331 0.037743 -1.522309 1
1.568151 0.049237 -1.412263 1
1.374487 0.026896 -1.323359 1
1.465995 0.038942 -1.597741 1
1.522031 0.018100 -1.319647 1
1.336818 0.053155 -1.421178 1
1.565504 0.040009 -1.514508 1
1.425909 0.020281 -1.289660 1
1.389025 0.031200 -1.583308 1
1.568232 0.024358 -1.378778 1
1.350101 0.062030 -1.332127 1
1.516956 0.032942 -1.600383 1
1.488564 0.015168 -1.293130 1
1.337732 0.040491 -1.493984 1
1.579634 0.050378 -1.449032 1
1.388130 0.023459 -1.299478 1
1.434633 0.033887 -1.618517 1
1.548355 0.017023 -1.334375 1
1.335722 0.089578 -1.356171 1
1.560214 0.036813 -1.562675 1
1.449005 0.015742 -1.279307 1
1.358378 0.037249 -1.560896 1
1.587108 0.028212 -1.408065 1
1.354424 0.034508 -1.320634 1
1.489702 0.036101 -1.627659 1
1.515378 0.017282 -1.295760 1
1.319471 0.033045 -1.467354 1
1.592237 0.029027 -1.515781 1
1.407396 0.016978 -1.281733 1
1.061674 0.065443 -1.345416 1
1.076200 0.082374 -1.345022 1
1.046005 0.020631 -1.355692 1
1.042898 0.075964 -1.357920 1
1.093064 0.069971 -1.341266 1
1.017877 0.020039 -1.354288 1
1.076103 0.105724 -1.353491 1
1.072026 0.020736 -1.343241 1
1.011158 0.056890 -1.362226 1
1.113597 0.109882 -1.334418 1
1.037536 0.018021 -1.328051 1
1.046250 0.102458 -1.366686 1
1.106080 0.050024 -1.336740 1
0.987402 0.016865 -1.359279 1
1.056349 0.038925 -1.432823 1
1.070963 0.019062 -1.316818 1
1.012937 0.088982 -1.362905 1
1.135200 0.108917 -1.322905 1
1.013280 0.016512 -1.321379 1
1.015328 0.039020 -1.454684 1
1.100566 0.017781 -1.332083 1
0.967136 0.029286 -1.372490 1
1.084252 0.038064 -1.430554 1
1.050735 0.010716 -1.303560 1
1.012561 0.096022 -1.389627 1
1.141208 0.082911 -1.319332 1
0.983699 0.019295 -1.328902 1
1.030202 0.020643 -1.487918 1
1.094018 0.015007 -1.305254 1
0.976101 0.071777 -1.372181 1
1.131294 0.080671 -1.370986 1
1.023270 0.011502 -1.296328 1
0.970714 0.017469 -1.501221 1
1.125033 0.020857 -1.333695 1
0.950539 0.019672 -1.355036 1
1.068434 0.024829 -1.479049 1
1.076269 0.016308 -1.282380 1
0.990729 0.102777 -1.383831 1
1.162964 0.109090 -1.316246 1
0.987380 0.011571 -1.304644 1
1.005248 0.024790 -1.514737 1
1.117870 0.014115 -1.304095 1
0.931445 0.033032 -1.385695 1
1.105122 0.023052 -1.456795 1
1.045285 0.013544 -1.273016 1
0.945658 0.030679 -1.498372 1
1.148153 0.035837 -1.337450 1
0.955015 0.022077 -1.322515 1
1.045332 0.021230 -1.518929 1
1.100408 0.014378 -1.275671 1
0.943678 0.070266 -1.402364 1
1.144552 0.045951 -1.397595 1
1.005542 0.011610 -1.277439 1
0.972611 0.027930 -1.533611 1
1.142843 0.022693 -1.306750 1
0.915435 0.018977 -1.366821 1
1.090312 0.019088 -1.499079 1
1.068563 0.009228 -1.260797 1
0.909782 0.026661 -1.499097 1
1.180519 0.099689 -1.309856 1
0.968220 0.022058 -1.290915 1
1.009387 0.013490 -1.560705 1
1.125648 0.014797 -1.276518 1
0.896110 0.030003 -1.413881 1
1.135715 0.031791 -1.446373 1
1.030454 0.012313 -1.254922 1
0.927380 0.018774 -1.554666 1
1.159528 0.018142 -1.327411 1
0.921216 0.018744 -1.331456 1
1.065559 0.017212 -1.541110 1
1.097701 0.013033 -1.251715 1
0.878961 0.022659 -1.485196 1
1.171776 0.057391 -1.374080 1
0.987847 0.019352 -1.263420 1
0.972298 0.017794 -1.581723 1
1.176257 0.097166 -1.234228 1
0.886563 0.024134 -1.383352 1
1.115584 0.014357 -1.505515 1
1.059121 0.012947 -1.239086 1
0.888849 0.018781 -1.551056 1
1.193939 0.091164 -1.297800 1
0.935545 0.016464 -1.296771 1
1.034904 0.023692 -1.571579 1
1.151863 0.084663 -1.212246 1
0.858508 0.020324 -1.456420 1
1.176440 0.080151 -1.389462 1
1.014315 0.017975 -1.239886 1
0.933943 0.026051 -1.586305 1
1.195255 0.103226 -1.245631 1
0.893477 0.024432 -1.342629 1
1.091645 0.015270 -1.549499 1
1.090497 0.015875 -1.229523 1
0.864810 0.029238 -1.520524 1
1.208585 0.121673 -1.301937 1
0.957749 0.013554 -1.264918 1
0.986180 0.014242 -1.614993 1
1.178035 0.096005 -1.213784 1
0.853495 0.022328 -1.413790 1
1.172599 0.100262 -1.408951 1
1.040972 0.009786 -1.226294 1
1.074725 0.035953 -1.363040 1
1.102310 0.080664 -1.340024 1
1.076457 0.023684 -1.347320 1
1.073779 0.080419 -1.347399 1
1.118954 0.068600 -1.336173 1
1.049518 0.023325 -1.345834 1
1.106657 0.113017 -1.339969 1
1.100198 0.021355 -1.336991 1
1.026635 0.032172 -1.376111 1
1.138499 0.109382 -1.328405 1
1.068182 0.022015 -1.319906 1
1.077501 0.107710 -1.354491 1
1.124465 0.029874 -1.346284 1
1.023599 0.025556 -1.346633 1
1.126146 0.122453 -1.346479 1
1.098301 0.018982 -1.311709 1
1.035273 0.077318 -1.366163 1
1.155350 0.098305 -1.325672 1
1.044738 0.020442 -1.313584 1
1.045244 0.035127 -1.449474 1
1.131032 0.027205 -1.319778 1
0.997115 0.025938 -1.368657 1
1.130414 0.078303 -1.385050 1
1.083190 0.020716 -1.292304 1
1.049967 0.107480 -1.370614 1
1.153616 0.048580 -1.340455 1
1.014216 0.019249 -1.323724 1
1.064650 0.024532 -1.474399 1
1.122798 0.020777 -1.296479 1
1.002027 0.063585 -1.372198 1
1.161185 0.091686 -1.354178 1
1.056531 0.020734 -1.285965 1
1.023461 0.046619 -1.461209 1
1.158376 0.041986 -1.312780 1
0.981996 0.018184 -1.350286 1
1.101213 0.028968 -1.465654 1
1.102493 0.015664 -1.278382 1
1.023598 0.105604 -1.373068 1
1.181781 0.095158 -1.321757 1
1.022373 0.020311 -1.294400 1
1.037055 0.020905 -1.508258 1
1.172094 0.096021 -1.245252 1
0.964705 0.032173 -1.379434 1
1.146651 0.055867 -1.417024 1
1.076422 0.021670 -1.264121 1
0.982397 0.031903 -1.486573 1
1.186026 0.076810 -1.300889 1
0.986617 0.022277 -1.317391 1
1.080782 0.027101 -1.502257 1
1.156044 0.093319 -1.223508 1
0.993469 0.092358 -1.373602 1
1.189285 0.103592 -1.339595 1
1.038921 0.020210 -1.268318 1
1.008542 0.028414 -1.521616 1
1.193731 0.106820 -1.244969 1
0.951370 0.021438 -1.358725 1
1.134753 0.053840 -1.453930 1
1.102052 0.025715 -1.247491 1
0.962574 0.047557 -1.466828 1
1.208322 0.117147 -1.290241 1
0.997831 0.021086 -1.287385 1
1.052953 0.029696 -1.530757 1
1.179397 0.100785 -1.219788 1
0.945360 0.047188 -1.390837 1
1.205362 0.161807 -1.314820 1
1.058562 0.013867 -1.250531 1
0.978081 0.037185 -1.521764 1
1.210791 0.113729 -1.254399 1
0.956924 0.022453 -1.323692 1
1.103532 0.029728 -1.516530 1
1.155703 0.098253 -1.200113 1
0.985717 0.109887 -1.387618 1
1.219286 0.140257 -1.296528 1
1.016490 0.018949 -1.260147 1
1.019022 0.034237 -1.549696 1
1.199324 0.102697 -1.226561 1
0.924804 0.027230 -1.374058 1
1.202472 0.179750 -1.326347 1
1.090792 0.025255 -1.229125 1
0.935700 0.028176 -1.528191 1
1.223060 0.117978 -1.272129 1
0.970489 0.021260 -1.289531 1
1.071241 0.028071 -1.554372 1
1.177762 0.096951 -1.201724 1
0.919537 0.047405 -1.421622 1
1.227295 0.175064 -1.294174 1
1.040894 0.016389 -1.237664 1
0.973649 0.027798 -1.570723 1
1.216753 0.104524 -1.240246 1
0.925904 0.021652 -1.339225 1
1.121945 0.010967 -1.543362 1
1.145724 0.091575 -1.186594 1
0.904671 0.028821 -1.509259 1
1.234817 0.141294 -1.280178 1
0.993345 0.022207 -1.256501 1
1.032862 0.031065 -1.580747 1
1.200605 0.101467 -1.206792 1
0.902358 0.035231 -1.394789 1
1.227147 0.200727 -1.299465 1
1.071425 0.018182 -1.219071 1
1.130863 0.072513 -1.330956 1
1.143303 0.088843 -1.330468 1
1.118251 0.026931 -1.342798 1
1.116552 0.088435 -1.337544 1
1.154723 0.064590 -1.337017 1
1.092697 0.026945 -1.341033 1
1.145353 0.117983 -1.332213 1
1.142689 0.029847 -1.328974 1
1.076008 0.044435 -1.362934 1
1.173980 0.110431 -1.324722 1
1.106552 0.018016 -1.321301 1
1.120332 0.116843 -1.342342 1
1.172686 0.059372 -1.321684 1
1.065387 0.023937 -1.345687 1
1.140152 0.068593 -1.393004 1
1.155960 0.069881 -1.275591 1
1.083203 0.089370 -1.351824 1
1.193239 0.108021 -1.315098 1
1.085633 0.020409 -1.312364 1
1.099759 0.056841 -1.423545 1
1.190889 0.097491 -1.268284 1
1.041533 0.025844 -1.365879 1
1.166662 0.073633 -1.385867 1
1.121577 0.019718 -1.292144 1
1.094039 0.114711 -1.359281 1
1.207948 0.109763 -1.290517 1
1.058554 0.022619 -1.319867 1
1.110972 0.029111 -1.464776 1
1.187106 0.102588 -1.241548 1
1.040746 0.055502 -1.375439 1
1.210471 0.137520 -1.310766 1
1.093825 0.015474 -1.288728 1
1.057142 0.024700 -1.477696 1
1.213668 0.111785 -1.261120 1
1.030416 0.024278 -1.343469 1
1.167400 0.093660 -1.397101 1
1.170119 0.097938 -1.226855 1
1.068821 0.111652 -1.362588 1
1.225834 0.133965 -1.287669 1
1.059829 0.012625 -1.298709 1
1.088032 0.030289 -1.492252 1
1.206661 0.104437 -1.238813 1
1.011091 0.032272 -1.375910 1
1.222808 0.180197 -1.295752 1
1.121128 0.037253 -1.254576 1
1.040583 0.048783 -1.462634 1
1.230093 0.118978 -1.267773 1
1.031220 0.023880 -1.314922 1
1.125933 0.028927 -1.494771 1
1.190662 0.101071 -1.218369 1
1.039596 0.096416 -1.365213 1
1.238768 0.166318 -1.282054 1
1.076361 0.015035 -1.271343 1
1.059834 0.034564 -1.507823 1
1.224433 0.104774 -1.245289 1
0.998726 0.022481 -1.355316 1
1.223270 0.204597 -1.296414 1
1.163839 0.093132 -1.208815 1
1.020729 0.062503 -1.444896 1
1.243622 0.133779 -1.275227 1
1.035608 0.012893 -1.292158 1
1.095026 0.020463 -1.534334 1
1.209770 0.098100 -1.220878 1
1.002337 0.061173 -1.374288 1
1.241809 0.183897 -1.291130 1
1.101281 0.022761 -1.245781 1
1.022122 0.028265 -1.523851 1
1.240241 0.107317 -1.257628 1
1.002234 0.022285 -1.322278 1
1.137522 0.002016 -1.541037 1
1.186250 0.095738 -1.201477 1
1.022252 0.099021 -1.392680 1
1.252180 0.150496 -1.285655 1
1.054214 0.013150 -1.263775 1
1.063057 0.026287 -1.551032 1
1.225884 0.084772 -1.237014 1
0.974450 0.028830 -1.369441 1
1.241929 0.212035 -1.290059 1
1.155492 0.096629 -1.191113 1
0.988983 0.029999 -1.517841 1
1.254547 0.121423 -1.267975 1
1.013389 0.019807 -1.289975 1
1.110771 0.012016 -1.565974 1
1.202622 0.075442 -1.213633 1
1.005210 0.096677 -1.369976 1
1.257027 0.177007 -1.289882 1
1.078021 0.012221 -1.240614 1
1.029798 0.036269 -1.551669 1
1.239294 0.062709 -1.266725 1
0.977528 0.027521 -1.332852 1
1.235329 0.232994 -1.293831 1
1.178209 0.094376 -1.185464 1
0.994804 0.079657 -1.446903 1
1.263904 0.135908 -1.282691 1
1.030936 0.014980 -1.261107 1
1.077254 0.022760 -1.582438 1
1.213651 0.026556 -1.249737 1
0.957387 0.041495 -1.385024 1
1.256078 0.202270 -1.294960 1
1.138567 0.088689 -1.183739 1
1.169624 0.075046 -1.322034 1
1.180272 0.089125 -1.323179 1
1.163357 0.041623 -1.325103 1
1.156993 0.094105 -1.325367 1
1.205657 0.109483 -1.294520 1
1.132708 0.024429 -1.336160 1
1.175681 0.102487 -1.338296 1
1.205443 0.109443 -1.264889 1
1.130360 0.072954 -1.332016 1
1.213308 0.125392 -1.305024 1
1.165073 0.068830 -1.279909 1
1.155713 0.112079 -1.338546 1
1.223747 0.114525 -1.273723 1
1.110327 0.029718 -1.334422 1
1.191833 0.105942 -1.350262 1
1.203696 0.109813 -1.243266 1
1.130998 0.105802 -1.329407 1
1.235904 0.142163 -1.280410 1
1.127331 0.022933 -1.304801 1
1.137574 0.046003 -1.424134 1
1.227079 0.109178 -1.254761 1
1.085944 0.026622 -1.357542 1
1.231317 0.168428 -1.291404 1
1.188743 0.104154 -1.232505 1
1.131611 0.111374 -1.353513 1
1.244354 0.125564 -1.272416 1
1.098930 0.018987 -1.316275 1
1.207821 0.179550 -1.306970 1
1.219565 0.102579 -1.236839 1
1.097201 0.080281 -1.345645 1
1.248138 0.160130 -1.284349 1
1.146644 0.049262 -1.262234 1
1.111701 0.042799 -1.448337 1
1.244854 0.108491 -1.258234 1
1.074326 0.024115 -1.336600 1
1.233159 0.189686 -1.294758 1
1.204133 0.102069 -1.220022 1
1.113551 0.119476 -1.346085 1
1.258261 0.138809 -1.277763 1
1.106142 0.023197 -1.286510 1
1.178359 0.144022 -1.363163 1
1.234754 0.088208 -1.244658 1
1.055350 0.029566 -1.369756 1
1.252967 0.179978 -1.289179 1
1.179844 0.098376 -1.213843 1
1.077386 0.030015 -1.469989 1
1.260950 0.116111 -1.264501 1
1.073993 0.023114 -1.309425 1
1.227260 0.206137 -1.300030 1
1.219237 0.088710 -1.221603 1
1.087170 0.105156 -1.348070 1
1.266655 0.155508 -1.285296 1
1.121846 0.028000 -1.258963 1
1.104599 0.029834 -1.500273 1
1.250242 0.074452 -1.260572 1
1.044774 0.022525 -1.347793 1
1.252273 0.202971 -1.290848 1
1.196514 0.093211 -1.204968 1
1.053553 0.037935 -1.457955 1
1.273215 0.126560 -1.275255 1
1.082184 0.021135 -1.281778 1
1.133317 -0.001327 -1.545551 1
1.227441 0.034315 -1.254884 1
1.058263 0.078389 -1.350456 1
1.268437 0.168796 -1.298668 1
1.166336 0.093850 -1.201849 1
1.067311 0.020071 -1.519119 1
1.270888 0.103188 -1.255423 1
1.045449 0.019244 -1.318118 1
1.246757 0.226443 -1.289381 1
1.208380 0.059976 -1.217580 1
1.040671 0.056258 -1.423673 1
1.279894 0.132884 -1.294512 1
1.102798 0.030042 -1.249600 1
1.105655 0.013530 -1.551637 1
1.248090 0.028808 -1.266982 1
1.020497 0.026151 -1.363321 1
1.267704 0.199053 -1.296204 1
1.187505 0.095612 -1.188310 1
1.037451 0.025554 -1.508640 1
1.284593 0.116041 -1.266637 1
1.054838 0.016054 -1.287236 1
1.233762 0.237964 -1.296777 1
1.222685 0.019934 -1.240528 1
1.045835 0.090180 -1.366197 1
1.265546 0.027813 -1.419425 1
1.151605 0.095435 -1.191874 1
1.077523 0.032561 -1.541144 1
1.274435 0.077441 -1.252127 1
1.021484 0.023349 -1.329065 1
1.261913 0.227026 -1.292800 1
1.190029 0.024845 -1.218186 1
1.024337 0.050672 -1.464560 1
1.291322 0.107875 -1.299519 1
1.071914 0.013195 -1.257974 1
1.116956 0.001126 -1.593489 1
1.247540 0.022424 -1.247560 1
1.006582 0.041843 -1.375441 1
1.256339 0.018941 -1.469884 1
1.172301 0.090649 -1.179725 1
1.210861 0.107396 -1.284473 1
1.217609 0.111747 -1.292442 1
1.216541 0.112426 -1.261117 1
1.184774 0.082630 -1.321771 1
1.237496 0.122025 -1.273125 1
1.194685 0.106345 -1.264014 1
1.213132 0.123407 -1.307022 1
1.233376 0.109006 -1.254459 1
1.163245 0.071587 -1.320002 1
1.245571 0.141929 -1.279223 1
1.206793 0.104394 -1.244717 1
1.184491 0.104015 -1.331956 1
1.251184 0.114014 -1.263112 1
1.142639 0.022024 -1.327151 1
1.237391 0.160801 -1.287749 1
1.228976 0.100819 -1.239126 1
1.162463 0.102977 -1.318408 1
1.260829 0.133843 -1.275782 1
1.184040 0.088746 -1.249342 1
1.202351 0.131276 -1.328939 1
1.249363 0.084872 -1.260994 1
1.128602 0.040168 -1.333362 1
1.256741 0.164782 -1.282702 1
1.215463 0.099869 -1.225469 1
1.166434 0.115588 -1.335244 1
1.269823 0.118825 -1.266561 1
1.140504 0.034473 -1.293568 1
1.235512 0.181286 -1.292425 1
1.232210 0.034965 -1.269845 1
1.138608 0.094321 -1.320084 1
1.271296 0.145239 -1.285513 1
1.194677 0.099288 -1.220954 1
1.146091 0.033767 -1.439599 1
1.269388 0.094559 -1.257401 1
1.109679 0.020514 -1.326194 1
1.256299 0.178744 -1.292827 1
1.215435 0.038189 -1.248748 1
1.124931 0.070904 -1.375673 1
1.282346 0.125493 -1.277193 1
1.164654 0.085936 -1.235808 1
1.223100 0.186720 -1.305378 1
1.252484 0.033021 -1.269394 1
1.093935 0.029512 -1.355339 1
1.274589 0.159513 -1.295975 1
1.206280 0.093434 -1.207570 1
1.116771 0.028084 -1.453350 1
1.286525 0.110604 -1.257844 1
1.105648 0.012740 -1.304406 1
1.251592 0.201267 -1.292111 1
1.232568 0.022287 -1.250837 1
1.122129 0.104655 -1.334026 1
1.287692 0.120912 -1.303065 1
1.179970 0.097801 -1.207888 1
1.195058 0.162154 -1.343338 1
1.277364 0.070100 -1.252893 1
1.082364 0.020389 -1.335848 1
1.273016 0.182650 -1.298503 1
1.207091 0.029027 -1.231486 1
1.092600 0.034060 -1.443300 1
1.297311 0.108607 -1.278013 1
1.118577 0.023888 -1.269083 1
1.240979 0.217586 -1.292947 1
1.254969 0.023374 -1.250901 1
1.095384 0.078309 -1.336182 1
1.275897 0.027842 -1.414489 1
1.193095 0.089437 -1.195531 1
1.107525 0.015613 -1.503161 1
1.297307 0.105089 -1.243810 1
1.081749 0.016058 -1.307964 1
1.266896 0.208586 -1.295447 1
1.226959 0.015520 -1.232234 1
1.072677 0.040517 -1.421120 1
1.302004 0.087593 -1.320105 1
1.160033 0.089912 -1.205575 1
1.224868 0.226036 -1.296479 1
1.279470 0.045531 -1.246245 1
1.060989 0.026637 -1.348627 1
1.265903 0.015397 -1.463672 1
1.196018 0.029799 -1.214048 1
1.077627 0.019286 -1.494482 1
1.309504 0.103826 -1.264859 1
1.090851 0.014693 -1.276939 1
1.257763 0.236180 -1.285511 1
1.252106 0.019192 -1.230900 1
1.086901 0.095384 -1.346201 1
1.301867 0.074338 -1.363399 1
1.178621 0.091480 -1.185582 1
1.110695 0.012092 -1.542225 1
1.302869 0.095540 -1.230428 1
1.059599 0.021201 -1.317735 1
1.280712 0.199496 -1.309335 1
1.217432 0.014962 -1.213828 1
1.051235 0.022648 -1.473489 1
1.315455 0.060319 -1.325266 1
1.134156 0.074498 -1.213131 1
1.240150 0.242494 -1.293249 1
1.277377 0.028605 -1.233862 1
1.048559 0.043328 -1.359052 1
1.290509 0.019895 -1.452594 1
1.181947 0.033382 -1.199959 1
1.235082 0.110755 -1.257453 1
1.241395 0.114292 -1.265550 1
1.236710 0.102632 -1.244546 1
1.217945 0.108284 -1.275306 1
1.256396 0.107747 -1.259737 1
1.218000 0.105211 -1.241236 1
1.237437 0.126625 -1.278546 1
1.247106 0.069587 -1.257771 1
1.200730 0.104163 -1.268932 1
1.263368 0.124331 -1.268872 1
1.226320 0.092068 -1.230048 1
1.210165 0.104173 -1.304278 1
1.266771 0.080336 -1.263200 1
1.195190 0.094015 -1.250450 1
1.254956 0.143779 -1.277331 1
1.234988 0.025972 -1.263225 1
1.172892 0.057929 -1.327203 1
1.279091 0.118000 -1.263995 1
1.211198 0.099090 -1.219991 1
1.228558 0.137834 -1.295832 1
1.265701 0.050231 -1.259957 1
1.165622 0.061396 -1.290214 1
1.272283 0.137623 -1.281142 1
1.219551 0.025234 -1.247732 1
1.187136 0.099409 -1.321037 1
1.288847 0.107062 -1.251630 1
1.190978 0.100013 -1.226115 1
1.251814 0.160978 -1.285491 1
1.253167 0.019454 -1.254862 1
1.147676 0.047454 -1.329509 1
1.288250 0.120546 -1.281060 1
1.211217 0.077365 -1.212192 1
1.211522 0.138785 -1.309935 1
1.289246 0.085800 -1.240125 1
1.146274 0.037141 -1.287318 1
1.272472 0.156455 -1.287780 1
1.234463 0.015513 -1.238141 1
1.165770 0.097782 -1.322157 1
1.300663 0.107534 -1.266838 1
1.193117 0.097279 -1.206807 1
1.241738 0.174547 -1.290641 1
1.275115 0.030021 -1.247015 1
1.122300 0.022251 -1.331414 1
1.290124 0.125205 -1.300511 1
1.209342 0.019354 -1.226780 1
1.168430 0.078007 -1.371850 1
1.305833 0.102717 -1.240381 1
1.167618 0.094128 -1.226635 1
1.266904 0.178621 -1.288408 1
1.254565 0.013055 -1.232342 1
1.139781 0.079313 -1.326791 1
1.306124 0.097205 -1.296815 1
1.197879 0.081334 -1.196066 1
1.222829 0.171683 -1.305171 1
1.298643 0.071507 -1.229083 1
1.110672 0.012859 -1.312847 1
1.303868 0.261177 -1.201266 1
1.227897 0.015112 -1.216017 1
1.156692 0.104679 -1.343626 1
1.314515 0.062731 -1.287131 1
1.174522 0.096496 -1.202472 1
1.255440 0.194212 -1.290632 1
1.277083 0.017588 -1.230576 1
1.106190 0.036460 -1.340670 1
1.306023 0.090988 -1.329157 1
1.195717 0.019578 -1.210815 1
1.180022 0.114335 -1.366635 1
1.316420 0.097748 -1.226343 1
1.116139 0.023769 -1.276322 1
1.280401 0.175016 -1.302991 1
1.250419 0.015116 -1.209583 1
1.136851 0.103598 -1.331480 1
1.320938 0.042027 -1.329292 1
1.184191 0.090254 -1.184583 1
1.238039 0.199952 -1.297153 1
1.301187 0.047430 -1.222214 1
1.090481 0.019347 -1.324808 1
1.296769 0.062081 -1.386289 1
1.215204 0.010452 -1.201491 1
1.117083 0.027176 -1.448107 1
1.326505 0.027960 -1.293349 1
1.146040 0.074499 -1.217000 1
1.269639 0.203200 -1.294437 1
1.273923 0.012677 -1.211442 1
1.108641 0.076670 -1.332602 1
1.324178 0.081459 -1.329147 1
1.180389 0.025230 -1.198240 1
1.216587 0.200488 -1.302478 1
1.321966 0.088513 -1.212963 1
1.089339 0.015896 -1.293942 1
1.276679 0.020144 -1.461358 1
1.240714 0.013920 -1.192180 1
1.134643 0.116638 -1.346864 1
1.336250 0.020608 -1.328301 1
1.165701 0.089693 -1.183748 1
1.254153 0.220520 -1.290752 1
1.298743 0.023484 -1.213813 1
1.069446 0.018519 -1.348281 1
1.318206 0.068202 -1.375184 1
1.199988 0.011467 -1.188770 1
1.232613 0.102265 -1.244556 1
1.239136 0.106554 -1.252064 1
1.237066 0.105871 -1.224039 1
1.217294 0.105846 -1.257614 1
1.250889 0.084312 -1.257115 1
1.217090 0.102372 -1.224782 1
1.233569 0.112317 -1.270093 1
1.238387 0.031266 -1.262796 1
1.198687 0.096892 -1.254783 1
1.259930 0.110615 -1.259992 1
1.214915 0.050031 -1.237355 1
1.210032 0.102779 -1.284759 1
1.260250 0.048244 -1.265106 1
1.196351 0.096691 -1.229961 1
1.250330 0.125160 -1.272915 1
1.232466 0.018052 -1.248008 1
1.168095 0.042233 -1.317237 1
1.275905 0.104771 -1.254619 1
1.210425 0.096835 -1.203637 1
1.221148 0.111368 -1.297727 1
1.259226 0.017680 -1.260396 1
1.177892 0.092546 -1.248392 1
1.269929 0.129304 -1.268308 1
1.217707 0.020212 -1.231085 1
1.176759 0.067759 -1.325448 1
1.284710 0.085752 -1.247456 1
1.191347 0.100272 -1.208060 1
1.246452 0.139800 -1.284034 1
1.250685 0.012031 -1.239378 1
1.140743 0.027047 -1.322668 1
1.286393 0.116479 -1.264647 1
1.194487 0.019997 -1.225787 1
1.200462 0.103201 -1.320065 1
1.284455 0.058786 -1.238434 1
1.169026 0.093186 -1.230456 1
1.269591 0.145017 -1.277845 1
1.233021 0.013080 -1.220147 1
1.154427 0.066253 -1.326373 1
1.298925 0.106432 -1.248571 1
1.191373 0.091770 -1.192547 1
1.234414 0.147695 -1.295030 1
1.271240 0.012542 -1.237553 1
1.118796 0.010767 -1.317257 1
1.288648 0.124069 -1.281161 1
1.207400 0.014044 -1.210533 1
1.179454 0.103875 -1.325498 1
1.302863 0.088806 -1.231153 1
1.166840 0.090576 -1.210739 1
1.263427 0.164420 -1.281569 1
1.253046 0.011496 -1.214025 1
1.115689 0.020801 -1.351274 1
1.305244 0.107712 -1.268623 1
1.182849 0.034431 -1.203046 1
1.217679 0.153911 -1.301229 1
1.293986 0.041637 -1.228086 1
1.113492 0.016167 -1.288872 1
1.287260 0.153117 -1.280213 1
1.225362 0.007661 -1.200935 1
1.157049 0.101577 -1.324031 1
1.320094 0.181705 -1.185875 1
1.172006 0.088862 -1.189404 1
1.251242 0.177831 -1.286388 1
1.274503 0.009808 -1.215627 1
1.099267 0.017622 -1.332207 1
1.304811 0.098389 -1.301557 1
1.193570 0.013538 -1.195154 1
1.156613 0.049354 -1.404729 1
1.313555 0.083189 -1.217398 1
1.143295 0.083048 -1.219766 1
1.278232 0.167188 -1.289942 1
1.248153 0.009212 -1.193883 1
1.126512 0.077299 -1.331872 1
1.318718 0.044628 -1.305570 1
1.181940 0.083619 -1.171082 1
1.233150 0.182456 -1.294215 1
1.297257 0.023818 -1.216508 1
1.091668 0.017927 -1.303642 1
1.297807 0.090236 -1.337412 1
1.213459 0.006445 -1.184873 1
1.138186 0.070045 -1.380965 1
1.332288 0.248663 -1.129994 1
1.152449 0.087915 -1.191567 1
1.266006 0.188148 -1.289257 1
1.271920 0.009273 -1.194519 1
1.080884 0.016978 -1.358182 1
1.321321 0.069396 -1.317205 1
1.175619 0.010951 -1.186650 1
1.205873 0.168592 -1.314008 1
1.319277 0.075584 -1.202810 1
1.092842 0.019814 -1.270298 1
1.277351 0.037041 -1.417869 1
1.239050 0.011084 -1.175316 1
1.132350 0.107109 -1.333031 1
1.333535 0.020502 -1.306458 1
1.166206 0.090066 -1.166709 1
1.249123 0.201560 -1.290306 1
1.296049 0.014227 -1.199963 1
1.070955 0.016734 -1.326577 1
1.316854 0.084314 -1.337610 1
1.197881 0.005960 -1.172997 1
1.218778 0.097944 -1.221076 1
1.223956 0.097478 -1.231693 1
1.207381 0.041357 -1.237665 1
1.201737 0.096014 -1.237337 1
1.225883 0.033614 -1.262945 1
1.202419 0.094217 -1.203998 1
1.217257 0.099848 -1.251826 1
1.221561 0.020170 -1.241107 1
1.185694 0.094908 -1.228890 1
1.243578 0.096373 -1.243386 1
1.192119 0.016440 -1.228893 1
1.188063 0.074708 -1.277045 1
1.240908 0.022675 -1.253072 1
1.182532 0.091543 -1.206810 1
1.232272 0.104685 -1.261217 1
1.217568 0.015060 -1.221638 1
1.169852 0.083074 -1.257450 1
1.255900 0.069150 -1.252409 1
1.193463 0.081078 -1.187122 1
1.203318 0.095542 -1.281357 1
1.242658 0.008205 -1.237679 1
1.162439 0.083773 -1.226694 1
1.252285 0.107791 -1.257820 1
1.202445 0.014331 -1.206518 1
1.145318 0.019620 -1.330988 1
1.259978 0.015849 -1.265299 1
1.176509 0.091535 -1.187490 1
1.224998 0.107264 -1.282672 1
1.235632 0.008930 -1.213427 1
1.125621 0.023278 -1.293393 1
1.269381 0.096355 -1.252712 1
1.178838 0.012553 -1.201770 1
1.172532 0.060606 -1.324516 1
1.262783 0.008009 -1.241391 1
1.150709 0.077169 -1.213330 1
1.251204 0.120198 -1.270817 1
1.218043 0.008326 -1.195288 1
1.120195 0.015871 -1.333250 1
1.280021 0.067807 -1.248559 1
1.177920 0.086688 -1.170044 1
1.207123 0.098791 -1.308249 1
1.255190 0.004229 -1.214664 1
1.110267 0.021988 -1.277657 1
1.273403 0.116070 -1.260294 1
1.192837 0.009941 -1.185221 1
1.150756 0.063525 -1.328160 1
1.282611 0.034201 -1.238720 1
1.154528 0.088744 -1.185660 1
1.242995 0.131863 -1.282262 1
1.237985 0.006415 -1.189716 1
1.097721 0.011236 -1.324810 1
1.289931 0.100025 -1.247697 1
1.162798 0.012736 -1.186408 1
1.185556 0.096581 -1.322753 1
1.275212 0.006713 -1.220734 1
1.101827 0.019374 -1.255808 1
1.269911 0.130417 -1.272141 1
1.211459 0.006391 -1.174670 1
1.114974 0.034945 -1.347612 1
1.298899 0.081687 -1.228104 1
1.160865 0.089609 -1.163664 1
1.226649 0.133450 -1.298764 1
1.259215 0.004250 -1.191786 1
1.082382 0.010218 -1.304424 1
1.291347 0.113079 -1.262247 1
1.179043 0.008797 -1.170220 1
1.164433 0.103289 -1.321686 1
1.294367 0.025757 -1.225143 1
1.127981 0.074834 -1.197486 1
1.261372 0.148545 -1.279033 1
1.233859 0.006427 -1.168854 1
1.082454 0.012699 -1.351002 1
1.306574 0.099872 -1.238859 1
1.149080 0.026509 -1.172449 1
1.199501 0.116734 -1.327165 1
1.280663 0.006081 -1.199358 1
1.076213 0.013003 -1.274913 1
1.286691 0.125766 -1.277964 1
1.200013 0.005741 -1.158565 1
1.138128 0.098099 -1.322299 1
1.311121 0.077856 -1.215130 1
1.140004 0.085332 -1.167137 1
1.247608 0.163634 -1.284721 1
1.257066 0.004150 -1.170866 1
1.066986 0.015635 -1.324931 1
1.307817 0.106785 -1.260254 1
1.164003 0.014634 -1.157975 1
1.161124 0.084643 -1.363669 1
1.300837 0.016622 -1.209536 1
1.077475 0.014575 -1.242707 1
1.277889 0.148972 -1.283301 1
1.224614 0.005931 -1.151561 1
1.083064 0.033461 -1.363899 1
1.319958 0.097221 -1.227154 1
1.153595 0.086555 -1.143553 1
1.227238 0.167872 -1.295416 1
1.280898 0.007740 -1.177325 1
1.054773 0.010699 -1.297641 1
1.302216 0.103990 -1.291599 1
1.186631 0.011817 -1.144151 1
1.198060 0.095039 -1.212033 1
1.203354 0.095436 -1.222090 1
1.201499 0.092701 -1.195895 1
1.181938 0.097254 -1.225382 1
1.218586 0.089595 -1.215999 1
1.181705 0.091266 -1.194825 1
1.194717 0.092872 -1.245551 1
1.200868 0.024793 -1.226658 1
1.163462 0.089720 -1.221015 1
1.223662 0.097352 -1.231789 1
1.180298 0.048132 -1.199745 1
1.172181 0.089977 -1.254346 1
1.218220 0.019774 -1.243047 1
1.162756 0.092005 -1.195442 1
1.211393 0.102752 -1.251498 1
1.195096 0.012141 -1.211415 1
1.125534 0.026859 -1.284242 1
1.226553 0.030231 -1.266633 1
1.176102 0.087802 -1.172565 1
1.164716 0.045020 -1.308059 1
1.221572 0.012683 -1.223488 1
1.128525 0.052850 -1.234311 1
1.231032 0.103271 -1.250137 1
1.180117 0.011568 -1.196079 1
1.118116 0.011772 -1.323686 1
1.237539 0.015638 -1.253632 1
1.154326 0.085336 -1.179799 1
1.202281 0.100578 -1.276504 1
1.213899 0.008399 -1.202107 1
1.096541 0.010886 -1.288845 1
1.248261 0.092348 -1.244597 1
1.158675 0.016844 -1.187650 1
1.135131 0.023050 -1.341712 1
1.240780 0.008665 -1.229430 1
1.133719 0.085438 -1.196976 1
1.226923 0.103640 -1.272665 1
1.195989 0.005676 -1.184883 1
1.094784 0.013453 -1.321754 1
1.251203 0.019556 -1.268607 1
1.158393 0.086578 -1.159087 1
1.175954 0.070247 -1.319925 1
1.234133 0.007569 -1.201531 1
1.080606 0.009036 -1.273044 1
1.251394 0.105965 -1.256999 1
1.172637 0.013421 -1.171807 1
1.109675 0.022135 -1.348824 1
1.257127 0.007377 -1.243134 1
1.130921 0.080635 -1.178710 1
1.214804 0.102727 -1.295276 1
1.216327 0.004452 -1.179195 1
1.075148 0.015122 -1.308646 1
1.265947 0.074970 -1.254295 1
1.162689 0.070282 -1.148079 1
1.161853 0.091660 -1.314850 1
1.253614 0.007723 -1.208920 1
1.078071 0.018275 -1.243572 1
1.247534 0.118759 -1.270564 1
1.189985 0.004871 -1.163695 1
1.081035 0.014952 -1.350309 1
1.271977 0.028626 -1.250460 1
1.140506 0.087646 -1.153492 1
1.191743 0.088162 -1.326887 1
1.238265 0.005920 -1.179791 1
1.061053 0.016076 -1.287106 1
1.270514 0.108798 -1.254634 1
1.160325 0.016019 -1.155224 1
1.131284 0.077751 -1.331671 1
1.270769 0.008240 -1.223700 1
1.108913 0.078297 -1.183881 1
1.236361 0.126274 -1.287181 1
1.212665 0.004905 -1.158156 1
1.059142 0.016034 -1.334830 1
1.283974 0.077579 -1.243324 1
1.150790 0.082462 -1.135745 1
1.173864 0.105231 -1.325609 1
1.258932 0.003481 -1.189548 1
1.050878 0.010552 -1.263200 1
1.266389 0.125014 -1.267581 1
1.179773 0.007814 -1.146044 1
1.086352 0.039021 -1.360586 1
1.286030 0.027029 -1.234650 1
1.121844 0.089008 -1.153944 1
1.221530 0.140339 -1.294897 1
1.235986 0.002989 -1.160252 1
1.041613 0.014705 -1.312119 1
1.287288 0.105248 -1.250637 1
1.142922 0.014303 -1.146085 1
1.149950 0.111402 -1.326328 1
1.278027 0.003174 -1.205491 1
1.051224 0.009417 -1.232497 1
1.257255 0.144359 -1.276337 1
1.203393 0.003324 -1.141202 1
1.050053 0.018654 -1.362660 1
1.298814 0.082860 -1.226103 1
1.133640 0.085164 -1.132963 1
1.168352 0.054535 -1.391525 1
1.259513 0.004270 -1.167999 1
1.034132 0.017733 -1.279485 1
1.283329 0.120800 -1.266922 1
1.166138 0.012045 -1.132322 1
1.179705 0.088678 -1.201063 1
1.186488 0.093914 -1.208169 1
1.184040 0.088112 -1.183922 1
1.162370 0.088859 -1.215535 1
1.201452 0.086999 -1.202918 1
1.164718 0.088518 -1.181529 1
1.177245 0.090985 -1.231450 1
1.179667 0.012562 -1.217568 1
1.141888 0.077376 -1.213154 1
1.206206 0.094170 -1.219104 1
1.159676 0.036972 -1.190078 1
1.146576 0.068283 -1.253451 1
1.198869 0.014726 -1.230125 1
1.143217 0.083506 -1.185109 1
1.192284 0.095414 -1.241472 1
1.176664 0.009218 -1.197081 1
1.109246 0.032200 -1.263226 1
1.220907 0.082218 -1.217921 1
1.159946 0.086464 -1.158547 1
1.149888 0.055265 -1.283337 1
1.202379 0.007059 -1.210882 1
1.113283 0.057549 -1.215031 1
1.213464 0.100500 -1.237151 1
1.161936 0.008861 -1.181498 1
1.098608 0.011902 -1.305247 1
1.218338 0.011920 -1.240063 1
1.140000 0.088931 -1.162828 1
1.180428 0.086914 -1.271070 1
1.195751 0.005757 -1.187919 1
1.077842 0.011671 -1.270227 1
1.223881 0.059684 -1.251807 1
1.147655 0.033453 -1.163957 1
1.114092 0.019761 -1.325878 1
1.222192 0.006063 -1.215395 1
1.111346 0.072539 -1.188528 1
1.209237 0.101952 -1.258542 1
1.178782 0.005606 -1.169338 1
1.074513 0.011998 -1.304226 1
1.231792 0.015774 -1.255176 1
1.142678 0.086048 -1.144502 1
1.144512 0.035647 -1.330380 1
1.215574 0.002732 -1.188694 1
1.064014 0.013602 -1.252107 1
1.232736 0.098641 -1.247479 1
1.154636 0.010020 -1.157552 1
1.085594 0.013044 -1.337128 1
1.238639 0.006918 -1.227975 1
1.117428 0.085960 -1.160502 1
1.190715 0.081807 -1.296076 1
1.198913 0.003194 -1.164526 1
1.052274 0.008568 -1.294571 1
1.245302 0.057913 -1.250830 1
1.150024 0.077559 -1.130045 1
1.118339 0.031356 -1.347563 1
1.235013 0.002777 -1.196400 1
1.056119 0.011424 -1.229733 1
1.226608 0.102649 -1.268038 1
1.173977 0.007572 -1.147119 1
1.060445 0.013834 -1.332029 1
1.249763 0.003099 -1.250600 1
1.125521 0.088690 -1.137969 1
1.166465 0.068505 -1.326528 1
1.219897 -0.000076 -1.167559 1
1.038835 0.010549 -1.272223 1
1.248951 0.084060 -1.257957 1
1.142200 0.011684 -1.141220 1
1.092473 0.035296 -1.349380 1
1.251853 0.002568 -1.211748 1
1.059957 0.015840 -1.200168 1
1.212835 0.102997 -1.291054 1
1.194914 0.000772 -1.144738 1
1.034968 0.008341 -1.321388 1
1.262147 0.046566 -1.249015 1
1.134132 0.079111 -1.122327 1
1.150608 0.092197 -1.320041 1
1.241293 0.002086 -1.175492 1
1.033482 0.013257 -1.243193 1
1.247047 0.113210 -1.262075 1
1.164132 0.010396 -1.129619 1
1.056165 0.019418 -1.357740 1
1.265307 0.005891 -1.231919 1
1.100178 0.076932 -1.144213 1
1.190550 0.096677 -1.317576 1
1.218642 0.000303 -1.146600 1
1.022760 0.016019 -1.292186 1
1.268300 0.092281 -1.245520 1
1.128642 0.019925 -1.127978 1
1.122257 0.090361 -1.327883 1
1.260215 0.003159 -1.190881 1
1.034692 0.012897 -1.212516 1
1.236169 0.125724 -1.277124 1
1.187792 0.006281 -1.125041 1
1.029695 0.018449 -1.343213 1
1.275537 0.026764 -1.246945 1
1.117272 0.082738 -1.118933 1
1.161491 0.088914 -1.341256 1
1.242165 0.001941 -1.154550 1
1.011388 0.011907 -1.264493 1
1.265083 0.113996 -1.257609 1
1.149626 0.011132 -1.117120 1
1.164849 0.090651 -1.186874 1
1.169764 0.090792 -1.197075 1
1.167851 0.085558 -1.172486 1
1.142924 0.080061 -1.207503 1
1.186485 0.089038 -1.188936 1
1.148214 0.085466 -1.170105 1
1.158625 0.084220 -1.222462 1
1.169366 0.033900 -1.192345 1
1.125407 0.076454 -1.199917 1
1.189713 0.091929 -1.207659 1
1.160253 0.082342 -1.153771 1
1.109287 0.020241 -1.271140 1
1.186795 0.033094 -1.206133 1
1.128943 0.086290 -1.170167 1
1.173553 0.088010 -1.233214 1
1.160163 0.009968 -1.182816 1
1.082777 0.013633 -1.259826 1
1.205226 0.083290 -1.204503 1
1.143946 0.083867 -1.146836 1
1.118875 0.022341 -1.291951 1
1.184855 0.005127 -1.198183 1
1.080181 0.023371 -1.220075 1
1.196353 0.096891 -1.226657 1
1.146552 0.012089 -1.166035 1
1.077619 0.007247 -1.292477 1
1.201223 0.013443 -1.225470 1
1.123517 0.085837 -1.151100 1
1.160626 0.078821 -1.263088 1
1.178769 0.004394 -1.174971 1
1.058092 0.008891 -1.256084 1
1.214775 0.090552 -1.218340 1
1.146205 0.070338 -1.133888 1
1.092172 0.013173 -1.314775 1
1.204918 0.005364 -1.202300 1
1.070001 0.021962 -1.201329 1
1.191046 0.096171 -1.249475 1
1.163060 0.007420 -1.154871 1
1.054449 0.009710 -1.289552 1
1.213979 0.015444 -1.241673 1
1.127770 0.085803 -1.131482 1
1.116815 0.013449 -1.331962 1
1.198565 0.001252 -1.176056 1
1.044637 0.011244 -1.237625 1
1.215875 0.096397 -1.236164 1
1.139782 0.013441 -1.142218 1
1.064946 0.010406 -1.322619 1
1.221343 0.007272 -1.214426 1
1.097198 0.076004 -1.151726 1
1.158995 0.039729 -1.314631 1
1.182309 0.001710 -1.151776 1
1.032652 0.007293 -1.278968 1
1.222332 0.029523 -1.256089 1
1.133073 0.072070 -1.119264 1
1.092106 0.015652 -1.343993 1
1.218075 0.002162 -1.183585 1
1.035608 0.006611 -1.216512 1
1.210188 0.103270 -1.254328 1
1.159185 0.010915 -1.132231 1
1.039135 0.010271 -1.317980 1
1.232142 0.004651 -1.236180 1
1.108216 0.083472 -1.126933 1
1.135113 0.034076 -1.339730 1
1.203572 -0.000228 -1.154521 1
1.018953 0.008434 -1.257147 1
1.232315 0.084720 -1.244523 1
1.128243 0.016559 -1.125351 1
1.062471 0.013970 -1.350258 1
1.234821 0.003234 -1.198381 1
1.041168 0.013129 -1.185953 1
1.190526 0.085531 -1.291380 1
1.180344 0.005450 -1.129646 1
1.020244 0.016278 -1.298812 1
1.239480 0.014677 -1.256092 1
1.118789 0.077456 -1.109750 1
1.106444 0.031853 -1.356409 1
1.224476 0.000043 -1.163569 1
1.013844 0.010884 -1.228333 1
1.228513 0.103878 -1.256304 1
1.148726 0.010814 -1.115850 1
1.032187 0.011809 -1.346828 1
1.247415 0.003584 -1.220132 1
1.067769 0.044558 -1.144547 1
1.166676 0.078635 -1.318517 1
1.202791 0.000445 -1.133591 1
1.002370 0.013770 -1.276994 1
1.244956 0.052443 -1.260385 1
1.123156 0.044082 -1.105227 1
1.076272 0.034289 -1.360968 1
1.243374 0.002562 -1.178486 1
1.014579 0.008940 -1.198524 1
1.213958 0.103807 -1.281916 1
1.172658 0.007334 -1.111426 1
1.008186 0.015404 -1.328457 1
1.254507 0.001635 -1.249094 1
1.100589 0.078571 -1.107118 1
1.144302 0.090874 -1.324332 1
1.225897 0.000615 -1.142457 1
0.994931 0.015484 -1.245645 1
1.246611 0.102833 -1.253406 1
1.136854 0.018196 -1.100975 1
1.153497 0.086723 -1.173161 1
1.158145 0.086489 -1.183569 1
1.158664 0.086976 -1.156092 1
1.134197 0.083342 -1.188884 1
1.175333 0.085640 -1.175224 1
1.139661 0.087968 -1.152892 1
1.150616 0.090214 -1.202035 1
1.153897 0.018952 -1.183254 1
1.115062 0.075636 -1.183495 1
1.179241 0.091355 -1.192141 1
1.149727 0.079558 -1.139541 1
1.109909 0.047439 -1.234845 1
1.169031 0.009723 -1.201928 1
1.118382 0.083996 -1.155101 1
1.163742 0.090111 -1.215197 1
1.149587 0.009883 -1.165982 1
1.081004 0.032982 -1.228842 1
1.190967 0.070036 -1.196588 1
1.134373 0.083185 -1.131459 1
1.127304 0.069642 -1.240608 1
1.174314 0.006531 -1.180745 1
1.096736 0.077672 -1.172193 1
1.184380 0.092455 -1.213457 1
1.136896 0.013685 -1.148510 1
1.069138 0.013664 -1.268233 1
1.188936 0.009980 -1.210508 1
1.114640 0.086646 -1.134667 1
1.144662 0.065906 -1.254624 1
1.169160 0.007622 -1.157022 1
1.050538 0.015592 -1.232480 1
1.205750 0.096509 -1.198912 1
1.136210 0.068495 -1.118992 1
1.078571 0.009603 -1.297104 1
1.194052 0.006389 -1.185298 1
1.077844 0.057103 -1.165234 1
1.181321 0.099599 -1.230408 1
1.154432 0.012149 -1.136472 1
1.041427 0.006802 -1.271176 1
1.202070 0.014645 -1.225219 1
1.116832 0.081640 -1.117518 1
1.107917 0.021512 -1.305762 1
1.188627 0.004240 -1.158482 1
1.035335 0.013976 -1.216580 1
1.204692 0.095273 -1.220912 1
1.130228 0.014276 -1.125251 1
1.055164 0.014454 -1.298929 1
1.209648 0.005954 -1.198698 1
1.088693 0.077541 -1.134402 1
1.158204 0.071190 -1.272052 1
1.173883 0.008065 -1.133066 1
1.024303 0.012378 -1.255315 1
1.209461 0.025194 -1.241854 1
1.123434 0.070616 -1.104140 1
1.077220 0.010091 -1.327437 1
1.207522 0.003852 -1.166779 1
1.027835 0.011616 -1.194535 1
1.198157 0.099844 -1.240370 1
1.149132 0.010161 -1.116266 1
1.030614 0.015857 -1.292960 1
1.221071 0.008683 -1.217293 1
1.097242 0.079436 -1.112560 1
1.115377 0.015751 -1.334185 1
1.194009 0.003178 -1.137255 1
1.009447 0.010901 -1.235426 1
1.220746 0.083439 -1.229341 1
1.123153 0.027825 -1.104751 1
1.050943 0.015137 -1.327963 1
1.223679 0.003899 -1.182080 1
1.038622 0.026741 -1.160828 1
1.170718 0.060250 -1.293281 1
1.170482 0.005487 -1.113708 1
1.006555 0.012421 -1.280540 1
1.226426 0.009991 -1.242113 1
1.108682 0.074710 -1.095015 1
1.088325 0.019245 -1.345898 1
1.214589 0.003724 -1.146362 1
1.004528 0.013072 -1.207289 1
1.216297 0.099961 -1.242946 1
1.139163 0.010748 -1.099625 1
1.022302 0.015341 -1.322371 1
1.235489 0.002397 -1.204620 1
1.070003 0.066072 -1.118242 1
1.137939 0.033309 -1.336995 1
1.193936 0.005306 -1.116183 1
0.988717 0.009770 -1.258748 1
1.229845 0.035916 -1.254836 1
1.117587 0.052197 -1.086414 1
1.055252 0.017210 -1.353808 1
1.232418 0.002784 -1.162843 1
1.005735 0.011454 -1.177849 1
1.200109 0.095490 -1.271426 1
1.163227 0.007751 -1.095453 1
0.994555 0.012184 -1.309154 1
1.242188 0.001510 -1.232593 1
1.091310 0.077551 -1.091474 1
1.105731 0.028502 -1.358610 1
1.215215 -0.001222 -1.127784 1
0.982026 0.012206 -1.227178 1
1.232201 0.088312 -1.248007 1
1.129960 0.024347 -1.082873 1
1.143376 0.086607 -1.155245 1
1.149478 0.090436 -1.163280 1
1.146243 0.080554 -1.141626 1
1.125585 0.086895 -1.168356 1
1.161692 0.075937 -1.162571 1
1.129314 0.086707 -1.135742 1
1.140189 0.089891 -1.183669 1
1.141023 0.013845 -1.166505 1
1.096721 0.058425 -1.173859 1
1.167823 0.088325 -1.175873 1
1.138033 0.074894 -1.124068 1
1.105654 0.062090 -1.205720 1
1.157240 0.008814 -1.182932 1
1.109582 0.086117 -1.135964 1
1.153147 0.089906 -1.196616 1
1.138869 0.010688 -1.146567 1
1.071292 0.035593 -1.206668 1
1.164698 0.019595 -1.206342 1
1.122718 0.078618 -1.115864 1
1.103962 0.041439 -1.238887 1
1.163214 0.007281 -1.161354 1
1.083686 0.071748 -1.156436 1
1.173416 0.091455 -1.195664 1
1.125581 0.012120 -1.130229 1
1.057802 0.014147 -1.246039 1
1.176563 0.007674 -1.192326 1
1.104004 0.084502 -1.117810 1
1.124119 0.042603 -1.250107 1
1.159092 0.010632 -1.137071 1
1.039714 0.016318 -1.210725 1
1.189556 0.077236 -1.192591 1
1.122142 0.058195 -1.105396 1
1.066565 0.009442 -1.274714 1
1.182413 0.005859 -1.166662 1
1.069522 0.060589 -1.144374 1
1.170134 0.098165 -1.212584 1
1.143762 0.012130 -1.117952 1
1.034723 0.015616 -1.243344 1
1.188948 0.010071 -1.208273 1
1.105865 0.078593 -1.101119 1
1.096389 0.022607 -1.282707 1
1.177893 0.005792 -1.139310 1
1.024685 0.014772 -1.194896 1
1.193106 0.092781 -1.204168 1
1.122118 0.020297 -1.104430 1
1.043712 0.014992 -1.275835 1
1.197581 0.004747 -1.180344 1
1.078541 0.076671 -1.116495 1
1.150619 0.081075 -1.244588 1
1.163956 0.010746 -1.113794 1
1.012936 0.012376 -1.233181 1
1.195272 0.016690 -1.227286 1
1.112156 0.066767 -1.087985 1
1.067644 0.015347 -1.300328 1
1.196254 0.004304 -1.148158 1
