ply
format ascii 1.0
element vertex 1542
property float x
property float y
property float z
property uchar label
end_header
-0.221081 0.669835 -0.181807 1
-0.233167 0.731169 -0.185870 1
-0.197022 0.675697 -0.185689 1
-0.227218 0.742430 -0.178972 1
-0.212341 0.668819 -0.189178 1
-0.214684 0.730623 -0.158506 1
-0.231745 0.647141 -0.172814 1
-0.235758 0.740212 -0.183376 1
-0.225380 0.743250 -0.169439 1
-0.220957 0.655743 -0.188141 1
-0.235481 0.746322 -0.177873 1
-0.207102 0.653285 -0.192407 1
-0.232311 0.641463 -0.182941 1
-0.244227 0.740630 -0.184298 1
-0.232700 0.748909 -0.169413 1
-0.217157 0.638502 -0.190726 1
-0.246480 0.619978 -0.169857 1
-0.243228 0.748649 -0.179376 1
-0.229735 0.630359 -0.189070 1
-0.251764 0.738596 -0.186374 1
-0.240068 0.753463 -0.171844 1
-0.244976 0.612242 -0.178667 1
-0.250407 0.749627 -0.182627 1
-0.211503 0.717142 -0.185017 1
-0.216113 0.721996 -0.185703 1
-0.208433 0.699826 -0.181745 1
-0.208231 0.718647 -0.175762 1
-0.199586 0.703009 -0.179246 1
-0.218008 0.730750 -0.181891 1
-0.213960 0.686691 -0.181853 1
-0.199272 0.714487 -0.172186 1
-0.199322 0.689653 -0.182120 1
-0.211320 0.729275 -0.172916 1
-0.225961 0.735357 -0.183976 1
-0.207584 0.682174 -0.187246 1
-0.218739 0.737974 -0.174854 1
-0.221471 0.668980 -0.181482 1
-0.233500 0.731062 -0.185952 1
-0.197310 0.674658 -0.185272 1
-0.227534 0.742374 -0.179086 1
-0.212705 0.668436 -0.189144 1
-0.215001 0.730755 -0.158784 1
-0.232174 0.646481 -0.172604 1
-0.236079 0.740178 -0.183506 1
-0.200161 0.657213 -0.186178 1
-0.225681 0.743430 -0.169754 1
-0.221379 0.653950 -0.187370 1
-0.235796 0.746300 -0.178008 1
-0.207475 0.653034 -0.192459 1
-0.232842 0.639237 -0.181954 1
-0.244555 0.740584 -0.184413 1
-0.233001 0.748994 -0.169640 1
-0.217553 0.638096 -0.190703 1
-0.247045 0.618514 -0.169245 1
-0.243537 0.748685 -0.179554 1
-0.230168 0.629751 -0.188948 1
-0.252122 0.738436 -0.186399 1
-0.240366 0.753533 -0.172054 1
-0.245469 0.611479 -0.178458 1
-0.250714 0.749681 -0.182816 1
-0.235802 0.747631 -0.154948 1
-0.211879 0.717971 -0.185559 1
-0.216473 0.722341 -0.185917 1
-0.208849 0.701508 -0.182812 1
-0.208577 0.717944 -0.175197 1
-0.199925 0.702597 -0.178923 1
-0.218380 0.730259 -0.181486 1
-0.214342 0.688577 -0.182989 1
-0.199499 0.712528 -0.170676 1
-0.226663 0.727709 -0.190527 1
-0.199708 0.689913 -0.182240 1
-0.211679 0.728712 -0.172424 1
-0.226329 0.735310 -0.183914 1
-0.207994 0.683577 -0.188034 1
-0.219134 0.736691 -0.173759 1
-0.221828 0.669998 -0.182042 1
-0.233826 0.731515 -0.186266 1
-0.197757 0.675786 -0.185880 1
-0.227909 0.742282 -0.178981 1
-0.213086 0.669243 -0.189555 1
-0.215385 0.729181 -0.157356 1
-0.232350 0.650118 -0.174629 1
-0.236406 0.740558 -0.183783 1
-0.201077 0.667260 -0.191529 1
-0.226120 0.742328 -0.168750 1
-0.221731 0.655217 -0.188009 1
-0.236153 0.746439 -0.178098 1
-0.207918 0.655666 -0.193755 1
-0.233075 0.641832 -0.183274 1
-0.244829 0.741214 -0.184891 1
-0.233470 0.748097 -0.168795 1
-0.217923 0.639501 -0.191354 1
-0.246909 0.623818 -0.172004 1
-0.243927 0.748598 -0.179458 1
-0.230451 0.631843 -0.189925 1
-0.251933 0.741313 -0.188590 1
-0.240819 0.753029 -0.171563 1
-0.245677 0.613568 -0.179448 1
-0.251056 0.749854 -0.182945 1
-0.225125 0.618250 -0.193921 1
-0.212492 0.717722 -0.185411 1
-0.217084 0.722303 -0.185910 1
-0.209571 0.704643 -0.184900 1
-0.209216 0.718626 -0.175736 1
-0.200515 0.701832 -0.178446 1
-0.218975 0.730541 -0.181718 1
-0.214996 0.687835 -0.182560 1
-0.200154 0.712891 -0.170990 1
-0.200380 0.690167 -0.182440 1
-0.212292 0.729289 -0.172913 1
-0.226922 0.735306 -0.183920 1
-0.208652 0.683416 -0.187974 1
-0.219717 0.737091 -0.174108 1
-0.222544 0.668642 -0.181288 1
-0.234434 0.731418 -0.186198 1
-0.198429 0.675742 -0.185898 1
-0.228488 0.742361 -0.179053 1
-0.213762 0.668696 -0.189290 1
-0.215989 0.729509 -0.157673 1
-0.233130 0.648965 -0.174010 1
-0.236985 0.740632 -0.183839 1
-0.201755 0.667127 -0.191499 1
-0.226678 0.742794 -0.169170 1
-0.222444 0.654637 -0.187737 1
-0.236722 0.746531 -0.178174 1
-0.208602 0.655070 -0.193494 1
-0.233857 0.640815 -0.182779 1
-0.245404 0.741297 -0.184947 1
-0.234016 0.748409 -0.169079 1
-0.218652 0.638553 -0.190934 1
-0.247782 0.622590 -0.171391 1
-0.244412 0.749178 -0.179938 1
-0.231228 0.630937 -0.189527 1
-0.252502 0.741421 -0.188656 1
-0.241353 0.753294 -0.171797 1
-0.246555 0.612327 -0.178883 1
-0.251507 0.750487 -0.183453 1
-0.225892 0.617620 -0.193683 1
-0.212532 0.717741 -0.185363 1
-0.217126 0.722332 -0.185867 1
-0.209609 0.704641 -0.184840 1
-0.209250 0.718678 -0.175711 1
-0.200549 0.701872 -0.178418 1
-0.219014 0.730585 -0.181683 1
-0.215034 0.687840 -0.182501 1
-0.200183 0.712928 -0.170958 1
-0.200416 0.690200 -0.182407 1
-0.212325 0.729339 -0.172885 1
-0.226964 0.735342 -0.183875 1
-0.208693 0.683435 -0.187929 1
-0.219752 0.737139 -0.174075 1
-0.222583 0.668636 -0.181218 1
-0.234478 0.731451 -0.186146 1
-0.198466 0.675762 -0.185860 1
-0.228527 0.742403 -0.179010 1
-0.213804 0.668700 -0.189233 1
-0.216012 0.729550 -0.157633 1
-0.233164 0.648980 -0.173943 1
-0.237028 0.740674 -0.183794 1
-0.201795 0.667142 -0.191457 1
-0.226710 0.742846 -0.169136 1
-0.222486 0.654645 -0.187677 1
-0.236761 0.746576 -0.178129 1
-0.208644 0.655068 -0.193439 1
-0.233897 0.640822 -0.182710 1
-0.245447 0.741344 -0.184899 1
-0.234049 0.748460 -0.169040 1
-0.218695 0.638547 -0.190869 1
-0.247815 0.622617 -0.171320 1
-0.244452 0.749228 -0.179894 1
-0.231272 0.630937 -0.189457 1
-0.252548 0.741471 -0.188607 1
-0.241388 0.753348 -0.171756 1
-0.246593 0.612345 -0.178809 1
-0.251626 0.750163 -0.183094 1
-0.225937 0.617624 -0.193618 1
-0.212640 0.717823 -0.185059 1
-0.217226 0.723890 -0.186616 1
-0.209683 0.703802 -0.183916 1
-0.209375 0.719189 -0.175715 1
-0.200674 0.702353 -0.178354 1
-0.219099 0.732623 -0.182876 1
-0.215132 0.690461 -0.183749 1
-0.200581 0.691445 -0.182798 1
-0.212421 0.728009 -0.171449 1
-0.227047 0.736074 -0.184093 1
-0.208834 0.685455 -0.188734 1
-0.219883 0.736973 -0.173575 1
-0.222587 0.671663 -0.182584 1
-0.234454 0.733034 -0.186982 1
-0.198586 0.676424 -0.185844 1
-0.228616 0.743050 -0.179198 1
-0.213903 0.671783 -0.190540 1
-0.216145 0.726692 -0.154735 1
-0.233116 0.651040 -0.174705 1
-0.237086 0.741350 -0.183995 1
-0.201943 0.668606 -0.191849 1
-0.226920 0.741622 -0.167701 1
-0.222482 0.657761 -0.188927 1
-0.236847 0.747063 -0.178205 1
-0.208723 0.655600 -0.193311 1
-0.233769 0.643984 -0.183952 1
-0.245405 0.742483 -0.185473 1
-0.234242 0.748000 -0.168271 1
-0.218724 0.641687 -0.191993 1
-0.247963 0.621888 -0.170524 1
-0.244575 0.749376 -0.179693 1
-0.231272 0.632133 -0.189627 1
-0.252564 0.742101 -0.188779 1
-0.241550 0.753282 -0.171357 1
-0.246389 0.615051 -0.179705 1
-0.251665 0.750708 -0.183234 1
-0.237692 0.741389 -0.148324 1
-0.225678 0.627021 -0.197389 1
-0.212845 0.718005 -0.184837 1
-0.217427 0.724045 -0.186385 1
-0.210009 0.708337 -0.186542 1
-0.209658 0.721845 -0.177340 1
-0.200894 0.702619 -0.178165 1
-0.219297 0.732843 -0.182707 1
-0.215346 0.693419 -0.185215 1
-0.200798 0.691665 -0.182560 1
-0.212630 0.728354 -0.171370 1
-0.227242 0.736241 -0.183890 1
-0.209042 0.685580 -0.188431 1
-0.220081 0.737236 -0.173449 1
-0.222797 0.671688 -0.182205 1
-0.234643 0.733203 -0.186777 1
-0.198914 0.678233 -0.186505 1
-0.228808 0.743235 -0.179019 1
-0.214111 0.671838 -0.190182 1
-0.216352 0.726968 -0.154600 1
-0.233329 0.651108 -0.174324 1
-0.237272 0.741528 -0.183810 1
-0.202155 0.668724 -0.191521 1
-0.227110 0.741913 -0.167609 1
-0.222692 0.657832 -0.188562 1
-0.237032 0.747258 -0.178041 1
-0.208934 0.655684 -0.192951 1
-0.233981 0.644048 -0.183566 1
-0.245585 0.742665 -0.185292 1
-0.234426 0.748246 -0.168152 1
-0.218935 0.641753 -0.191608 1
-0.248175 0.622013 -0.170140 1
-0.244751 0.749590 -0.179550 1
-0.231484 0.632201 -0.189232 1
-0.252739 0.742278 -0.188596 1
-0.241728 0.753510 -0.171233 1
-0.246391 0.617309 -0.180352 1
-0.251833 0.750924 -0.183095 1
-0.237867 0.741745 -0.148298 1
-0.225891 0.627040 -0.196969 1
-0.214913 0.721862 -0.186977 1
-0.219427 0.727412 -0.188237 1
-0.212145 0.712790 -0.188962 1
-0.211772 0.725401 -0.179340 1
-0.203276 0.708374 -0.181467 1
-0.221264 0.736230 -0.184676 1
-0.202476 0.712311 -0.168977 1
-0.203019 0.694329 -0.183672 1
-0.214717 0.731134 -0.172847 1
-0.229200 0.738560 -0.185076 1
-0.211238 0.688677 -0.189779 1
-0.222092 0.739917 -0.174918 1
-0.200989 0.677865 -0.185755 1
-0.230736 0.745864 -0.180497 1
-0.216327 0.673806 -0.190820 1
-0.218558 0.725541 -0.152366 1
-0.235816 0.651549 -0.174032 1
-0.239327 0.742751 -0.184169 1
-0.204327 0.669445 -0.191436 1
-0.229238 0.742681 -0.167432 1
-0.224957 0.660174 -0.189365 1
-0.239103 0.748431 -0.178317 1
-0.211182 0.656525 -0.192935 1
-0.224730 0.731874 -0.147802 1
-0.236423 0.644864 -0.183536 1
-0.247674 0.743839 -0.185639 1
-0.236534 0.749427 -0.168354 1
-0.221171 0.649144 -0.194816 1
-0.250803 0.623097 -0.170177 1
-0.246754 0.751299 -0.180309 1
-0.233853 0.634326 -0.189841 1
-0.243869 0.754502 -0.171292 1
-0.249581 0.612603 -0.177586 1
-0.253576 0.753828 -0.184893 1
-0.239111 0.750906 -0.156234 1
-0.228601 0.620135 -0.193474 1
-0.214963 0.722046 -0.186647 1
-0.219478 0.727625 -0.187938 1
-0.212192 0.712970 -0.188623 1
-0.211823 0.725572 -0.178988 1
-0.203322 0.708550 -0.181104 1
-0.221319 0.736440 -0.184378 1
-0.202527 0.712496 -0.168601 1
-0.229307 0.735416 -0.194349 1
-0.203065 0.694515 -0.183306 1
-0.214775 0.731331 -0.172509 1
-0.229138 0.740555 -0.186171 1
-0.211287 0.688952 -0.189474 1
-0.222153 0.740132 -0.174610 1
-0.201035 0.678061 -0.185380 1
-0.230797 0.746102 -0.180228 1
-0.216378 0.674056 -0.190486 1
-0.218632 0.725785 -0.152028 1
-0.239392 0.742976 -0.183897 1
-0.204373 0.669660 -0.191071 1
-0.229309 0.742903 -0.167122 1
-0.225010 0.660506 -0.189062 1
-0.239172 0.748657 -0.178042 1
-0.211232 0.656762 -0.192572 1
-0.224810 0.732145 -0.147488 1
-0.236478 0.645232 -0.183233 1
-0.247743 0.744062 -0.185374 1
-0.236608 0.749667 -0.168071 1
-0.221222 0.649421 -0.194471 1
-0.250857 0.623575 -0.169902 1
-0.246827 0.751525 -0.180044 1
-0.233906 0.634670 -0.189513 1
-0.243946 0.754735 -0.171017 1
-0.249648 0.612912 -0.177212 1
-0.253649 0.754053 -0.184642 1
-0.239192 0.751174 -0.155957 1
-0.228657 0.620400 -0.193090 1
-0.214915 0.722029 -0.186592 1
-0.219430 0.727641 -0.187906 1
-0.212145 0.712961 -0.188576 1
-0.211771 0.725531 -0.178908 1
-0.203270 0.708528 -0.181043 1
-0.221270 0.736447 -0.184336 1
-0.202471 0.712436 -0.168500 1
-0.229263 0.735429 -0.194317 1
-0.203019 0.694509 -0.183257 1
-0.214723 0.731305 -0.172432 1
-0.229091 0.740584 -0.186144 1
-0.211249 0.689015 -0.189469 1
-0.222103 0.740122 -0.174544 1
-0.200995 0.678070 -0.185340 1
-0.230749 0.746131 -0.180196 1
-0.216345 0.674103 -0.190467 1
-0.218583 0.725758 -0.151927 1
-0.239351 0.742997 -0.183860 1
-0.204338 0.669687 -0.191043 1
-0.229265 0.742878 -0.167032 1
-0.224983 0.660587 -0.189055 1
-0.239131 0.748667 -0.177990 1
-0.211203 0.656801 -0.192546 1
-0.224762 0.732158 -0.147415 1
-0.236455 0.645335 -0.183227 1
-0.247707 0.744081 -0.185334 1
-0.236566 0.749665 -0.167998 1
-0.221198 0.649482 -0.194453 1
-0.246791 0.751530 -0.179987 1
-0.233888 0.634752 -0.189496 1
-0.243911 0.754720 -0.170931 1
-0.249641 0.612976 -0.177171 1
-0.253616 0.754068 -0.184595 1
-0.239151 0.751177 -0.155874 1
-0.228643 0.620448 -0.193054 1
-0.214709 0.722902 -0.187466 1
-0.219205 0.728573 -0.188839 1
-0.211956 0.714340 -0.189749 1
-0.211581 0.726140 -0.179619 1
-0.203037 0.708114 -0.181000 1
-0.221050 0.736997 -0.185024 1
-0.202345 0.713577 -0.169600 1
-0.202935 0.696840 -0.184983 1
-0.214533 0.732118 -0.173342 1
-0.228974 0.739314 -0.185431 1
-0.211069 0.690935 -0.190866 1
-0.221902 0.740347 -0.174994 1
-0.224935 0.672044 -0.181625 1
-0.235967 0.739874 -0.191020 1
-0.200821 0.678822 -0.186018 1
-0.230528 0.746436 -0.180725 1
-0.216123 0.675119 -0.191288 1
-0.218404 0.726100 -0.152477 1
-0.235346 0.656267 -0.176432 1
-0.239157 0.742947 -0.184105 1
-0.204153 0.670584 -0.191774 1
-0.229098 0.742621 -0.167070 1
-0.224713 0.662084 -0.190117 1
-0.238871 0.749193 -0.178723 1
-0.210987 0.657386 -0.193094 1
-0.236068 0.647733 -0.184761 1
-0.247492 0.744173 -0.185702 1
-0.236380 0.749693 -0.168299 1
-0.221064 0.644251 -0.192118 1
-0.250871 0.621618 -0.169059 1
-0.246619 0.751412 -0.180177 1
-0.233582 0.636096 -0.190417 1
-0.254641 0.743903 -0.189152 1
-0.243764 0.754490 -0.171002 1
-0.249633 0.611026 -0.176486 1
-0.253450 0.753931 -0.184781 1
-0.228335 0.622366 -0.194182 1
-0.214872 0.722787 -0.188022 1
-0.219363 0.728268 -0.189254 1
-0.212042 0.709325 -0.187046 1
-0.211722 0.724777 -0.179245 1
-0.203236 0.708241 -0.181740 1
-0.221231 0.735749 -0.184706 1
-0.217507 0.691981 -0.184179 1
-0.202548 0.713706 -0.170374 1
-0.203123 0.696660 -0.185519 1
-0.214697 0.732099 -0.173994 1
-0.229133 0.738958 -0.185795 1
-0.211246 0.690280 -0.191117 1
-0.222053 0.740198 -0.175533 1
-0.225164 0.671063 -0.181714 1
-0.201021 0.678621 -0.186555 1
-0.230682 0.746106 -0.181100 1
-0.216327 0.670450 -0.189335 1
-0.218577 0.726063 -0.153159 1
-0.235619 0.655229 -0.176519 1
-0.239311 0.742663 -0.184520 1
-0.204201 0.666904 -0.190415 1
-0.229239 0.742579 -0.167714 1
-0.224938 0.661264 -0.190337 1
-0.239021 0.748919 -0.179142 1
-0.211119 0.652662 -0.191319 1
-0.236364 0.646422 -0.184746 1
-0.247640 0.743933 -0.186148 1
-0.236519 0.749544 -0.168842 1
-0.221290 0.643598 -0.192460 1
-0.251190 0.620732 -0.169301 1
-0.246753 0.751229 -0.180670 1
-0.234153 0.630212 -0.188231 1
-0.254797 0.743629 -0.189568 1
-0.243881 0.754421 -0.171610 1
-0.249948 0.610182 -0.176781 1
-0.253624 0.753542 -0.185090 1
-0.228601 0.621332 -0.194392 1
-0.214826 0.722597 -0.188380 1
-0.219363 0.725481 -0.187748 1
-0.211996 0.709110 -0.187395 1
-0.211679 0.724596 -0.179611 1
-0.203029 0.705164 -0.180127 1
-0.221187 0.735518 -0.185027 1
-0.217466 0.691594 -0.184434 1
-0.202510 0.713559 -0.170773 1
-0.203078 0.696466 -0.185888 1
-0.214654 0.731914 -0.174355 1
-0.229092 0.738701 -0.186094 1
-0.211198 0.689976 -0.191426 1
-0.221951 0.741796 -0.177377 1
-0.225132 0.670646 -0.181975 1
-0.200978 0.678428 -0.186936 1
-0.230643 0.745850 -0.181395 1
-0.216285 0.670211 -0.189699 1
-0.218542 0.725872 -0.153529 1
-0.235600 0.654790 -0.176786 1
-0.239444 0.741069 -0.183753 1
-0.204154 0.666617 -0.190752 1
-0.228987 0.745335 -0.170681 1
-0.224902 0.660910 -0.190648 1
-0.238986 0.748673 -0.179444 1
-0.211075 0.652398 -0.191681 1
-0.236350 0.645902 -0.184985 1
-0.247604 0.743698 -0.186466 1
-0.236481 0.749326 -0.169170 1
-0.221251 0.643299 -0.192815 1
-0.251182 0.620334 -0.169626 1
-0.246716 0.751006 -0.180991 1
-0.234129 0.629785 -0.188537 1
-0.254765 0.743385 -0.189880 1
-0.243841 0.754225 -0.171956 1
-0.249935 0.609805 -0.177130 1
-0.253589 0.753313 -0.185406 1
-0.265259 0.132760 -0.451143 1
-0.267124 0.134534 -0.454142 1
-0.261452 0.128711 -0.450459 1
-0.270835 0.135134 -0.446862 1
-0.263967 0.131778 -0.458894 1
-0.265504 0.125926 -0.442804 1
-0.274249 0.137050 -0.453683 1
-0.258032 0.126756 -0.455741 1
-0.272915 0.131171 -0.439696 1
-0.270716 0.133267 -0.462084 1
-0.259477 0.122460 -0.445053 1
-0.276899 0.139296 -0.447182 1
-0.260652 0.127166 -0.462724 1
-0.273494 0.120429 -0.434533 1
-0.278813 0.136403 -0.459660 1
-0.253639 0.123009 -0.452755 1
-0.279515 0.134154 -0.437841 1
-0.269933 0.128294 -0.467286 1
-0.263058 0.117878 -0.437337 1
-0.284001 0.139289 -0.451710 1
-0.254232 0.124416 -0.462103 1
-0.282990 0.119613 -0.428936 1
-0.283984 0.129261 -0.466352 1
-0.252843 0.119036 -0.446261 1
-0.285797 0.137770 -0.440404 1
-0.258860 0.130069 -0.469687 1
-0.276274 0.108956 -0.427618 1
-0.288367 0.137605 -0.458974 1
-0.248897 0.121636 -0.457843 1
-0.291330 0.123400 -0.427578 1
-0.289786 0.115891 -0.472409 1
-0.257792 0.113270 -0.437170 1
-0.289273 0.141712 -0.446839 1
-0.254633 0.123209 -0.468581 1
-0.289409 0.106401 -0.420086 1
-0.284363 0.138115 -0.467354 1
-0.245428 0.119938 -0.450778 1
-0.293163 0.133359 -0.431972 1
-0.419639 -0.031881 -0.480945 1
-0.276788 0.097157 -0.424067 1
-0.296583 0.138899 -0.455152 1
-0.244959 0.123669 -0.464169 1
-0.298183 0.112462 -0.417887 1
-0.319248 0.098858 -0.475748 1
-0.250484 0.112294 -0.440578 1
-0.295461 0.140580 -0.439575 1
-0.265343 0.114383 -0.475136 1
-0.295026 0.089740 -0.412649 1
-0.299496 0.134696 -0.465160 1
-0.239714 0.122009 -0.456853 1
-0.301914 0.123983 -0.421764 1
-0.417849 -0.013431 -0.488547 1
-0.275157 0.086393 -0.423971 1
-0.300102 0.142181 -0.449252 1
-0.245608 0.123751 -0.470743 1
-0.300631 0.101398 -0.409705 1
-0.326087 0.104969 -0.475707 1
-0.242562 0.114432 -0.446435 1
-0.300678 0.137266 -0.430734 1
-0.376560 0.000298 -0.489092 1
-0.296137 0.074556 -0.408661 1
-0.305048 0.138648 -0.460531 1
-0.236597 0.124043 -0.463645 1
-0.306959 0.113763 -0.411690 1
-0.335625 0.081199 -0.485709 1
-0.256210 0.098757 -0.431970 1
-0.301659 0.144584 -0.441740 1
-0.345984 0.006234 -0.482997 1
-0.302314 0.087249 -0.402782 1
-0.318554 0.122536 -0.472481 1
-0.235778 0.118106 -0.453610 1
-0.307377 0.129495 -0.420169 1
-0.409344 -0.016390 -0.499195 1
-0.286602 0.070527 -0.411293 1
-0.309051 0.142227 -0.453713 1
-0.239276 0.121699 -0.470701 1
-0.310370 0.100884 -0.402041 1
-0.334555 0.096490 -0.484905 1
-0.244137 0.105447 -0.439943 1
-0.305412 0.142671 -0.432391 1
-0.360196 0.003043 -0.494254 1
-0.316353 0.055485 -0.392543 1
-0.316813 0.133640 -0.467099 1
-0.231824 0.121177 -0.461251 1
-0.310551 0.120835 -0.409694 1
-0.352306 0.059035 -0.496070 1
-0.264533 0.084592 -0.421403 1
-0.312520 0.144029 -0.445026 1
-0.333407 0.004191 -0.484033 1
-0.305803 0.091856 -0.396296 1
-0.329549 0.114019 -0.481036 1
-0.234632 0.112125 -0.448632 1
-0.312525 0.135205 -0.420902 1
-0.359945 0.021258 -0.501566 1
-0.307662 0.046600 -0.394139 1
-0.317262 0.141095 -0.459715 1
-0.232010 0.121783 -0.469020 1
-0.313313 0.108584 -0.399144 1
-0.343474 0.084262 -0.494442 1
-0.251986 0.089659 -0.430423 1
-0.264808 0.129019 -0.451364 1
-0.265848 0.131662 -0.454500 1
-0.260661 0.125231 -0.450707 1
-0.269689 0.132137 -0.447162 1
-0.262339 0.129233 -0.459305 1
-0.265216 0.121859 -0.442880 1
-0.270971 0.136062 -0.454274 1
-0.256038 0.124581 -0.456166 1
-0.272558 0.127331 -0.439781 1
-0.269086 0.130706 -0.462516 1
-0.258548 0.119002 -0.445254 1
-0.274103 0.137834 -0.447753 1
-0.258322 0.125342 -0.463184 1
-0.273369 0.116107 -0.434481 1
-0.273874 0.136849 -0.460319 1
-0.251433 0.121073 -0.453195 1
-0.278635 0.130874 -0.438044 1
-0.268197 0.125774 -0.467741 1
-0.263682 0.112543 -0.437091 1
-0.278709 0.139882 -0.452553 1
-0.250626 0.124140 -0.462635 1
-0.282427 0.115759 -0.428963 1
-0.279068 0.129616 -0.466891 1
-0.250873 0.116772 -0.446647 1
-0.281201 0.137740 -0.441343 1
-0.260664 0.123748 -0.470133 1
-0.276819 0.103620 -0.427261 1
-0.282565 0.138534 -0.459702 1
-0.245019 0.121824 -0.458446 1
-0.284818 0.125115 -0.429172 1
-0.284660 0.116405 -0.472855 1
-0.257704 0.108572 -0.437057 1
-0.283845 0.142252 -0.447795 1
-0.249987 0.124154 -0.469056 1
-0.289680 0.101423 -0.419755 1
-0.289835 0.129361 -0.467708 1
-0.242637 0.118802 -0.451299 1
-0.289598 0.132322 -0.432782 1
-0.438559 -0.059305 -0.482515 1
-0.270985 0.099018 -0.425573 1
-0.291183 0.139262 -0.455926 1
-0.240794 0.124319 -0.464701 1
-0.291882 0.113940 -0.419598 1
-0.322043 0.091504 -0.476442 1
-0.249407 0.108771 -0.440719 1
-0.290663 0.140477 -0.440550 1
-0.396035 -0.042192 -0.480718 1
-0.308071 0.070238 -0.407802 1
-0.292316 0.136477 -0.465790 1
-0.236436 0.121634 -0.457404 1
-0.293009 0.127420 -0.424110 1
-0.434981 -0.037563 -0.490582 1
-0.262170 0.097608 -0.427709 1
-0.294762 0.142375 -0.450131 1
-0.241264 0.124604 -0.471168 1
-0.300193 0.097083 -0.409515 1
-0.322567 0.103340 -0.476208 1
-0.241781 0.110501 -0.446555 1
-0.296756 0.136387 -0.431635 1
-0.411159 -0.044959 -0.492705 1
-0.296279 0.068919 -0.408141 1
-0.300428 0.138211 -0.461159 1
-0.233891 0.122946 -0.464100 1
-0.294853 0.120165 -0.415382 1
-0.331270 0.080124 -0.486134 1
-0.256663 0.092858 -0.431561 1
-0.296723 0.144413 -0.442696 1
-0.359570 -0.017510 -0.484630 1
-0.344265 0.037099 -0.386132 1
-0.322035 0.115472 -0.473080 1
-0.234985 0.114216 -0.453811 1
-0.299598 0.131634 -0.422223 1
-0.407572 -0.021639 -0.500061 1
-0.274807 0.080019 -0.415157 1
-0.303645 0.142260 -0.454508 1
-0.235561 0.121914 -0.471125 1
-0.298386 0.107564 -0.406115 1
-0.330503 0.095173 -0.485341 1
-0.244217 0.100043 -0.439741 1
-0.300528 0.142403 -0.433481 1
-0.360642 -0.004382 -0.495278 1
-0.315579 0.050598 -0.392230 1
-0.315670 0.130415 -0.467595 1
-0.229981 0.118862 -0.461640 1
-0.295656 0.129050 -0.414372 1
-0.339813 0.065491 -0.495522 1
-0.261584 0.083104 -0.422002 1
-0.306843 0.144157 -0.446014 1
-0.343738 -0.016611 -0.485576 1
-0.306145 0.086558 -0.395630 1
-0.328006 0.110784 -0.481617 1
-0.235059 0.106207 -0.448505 1
-0.306022 0.136076 -0.422569 1
-0.356287 0.018829 -0.502117 1
-0.303084 0.046305 -0.395370 1
-0.316726 0.137534 -0.460140 1
-0.229068 0.121073 -0.469452 1
-0.293713 0.121571 -0.406248 1
-0.332907 0.088551 -0.494097 1
-0.248857 0.088652 -0.431064 1
-0.259074 0.124439 -0.452306 1
-0.260124 0.127112 -0.455436 1
-0.254699 0.120919 -0.451684 1
-0.264137 0.127308 -0.448079 1
-0.256872 0.124450 -0.460216 1
-0.258725 0.117931 -0.443970 1
-0.265088 0.131631 -0.455224 1
-0.248956 0.121710 -0.457257 1
-0.267644 0.121656 -0.440553 1
-0.263427 0.126017 -0.463434 1
-0.250770 0.116767 -0.446584 1
-0.268316 0.133243 -0.448708 1
-0.249790 0.124098 -0.464268 1
-0.263907 0.115095 -0.436316 1
-0.269469 0.130969 -0.461145 1
-0.242538 0.120581 -0.454577 1
-0.272348 0.126500 -0.439112 1
-0.264521 0.118891 -0.468630 1
-0.255238 0.110813 -0.438668 1
-0.271307 0.136682 -0.453679 1
-0.243426 0.121624 -0.463666 1
-0.277031 0.110067 -0.429776 1
-0.272605 0.125469 -0.467816 1
-0.243301 0.114569 -0.447940 1
-0.274623 0.133666 -0.442457 1
-0.250087 0.124758 -0.471061 1
-0.269121 0.100367 -0.428690 1
-0.278197 0.132521 -0.460518 1
-0.236267 0.121518 -0.459698 1
-0.282337 0.116789 -0.429252 1
-0.434822 -0.048088 -0.476588 1
-0.250030 0.106086 -0.438457 1
-0.275062 0.140058 -0.449174 1
-0.240620 0.124376 -0.470023 1
-0.283558 0.095974 -0.420704 1
-0.264016 0.142473 -0.468908 1
-0.236525 0.114986 -0.452312 1
-0.282729 0.128180 -0.433994 1
-0.432844 -0.072119 -0.483929 1
-0.265074 0.093666 -0.426460 1
-0.280568 0.138344 -0.457263 1
-0.232961 0.123046 -0.465749 1
-0.293703 0.100822 -0.418134 1
-0.324952 0.076652 -0.477718 1
-0.241951 0.106330 -0.442052 1
-0.281238 0.138530 -0.442174 1
-0.367436 -0.026264 -0.481150 1
-0.283914 0.084423 -0.414880 1
-0.287838 0.130362 -0.466646 1
-0.230851 0.117329 -0.458343 1
-0.291103 0.118618 -0.423973 1
-0.418318 -0.038103 -0.491267 1
-0.260891 0.086193 -0.427115 1
-0.283596 0.141663 -0.451708 1
-0.234572 0.121810 -0.472099 1
-0.327089 0.056691 -0.398703 1
-0.323348 0.091210 -0.477366 1
-0.236291 0.105549 -0.447435 1
-0.289256 0.132594 -0.432994 1
-0.377345 -0.024406 -0.491920 1
-0.275086 0.081175 -0.414511 1
-0.289853 0.136855 -0.462303 1
-0.228453 0.118547 -0.465038 1
-0.299445 0.104927 -0.412876 1
-0.430892 -0.029480 -0.495637 1
-0.246631 0.093500 -0.433687 1
-0.289523 0.140452 -0.443878 1
-0.346203 -0.018246 -0.485529 1
-0.306243 0.064624 -0.399170 1
-0.326032 0.101308 -0.474143 1
-0.229825 0.109036 -0.454674 1
-0.295011 0.125239 -0.422849 1
-0.376150 -0.004805 -0.498757 1
-0.271401 0.070587 -0.414959 1
-0.294443 0.139637 -0.455719 1
-0.227736 0.120887 -0.472055 1
-0.300742 0.093581 -0.403876 1
-0.334147 0.080110 -0.487049 1
-0.239832 0.092960 -0.440265 1
-0.294312 0.137526 -0.434543 1
-0.341310 0.002270 -0.495235 1
-0.310116 0.042342 -0.392525 1
-0.301756 0.131103 -0.468588 1
-0.225321 0.113186 -0.462511 1
-0.299993 0.114792 -0.411951 1
-0.404753 -0.013124 -0.505303 1
-0.258448 0.073339 -0.421778 1
-0.295122 0.143235 -0.447746 1
-0.237843 0.111596 -0.479532 1
-0.386057 -0.012087 -0.360115 1
-0.328290 0.099525 -0.482895 1
-0.229594 0.101163 -0.449378 1
-0.301838 0.129350 -0.423109 1
-0.343443 0.017834 -0.502529 1
-0.279691 0.061890 -0.403385 1
-0.303650 0.137314 -0.461412 1
-0.223963 0.116209 -0.470406 1
-0.300691 0.104149 -0.402224 1
-0.333601 0.075830 -0.495906 1
-0.246479 0.077843 -0.430759 1
-0.253218 0.122814 -0.453047 1
-0.255597 0.124040 -0.455989 1
-0.247943 0.120456 -0.452566 1
-0.259406 0.124377 -0.448683 1
-0.250421 0.123563 -0.460912 1
-0.251246 0.118156 -0.445125 1
-0.261227 0.127861 -0.455707 1
-0.240972 0.122965 -0.458177 1
-0.261011 0.120598 -0.441578 1
-0.257487 0.124376 -0.464047 1
-0.244751 0.115536 -0.447425 1
-0.264361 0.129544 -0.449196 1
-0.244084 0.122573 -0.464860 1
-0.260878 0.110055 -0.436509 1
-0.266197 0.126555 -0.461607 1
-0.237251 0.118696 -0.455225 1
-0.266503 0.124504 -0.439986 1
-0.254339 0.121875 -0.469252 1
-0.247625 0.111390 -0.439982 1
-0.267151 0.133185 -0.454202 1
-0.235840 0.122668 -0.464379 1
-0.272757 0.106162 -0.430271 1
-0.270953 0.119291 -0.468297 1
-0.238855 0.111460 -0.448469 1
-0.269776 0.130710 -0.443113 1
-0.245161 0.122310 -0.471577 1
-0.263471 0.098030 -0.429548 1
-0.269739 0.132805 -0.461331 1
-0.231536 0.119058 -0.460251 1
-0.278407 0.112579 -0.429679 1
-0.276478 0.105359 -0.474387 1
-0.243309 0.105736 -0.439561 1
-0.270752 0.136679 -0.449726 1
-0.234911 0.123134 -0.470544 1
-0.279073 0.091945 -0.421212 1
-0.280888 0.119510 -0.469137 1
-0.233065 0.110598 -0.452672 1
-0.276655 0.126133 -0.434962 1
-0.385787 -0.032817 -0.483061 1
-0.261020 0.089292 -0.426809 1
-0.275434 0.135570 -0.457875 1
-0.228709 0.120018 -0.466254 1
-0.289902 0.096031 -0.418452 1
-0.430389 -0.037014 -0.482316 1
-0.240476 0.098819 -0.441826 1
-0.274851 0.136809 -0.443120 1
-0.237857 0.122819 -0.476447 1
-0.278924 0.080761 -0.415512 1
-0.285557 0.124888 -0.467134 1
-0.227729 0.112537 -0.458707 1
-0.288181 0.113385 -0.424119 1
-0.411380 -0.043744 -0.492113 1
-0.257356 0.080942 -0.427262 1
-0.278613 0.138715 -0.452341 1
-0.228570 0.121145 -0.472589 1
-0.302216 0.073361 -0.406385 1
-0.327262 0.078835 -0.478279 1
-0.232571 0.101247 -0.447788 1
-0.282046 0.131357 -0.434232 1
-0.350199 -0.004969 -0.490957 1
-0.275221 0.071005 -0.413190 1
-0.287649 0.131463 -0.462734 1
-0.224759 0.114648 -0.465511 1
-0.300501 0.095451 -0.411579 1
-0.419428 -0.030639 -0.496090 1
-0.246395 0.083620 -0.432856 1
-0.281080 0.140156 -0.445122 1
-0.236719 0.114685 -0.479194 1
-0.306456 0.054218 -0.397660 1
-0.285135 0.128072 -0.474109 1
-0.226586 0.104118 -0.455000 1
-0.290385 0.121604 -0.423499 1
-0.355081 0.006643 -0.497857 1
-0.266042 0.067359 -0.415664 1
-0.285323 0.139717 -0.456696 1
-0.225113 0.115480 -0.472585 1
-0.355908 0.028029 -0.381553 1
-0.351515 0.054851 -0.489458 1
-0.234302 0.091089 -0.441023 1
-0.285461 0.137417 -0.436096 1
-0.325409 0.010003 -0.494859 1
-0.291273 0.054895 -0.398871 1
-0.286993 0.135598 -0.469259 1
-0.222566 0.107636 -0.462887 1
-0.302190 0.104751 -0.410285 1
-0.355158 0.026124 -0.500679 1
-0.253402 0.069936 -0.422366 1
-0.289549 0.140512 -0.448483 1
-0.303592 0.008080 -0.485602 1
-0.320612 0.047978 -0.386158 1
-0.328264 0.091129 -0.483785 1
-0.226350 0.095952 -0.449625 1
-0.295320 0.127179 -0.424282 1
-0.330127 0.021932 -0.502167 1
-0.278924 0.052021 -0.402049 1
-0.300017 0.132923 -0.461925 1
-0.222293 0.109057 -0.470909 1
-0.304303 0.092181 -0.399596 1
-0.358379 0.042940 -0.500198 1
-0.242429 0.073130 -0.431023 1
-0.249095 0.119138 -0.453615 1
-0.251828 0.119970 -0.456526 1
-0.241961 0.119044 -0.453406 1
-0.255672 0.120221 -0.449176 1
-0.244494 0.122055 -0.461649 1
-0.248209 0.113080 -0.445439 1
-0.257115 0.124173 -0.456283 1
-0.236274 0.120184 -0.458824 1
-0.258253 0.115249 -0.441815 1
-0.252233 0.121939 -0.464707 1
-0.240692 0.111694 -0.447949 1
-0.261637 0.124434 -0.449542 1
-0.237672 0.121853 -0.465583 1
-0.255595 0.107322 -0.437290 1
-0.259722 0.125182 -0.462354 1
-0.233215 0.115002 -0.455784 1
-0.265388 0.117564 -0.439865 1
-0.247416 0.121394 -0.469911 1
-0.246583 0.103502 -0.439704 1
-0.264334 0.128262 -0.454623 1
-0.230968 0.120219 -0.465029 1
-0.263698 0.107307 -0.432084 1
-0.261832 0.120500 -0.469007 1
-0.235023 0.107252 -0.448944 1
-0.266061 0.126544 -0.443587 1
-0.238847 0.121445 -0.472197 1
-0.257876 0.095417 -0.430406 1
-0.265946 0.128795 -0.461895 1
-0.228336 0.114265 -0.460749 1
-0.272315 0.110336 -0.430685 1
-0.251956 0.123267 -0.474597 1
-0.242551 0.097050 -0.439149 1
-0.267802 0.131933 -0.450124 1
-0.229732 0.121134 -0.471176 1
-0.266280 0.097236 -0.424375 1
-0.288412 0.104164 -0.469616 1
-0.229527 0.105970 -0.453123 1
-0.275181 0.119645 -0.434864 1
-0.348204 -0.002193 -0.482485 1
-0.254379 0.087973 -0.427992 1
-0.270159 0.132853 -0.458553 1
-0.225439 0.115370 -0.466832 1
-0.280597 0.096736 -0.420484 1
-0.447055 -0.067449 -0.484088 1
-0.236512 0.094376 -0.442255 1
-0.272460 0.131521 -0.443359 1
-0.341861 -0.020780 -0.482260 1
-0.271774 0.079427 -0.416892 1
-0.274041 0.127529 -0.467915 1
-0.225099 0.106613 -0.459112 1
-0.284212 0.108846 -0.424543 1
-0.396049 -0.040502 -0.492392 1
-0.248668 0.082575 -0.429099 1
-0.272130 0.136975 -0.453197 1
-0.226123 0.115378 -0.473256 1
-0.294213 0.072216 -0.408044 1
-0.454336 -0.051700 -0.483751 1
-0.226799 0.099757 -0.448646 1
-0.280101 0.125467 -0.434262 1
-0.334762 0.001194 -0.490995 1
-0.271270 0.065441 -0.413346 1
-0.278667 0.131623 -0.463567 1
-0.222451 0.108296 -0.466030 1
-0.313458 0.073425 -0.406185 1
-0.417601 -0.041928 -0.497400 1
-0.239766 0.082716 -0.434005 1
-0.275420 0.137645 -0.445940 1
-0.308133 0.006598 -0.485377 1
-0.287310 0.066189 -0.403829 1
-0.308248 0.099903 -0.475243 1
-0.223889 0.097880 -0.455332 1
-0.286528 0.117092 -0.423914 1
-0.339912 0.011967 -0.497635 1
-0.256730 0.069440 -0.417893 1
-0.278956 0.137703 -0.457470 1
-0.223196 0.108594 -0.473274 1
-0.329164 0.044903 -0.390312 1
-0.382620 0.014793 -0.493189 1
-0.234388 0.079775 -0.440309 1
-0.281421 0.133430 -0.436629 1
-0.314758 0.011291 -0.495154 1
-0.283778 0.053349 -0.400397 1
-0.296795 0.120119 -0.469698 1
-0.219980 0.101333 -0.463367 1
-0.298343 0.099723 -0.410588 1
-0.354714 0.015244 -0.502188 1
-0.247395 0.067607 -0.423310 1
-0.281102 0.140010 -0.449638 1
-0.296179 0.005589 -0.486337 1
-0.328662 0.027678 -0.380897 1
-0.324441 0.085651 -0.484525 1
-0.224558 0.087745 -0.449640 1
-0.289826 0.124084 -0.425166 1
-0.324927 0.016350 -0.503105 1
-0.272628 0.049133 -0.403053 1
-0.292244 0.131637 -0.462696 1
-0.219410 0.103326 -0.471565 1
-0.340195 0.047152 -0.384013 1
-0.369311 0.021577 -0.503047 1
-0.235230 0.073161 -0.432365 1
-0.237297 0.118281 -0.455705 1
-0.238273 0.121028 -0.458713 1
-0.231814 0.116560 -0.455293 1
-0.243680 0.119132 -0.451403 1
-0.233571 0.120482 -0.463424 1
-0.237665 0.110611 -0.447525 1
-0.247497 0.120396 -0.458014 1
-0.228771 0.114517 -0.460330 1
-0.247429 0.112580 -0.443993 1
-0.238754 0.122890 -0.466516 1
-0.233202 0.105465 -0.449412 1
-0.252314 0.120107 -0.451313 1
-0.228059 0.119020 -0.467203 1
-0.244595 0.104881 -0.439598 1
-0.248580 0.122976 -0.464089 1
-0.226605 0.107891 -0.457158 1
-0.254084 0.115053 -0.442160 1
-0.236387 0.119802 -0.471471 1
-0.237423 0.099005 -0.441531 1
-0.256210 0.122688 -0.456186 1
-0.224701 0.112988 -0.466483 1
-0.255132 0.101515 -0.433774 1
-0.247891 0.121244 -0.470628 1
-0.228388 0.099676 -0.450230 1
-0.259650 0.119061 -0.444858 1
-0.228625 0.119366 -0.473704 1
-0.251837 0.086026 -0.431283 1
-0.259122 0.121904 -0.463344 1
-0.222248 0.106413 -0.462130 1
-0.265354 0.102583 -0.431946 1
-0.259964 0.099402 -0.476559 1
-0.233680 0.092048 -0.440886 1
-0.261135 0.124895 -0.451490 1
-0.224280 0.112847 -0.472715 1
-0.260578 0.087434 -0.425085 1
-0.258435 0.119639 -0.471392 1
-0.223865 0.096862 -0.454291 1
-0.264179 0.116286 -0.437154 1
-0.341100 -0.016279 -0.484794 1
-0.246867 0.080212 -0.429246 1
-0.263536 0.125783 -0.459961 1
-0.220523 0.105834 -0.468270 1
-0.271666 0.090403 -0.422246 1
-0.415689 -0.059589 -0.485651 1
-0.228543 0.088061 -0.443750 1
-0.265858 0.124255 -0.444679 1
-0.229127 0.109844 -0.478816 1
-0.264541 0.070504 -0.417932 1
-0.266990 0.120633 -0.469404 1
-0.219191 0.097946 -0.460443 1
-0.274671 0.103376 -0.426520 1
-0.338019 0.003218 -0.490877 1
-0.243896 0.070416 -0.429390 1
-0.265560 0.129915 -0.454566 1
-0.222095 0.104533 -0.474904 1
-0.270305 0.082377 -0.415218 1
-0.440464 -0.062617 -0.485989 1
-0.222580 0.087714 -0.449363 1
-0.269749 0.121286 -0.436402 1
-0.312488 0.007391 -0.491976 1
-0.258644 0.063391 -0.416358 1
-0.275272 0.121385 -0.464851 1
-0.216239 0.100276 -0.467527 1
-0.281634 0.089623 -0.415668 1
-0.351025 0.006859 -0.494584 1
-0.235518 0.069523 -0.434201 1
-0.267284 0.131873 -0.447534 1
-0.292212 0.006178 -0.487028 1
-0.272211 0.066341 -0.407926 1
-0.444958 -0.044453 -0.480280 1
-0.215692 0.092504 -0.456928 1
-0.282026 0.106865 -0.424467 1
-0.322271 0.011815 -0.498808 1
-0.248838 0.061128 -0.419062 1
-0.271445 0.131320 -0.458943 1
-0.217936 0.099071 -0.474934 1
-0.311093 0.045505 -0.395310 1
-0.381604 -0.004953 -0.496064 1
-0.225593 0.074089 -0.441962 1
-0.271022 0.129310 -0.438750 1
-0.299317 0.009879 -0.496599 1
-0.268377 0.054110 -0.404692 1
-0.268002 0.131601 -0.471386 1
-0.211718 0.096409 -0.464984 1
-0.322594 0.059699 -0.400851 1
-0.332898 0.018918 -0.502676 1
-0.238007 0.061831 -0.425072 1
-0.271286 0.135512 -0.451434 1
-0.284500 -0.000714 -0.488340 1
-0.302939 0.037691 -0.389521 1
-0.415430 -0.016324 -0.493048 1
-0.215906 0.082568 -0.451297 1
-0.286093 0.113469 -0.425579 1
-0.312078 0.011071 -0.504784 1
-0.253770 0.056068 -0.408995 1
-0.281403 0.127500 -0.464341 1
-0.212621 0.095973 -0.473192 1
-0.323383 0.045583 -0.388585 1
-0.342869 0.028827 -0.502914 1
-0.228520 0.063280 -0.433230 1
-0.231076 0.116084 -0.456397 1
-0.231232 0.119857 -0.459468 1
-0.227856 0.111470 -0.455657 1
-0.236399 0.118010 -0.452298 1
-0.227712 0.117990 -0.464019 1
-0.231866 0.107702 -0.448188 1
-0.237636 0.122116 -0.459070 1
-0.225770 0.108046 -0.460642 1
-0.240684 0.110605 -0.444866 1
-0.232093 0.121274 -0.467121 1
-0.227277 0.102741 -0.450090 1
-0.244172 0.119615 -0.452315 1
-0.224748 0.113192 -0.467660 1
-0.239284 0.101027 -0.440138 1
-0.239692 0.123513 -0.464852 1
-0.222121 0.103276 -0.457607 1
-0.249113 0.110866 -0.442641 1
-0.228391 0.119942 -0.472025 1
-0.235245 0.090642 -0.441244 1
-0.248872 0.121180 -0.456969 1
-0.221874 0.106170 -0.466907 1
-0.247862 0.099779 -0.434846 1
-0.241220 0.119326 -0.471170 1
-0.223180 0.095841 -0.450758 1
-0.252185 0.117521 -0.445835 1
-0.225817 0.112893 -0.474271 1
-0.242429 0.087170 -0.433008 1
-0.251025 0.121102 -0.464051 1
-0.218327 0.100910 -0.462562 1
-0.255262 0.103712 -0.433779 1
-0.352276 -0.022110 -0.480058 1
-0.234018 0.079318 -0.439841 1
-0.255337 0.121645 -0.452111 1
-0.221653 0.105741 -0.473281 1
-0.252948 0.085796 -0.426303 1
-0.248796 0.120539 -0.471938 1
-0.218322 0.093566 -0.454885 1
-0.261372 0.109662 -0.437100 1
-0.317107 -0.000417 -0.484569 1
-0.245483 0.069781 -0.428340 1
-0.257440 0.122804 -0.460557 1
-0.216393 0.100657 -0.468795 1
-0.264065 0.088362 -0.423446 1
-0.351506 -0.003580 -0.483825 1
-0.228494 0.075304 -0.442879 1
-0.260418 0.120512 -0.445260 1
-0.293308 0.006705 -0.483474 1
-0.252014 0.075209 -0.420976 1
-0.257543 0.120883 -0.469998 1
-0.213269 0.095443 -0.461085 1
-0.264432 0.104148 -0.428476 1
-0.328866 0.000147 -0.491394 1
-0.238341 0.065889 -0.429851 1
-0.260368 0.126054 -0.455091 1
-0.217760 0.099647 -0.475504 1
-0.272815 0.067768 -0.412642 1
-0.413866 -0.050927 -0.485931 1
-0.217666 0.083031 -0.449800 1
-0.264303 0.117397 -0.436994 1
-0.301301 0.007963 -0.492254 1
-0.246545 0.068088 -0.419373 1
-0.264982 0.122026 -0.465602 1
-0.211187 0.096437 -0.468095 1
-0.279874 0.080766 -0.414853 1
-0.340121 0.005472 -0.494886 1
-0.230371 0.064384 -0.434541 1
-0.264714 0.125571 -0.447634 1
-0.282865 0.004931 -0.487553 1
-0.271058 0.055377 -0.406435 1
-0.440824 -0.055839 -0.481071 1
-0.209585 0.090260 -0.457614 1
-0.275185 0.103839 -0.425425 1
-0.314308 0.007844 -0.499369 1
-0.239073 0.062961 -0.421167 1
-0.265480 0.128065 -0.459521 1
-0.215221 0.091197 -0.475595 1
-0.282356 0.066498 -0.404885 1
-0.385603 -0.023248 -0.497772 1
-0.223386 0.063836 -0.441524 1
-0.268463 0.122871 -0.438715 1
-0.291368 0.006417 -0.497184 1
-0.258651 0.054709 -0.406864 1
-0.446310 -0.040722 -0.470639 1
-0.206752 0.092307 -0.465540 1
-0.290439 0.081261 -0.410566 1
-0.325537 0.014115 -0.503270 1
-0.229947 0.061429 -0.426465 1
-0.266381 0.131352 -0.451923 1
-0.272018 0.003401 -0.488560 1
-0.281447 0.051550 -0.396875 1
-0.410999 -0.026310 -0.493933 1
-0.213550 0.072783 -0.451176 1
-0.276699 0.112768 -0.427250 1
-0.302212 0.009927 -0.504997 1
-0.246867 0.053005 -0.409918 1
-0.268636 0.129893 -0.465210 1
-0.206992 0.093094 -0.473789 1
-0.322567 0.033916 -0.386835 1
-0.336611 0.022799 -0.503610 1
-0.221988 0.060514 -0.434016 1
-0.227178 0.107107 -0.456463 1
-0.227478 0.110931 -0.459607 1
-0.223803 0.102375 -0.455702 1
-0.233058 0.108481 -0.452188 1
-0.223213 0.109926 -0.464334 1
-0.227066 0.099449 -0.448194 1
-0.232212 0.115391 -0.459411 1
-0.219028 0.102671 -0.461112 1
-0.234365 0.104453 -0.445200 1
-0.226542 0.114748 -0.467560 1
-0.221620 0.095459 -0.450274 1
-0.238244 0.113283 -0.452663 1
-0.219271 0.106239 -0.468100 1
-0.232852 0.094644 -0.440417 1
-0.234665 0.116362 -0.465238 1
-0.217049 0.095124 -0.457811 1
-0.241043 0.106663 -0.443375 1
-0.223030 0.113150 -0.472520 1
-0.225808 0.088382 -0.442272 1
-0.240261 0.117829 -0.457681 1
-0.215342 0.100472 -0.467392 1
-0.241846 0.092660 -0.434976 1
-0.231276 0.117884 -0.471713 1
-0.216041 0.090587 -0.451220 1
-0.245245 0.112095 -0.446340 1
-0.220148 0.106202 -0.474808 1
-0.234505 0.082276 -0.433624 1
-0.240732 0.119526 -0.464776 1
-0.212087 0.094513 -0.462979 1
-0.251799 0.093597 -0.433222 1
-0.229381 0.112308 -0.477075 1
-0.217903 0.087724 -0.442726 1
-0.247422 0.117297 -0.452773 1
-0.216397 0.098047 -0.473819 1
-0.245628 0.079733 -0.426707 1
-0.239919 0.117503 -0.472455 1
-0.210853 0.088877 -0.455410 1
-0.251932 0.106528 -0.438186 1
-0.276510 0.034651 -0.483395 1
-0.226830 0.080916 -0.432577 1
-0.250903 0.116987 -0.461035 1
-0.209897 0.094704 -0.469292 1
-0.259724 0.078458 -0.422868 1
-0.303925 0.033078 -0.482701 1
-0.210473 0.087987 -0.446148 1
-0.253205 0.115235 -0.445829 1
-0.248042 0.054136 -0.481909 1
-0.242921 0.071295 -0.421957 1
-0.253050 0.112870 -0.470461 1
-0.206864 0.089054 -0.461489 1
-0.260976 0.094087 -0.427849 1
-0.282568 0.039910 -0.488806 1
-0.219359 0.078918 -0.434264 1
-0.254404 0.119678 -0.455494 1
-0.211088 0.093930 -0.476061 1
-0.262543 0.064442 -0.414025 1
-0.311826 0.040025 -0.482517 1
-0.205536 0.086498 -0.451343 1
-0.258999 0.109957 -0.437102 1
-0.268399 0.034780 -0.490424 1
-0.239863 0.060377 -0.419316 1
-0.258049 0.116406 -0.466113 1
-0.204440 0.090754 -0.468597 1
-0.268954 0.078120 -0.416502 1
-0.302807 0.031004 -0.492793 1
-0.210432 0.080728 -0.439093 1
-0.257551 0.120242 -0.448203 1
-0.234367 0.061624 -0.484655 1
-0.256137 0.058375 -0.409814 1
-0.332629 0.033770 -0.479240 1
-0.198598 0.092432 -0.458707 1
-0.267031 0.098694 -0.426212 1
-0.298174 0.009497 -0.499198 1
-0.230231 0.058693 -0.421968 1
-0.259728 0.121447 -0.459935 1
-0.205501 0.090585 -0.476078 1
-0.275366 0.058670 -0.404949 1
-0.327281 0.021211 -0.493957 1
-0.202519 0.083614 -0.445836 1
-0.264160 0.114603 -0.438652 1
-0.259061 0.034648 -0.494632 1
-0.248085 0.052143 -0.408411 1
-0.265623 0.112925 -0.472321 1
-0.199805 0.086817 -0.466031 1
-0.273630 0.084567 -0.414353 1
-0.313281 0.010190 -0.503580 1
-0.218479 0.062289 -0.428335 1
-0.260559 0.124868 -0.452304 1
-0.225786 0.061173 -0.485392 1
-0.270943 0.047804 -0.398355 1
-0.334508 0.032091 -0.489811 1
-0.196222 0.087305 -0.453830 1
-0.275390 0.101034 -0.426123 1
-0.287923 0.009830 -0.504887 1
-0.235931 0.051605 -0.411667 1
-0.268809 0.117846 -0.465371 1
-0.200012 0.087721 -0.474340 1
-0.287738 0.056557 -0.398346 1
-0.327142 0.015384 -0.504294 1
-0.202909 0.077309 -0.438600 1
-0.213777 0.091461 -0.456735 1
-0.213749 0.096264 -0.460043 1
-0.208721 0.088841 -0.456180 1
-0.219350 0.093324 -0.452404 1
-0.209794 0.094770 -0.464879 1
-0.212370 0.084805 -0.448395 1
-0.218009 0.101764 -0.459920 1
-0.204958 0.087628 -0.461590 1
-0.219922 0.089817 -0.445348 1
-0.213722 0.099285 -0.468181 1
-0.202707 0.087680 -0.451403 1
-0.222817 0.100811 -0.453232 1
-0.205211 0.091701 -0.468807 1
-0.215724 0.083045 -0.441072 1
-0.218514 0.105387 -0.465999 1
-0.195113 0.093212 -0.459337 1
-0.228395 0.089614 -0.443094 1
-0.212376 0.094272 -0.473328 1
-0.204634 0.083489 -0.444027 1
-0.222916 0.108109 -0.458561 1
-0.199684 0.088004 -0.468168 1
-0.224659 0.080445 -0.435584 1
-0.218404 0.102812 -0.472468 1
-0.195006 0.086788 -0.452793 1
-0.231318 0.097237 -0.446516 1
-0.207339 0.089649 -0.475750 1
-0.211173 0.079567 -0.436162 1
-0.222468 0.111071 -0.465665 1
-0.195101 0.083840 -0.463793 1
-0.232425 0.083894 -0.434494 1
-0.221927 0.088845 -0.478266 1
-0.198273 0.080781 -0.444062 1
-0.227808 0.109738 -0.454020 1
-0.199936 0.086715 -0.474719 1
-0.225557 0.070438 -0.428086 1
-0.222217 0.108325 -0.473234 1
-0.190595 0.084044 -0.456732 1
-0.239213 0.089325 -0.437815 1
-0.213674 0.086561 -0.481473 1
-0.208688 0.069825 -0.433294 1
-0.226699 0.114540 -0.462479 1
-0.192931 0.084157 -0.470167 1
-0.233338 0.076839 -0.426464 1
-0.273745 0.030090 -0.483270 1
-0.190896 0.081668 -0.447470 1
-0.236193 0.103988 -0.446665 1
-0.223604 0.050226 -0.482629 1
-0.223570 0.060254 -0.422917 1
-0.224984 0.114759 -0.471428 1
-0.188618 0.080504 -0.462431 1
-0.241428 0.083912 -0.429192 1
-0.251027 0.041979 -0.488790 1
-0.198264 0.073762 -0.436108 1
-0.231491 0.115324 -0.457074 1
-0.193952 0.083607 -0.476997 1
-0.239393 0.057156 -0.416389 1
-0.277192 0.041830 -0.482818 1
-0.186095 0.080223 -0.452565 1
-0.244452 0.095062 -0.437252 1
-0.225608 0.057645 -0.488839 1
-0.216646 0.055303 -0.421784 1
-0.230352 0.117012 -0.467399 1
-0.186795 0.081349 -0.469506 1
-0.247978 0.068097 -0.418162 1
-0.268675 0.033550 -0.492447 1
-0.189445 0.076558 -0.440913 1
-0.239456 0.110223 -0.449250 1
-0.212548 0.055082 -0.485455 1
-0.234632 0.048645 -0.411441 1
-0.284221 0.048714 -0.479386 1
-0.184232 0.076080 -0.458995 1
-0.250230 0.085065 -0.426737 1
-0.246946 0.038771 -0.495954 1
-0.206810 0.055013 -0.424564 1
-0.236177 0.117230 -0.461331 1
-0.187720 0.081440 -0.477018 1
-0.247566 0.056326 -0.409301 1
-0.282501 0.033615 -0.492647 1
-0.183798 0.075589 -0.446864 1
-0.246987 0.102741 -0.439511 1
-0.223079 0.048495 -0.493332 1
-0.223324 0.048199 -0.411617 1
-0.237332 0.113186 -0.473115 1
-0.180982 0.079799 -0.467025 1
-0.250917 0.076693 -0.416795 1
-0.265785 0.029859 -0.500638 1
-0.193615 0.063643 -0.431677 1
-0.241206 0.116177 -0.453494 1
-0.203325 0.056739 -0.486092 1
-0.242552 0.046534 -0.403178 1
-0.302766 0.027433 -0.490015 1
-0.179708 0.074982 -0.454344 1
-0.257780 0.088006 -0.426926 1
-0.235535 0.044268 -0.500141 1
-0.211395 0.048754 -0.414875 1
-0.242145 0.115834 -0.466611 1
-0.181681 0.079736 -0.475284 1
-0.264487 0.046562 -0.400623 1
-0.297823 0.008144 -0.504364 1
-0.182824 0.071552 -0.440078 1
-0.202543 0.091877 -0.457939 1
-0.206445 0.090566 -0.460682 1
-0.197241 0.090018 -0.457452 1
-0.210541 0.089650 -0.453264 1
-0.202292 0.089387 -0.465567 1
-0.199796 0.087466 -0.450123 1
-0.211625 0.094927 -0.460465 1
-0.196340 0.083907 -0.462368 1
-0.209370 0.088674 -0.446656 1
-0.206910 0.093000 -0.468863 1
-0.192516 0.086962 -0.452559 1
-0.216024 0.094433 -0.453764 1
-0.197464 0.086651 -0.469531 1
-0.204029 0.083880 -0.442780 1
-0.212762 0.097863 -0.466593 1
-0.191671 0.080066 -0.459314 1
-0.217105 0.089028 -0.444596 1
-0.204263 0.089804 -0.474079 1
-0.194416 0.082528 -0.445293 1
-0.218607 0.098770 -0.458851 1
-0.191528 0.083610 -0.468904 1
-0.213585 0.079557 -0.437159 1
-0.212440 0.095435 -0.473195 1
-0.187940 0.080213 -0.453217 1
-0.222369 0.093429 -0.447451 1
-0.199108 0.085283 -0.476511 1
-0.202431 0.075401 -0.436969 1
-0.217026 0.103456 -0.466241 1
-0.186431 0.080345 -0.464560 1
-0.220848 0.083336 -0.436229 1
-0.220654 0.073306 -0.479380 1
-0.188015 0.080205 -0.445350 1
-0.222022 0.102434 -0.454438 1
-0.191271 0.083217 -0.475471 1
-0.218204 0.063022 -0.428289 1
-0.217133 0.100062 -0.473968 1
-0.184202 0.075762 -0.457057 1
-0.226821 0.089512 -0.439680 1
-0.219779 0.057764 -0.483438 1
-0.197789 0.069341 -0.434862 1
-0.221594 0.106674 -0.462975 1
-0.184186 0.080919 -0.470926 1
-0.226125 0.069510 -0.426701 1
-0.260855 0.027706 -0.484076 1
-0.184788 0.072534 -0.447450 1
-0.227168 0.100293 -0.447640 1
-0.206431 0.059766 -0.482847 1
-0.214646 0.054934 -0.423608 1
-0.219403 0.107531 -0.472115 1
-0.179392 0.078270 -0.463262 1
-0.231228 0.080904 -0.430542 1
-0.226999 0.058818 -0.488104 1
-0.187888 0.073108 -0.437519 1
-0.224778 0.109390 -0.457681 1
-0.184662 0.081443 -0.477719 1
-0.227358 0.056191 -0.418415 1
-0.269698 0.032350 -0.483915 1
-0.178733 0.073706 -0.452978 1
-0.236994 0.088799 -0.437838 1
-0.222729 0.041448 -0.490598 1
-0.206643 0.051946 -0.422909 1
-0.222402 0.112671 -0.468132 1
-0.177523 0.079365 -0.470286 1
-0.240286 0.060724 -0.418485 1
-0.235705 0.060857 -0.490566 1
-0.181711 0.070586 -0.441270 1
-0.230611 0.106357 -0.450188 1
-0.199827 0.057405 -0.485904 1
-0.221484 0.049641 -0.414053 1
-0.239470 0.085751 -0.478985 1
-0.174165 0.075838 -0.459993 1
-0.242117 0.079025 -0.427419 1
-0.225213 0.052799 -0.494891 1
-0.193010 0.060187 -0.427571 1
-0.227209 0.113841 -0.462181 1
-0.177593 0.081374 -0.477695 1
-0.238645 0.050135 -0.409964 1
-0.265791 0.036003 -0.492867 1
-0.176402 0.068692 -0.447140 1
-0.236971 0.099707 -0.440769 1
-0.213134 0.044432 -0.494164 1
-0.211716 0.047220 -0.413550 1
-0.226591 0.111722 -0.473842 1
-0.171393 0.078814 -0.467849 1
-0.246690 0.065122 -0.415838 1
-0.249012 0.033790 -0.500444 1
-0.180717 0.068713 -0.434305 1
-0.232401 0.112353 -0.454403 1
-0.191923 0.057146 -0.486646 1
-0.229489 0.046726 -0.405844 1
-0.292014 0.020866 -0.490996 1
-0.170712 0.072184 -0.455149 1
-0.248316 0.083463 -0.428060 1
-0.223692 0.042863 -0.500605 1
-0.200533 0.047044 -0.416442 1
-0.229127 0.116621 -0.467596 1
-0.172425 0.077870 -0.476017 1
-0.249992 0.047304 -0.403782 1
-0.266750 0.028996 -0.502005 1
-0.174760 0.065960 -0.440471 1
-0.196492 0.087360 -0.459083 1
-0.199127 0.088044 -0.462007 1
-0.189732 0.088149 -0.458811 1
-0.202146 0.088712 -0.454841 1
-0.195493 0.086049 -0.466814 1
-0.192575 0.084912 -0.451479 1
-0.205384 0.090700 -0.461677 1
-0.188987 0.081551 -0.463665 1
-0.200666 0.088291 -0.448418 1
-0.199989 0.089876 -0.470117 1
-0.185937 0.083359 -0.453740 1
-0.208391 0.092188 -0.455208 1
-0.190535 0.083552 -0.470771 1
-0.196695 0.081279 -0.444204 1
-0.206168 0.094247 -0.467844 1
-0.183613 0.079180 -0.460727 1
-0.209437 0.086676 -0.446127 1
-0.197741 0.085946 -0.475328 1
-0.188229 0.077928 -0.446335 1
-0.210567 0.097100 -0.460300 1
-0.184266 0.081205 -0.470149 1
-0.203441 0.081193 -0.439525 1
-0.205765 0.091858 -0.474449 1
-0.177899 0.083813 -0.455179 1
-0.211803 0.095100 -0.449589 1
-0.193052 0.080456 -0.477786 1
-0.193024 0.076474 -0.439140 1
-0.211037 0.099069 -0.467459 1
-0.179242 0.077815 -0.465807 1
-0.214015 0.079443 -0.437554 1
-0.215376 0.066466 -0.480827 1
-0.181665 0.075876 -0.446401 1
-0.216239 0.097656 -0.455601 1
-0.184124 0.080551 -0.476691 1
-0.201327 0.075942 -0.433424 1
-0.211990 0.094339 -0.475236 1
-0.176600 0.074057 -0.458401 1
-0.217595 0.089019 -0.441683 1
-0.211510 0.055327 -0.484750 1
-0.187450 0.072550 -0.437463 1
-0.214686 0.103521 -0.464270 1
-0.177062 0.078315 -0.472144 1
-0.212960 0.075012 -0.430369 1
-0.217192 0.076527 -0.483029 1
-0.173591 0.079102 -0.449996 1
-0.222429 0.093999 -0.448575 1
-0.198011 0.058186 -0.484091 1
-0.196181 0.071861 -0.429927 1
-0.214832 0.101350 -0.473343 1
-0.172132 0.076028 -0.464505 1
-0.223043 0.078618 -0.432339 1
-0.223306 0.048573 -0.489984 1
-0.180345 0.071079 -0.438986 1
-0.218526 0.105389 -0.458929 1
-0.178119 0.077534 -0.478956 1
-0.210506 0.067938 -0.424023 1
-0.250789 0.042579 -0.484766 1
-0.170903 0.072716 -0.454405 1
-0.225235 0.091092 -0.440516 1
-0.203814 0.058229 -0.490357 1
-0.188241 0.070742 -0.429619 1
-0.217150 0.107558 -0.469327 1
-0.170368 0.076952 -0.471491 1
-0.222440 0.071975 -0.424144 1
-0.241710 0.036084 -0.493824 1
-0.170927 0.076616 -0.444016 1
-0.225526 0.100715 -0.451244 1
-0.191957 0.054833 -0.487182 1
-0.204075 0.063617 -0.420445 1
-0.240226 0.071587 -0.480696 1
-0.166788 0.073956 -0.461257 1
-0.229744 0.081860 -0.430612 1
-0.219263 0.045970 -0.496618 1
