ply
format ascii 1.0
element vertex 1595
property float x
property float y
property float z
property uchar label
end_header
0.364021 0.651899 -0.785169 1
0.373279 0.784678 -0.808503 1
0.421632 0.706208 -0.730315 1
0.330172 0.708095 -0.810729 1
0.427537 0.776160 -0.784521 1
0.394394 0.646256 -0.759365 1
0.344132 0.767891 -0.816532 1
0.437337 0.738808 -0.740144 1
0.342547 0.667585 -0.796197 1
0.390806 0.793540 -0.798344 1
0.413768 0.679894 -0.731824 1
0.323804 0.738127 -0.812223 1
0.443746 0.764332 -0.769038 1
0.376967 0.633935 -0.778029 1
0.361636 0.782804 -0.818085 1
0.431635 0.718881 -0.726904 1
0.328739 0.687984 -0.809683 1
0.415354 0.790852 -0.789720 1
0.400852 0.654518 -0.741515 1
0.330323 0.760978 -0.818029 1
0.445666 0.751685 -0.746648 1
0.355221 0.639110 -0.796076 1
0.379278 0.796626 -0.808588 1
0.424200 0.691907 -0.723106 1
0.319272 0.718563 -0.815721 1
0.442436 0.777409 -0.780054 1
0.389723 0.626037 -0.764882 1
0.345476 0.780173 -0.821388 1
0.442355 0.732243 -0.728694 1
0.331104 0.666320 -0.805475 1
0.399802 0.802569 -0.795188 1
0.410860 0.664620 -0.727442 1
0.318749 0.749257 -0.818674 1
0.452819 0.763928 -0.758176 1
0.368000 0.619641 -0.787156 1
0.368892 0.793207 -0.822235 1
0.434338 0.707070 -0.718022 1
0.316758 0.697256 -0.814989 1
0.432687 0.791715 -0.789183 1
0.398019 0.633538 -0.745210 1
0.330653 0.772533 -0.824232 1
0.450650 0.747521 -0.734225 1
0.341589 0.637782 -0.803395 1
0.378954 0.713373 -0.778268 1
0.387659 0.715361 -0.777586 1
0.375311 0.700943 -0.777979 1
0.374931 0.727198 -0.784469 1
0.396551 0.701054 -0.773010 1
0.361894 0.708898 -0.784372 1
0.390405 0.730179 -0.779415 1
0.385275 0.686281 -0.773291 1
0.360945 0.729730 -0.788639 1
0.404812 0.713176 -0.769939 1
0.362255 0.692407 -0.781042 1
0.380243 0.740896 -0.786746 1
0.398985 0.688116 -0.764610 1
0.349832 0.718721 -0.789434 1
0.404732 0.730735 -0.775167 1
0.374829 0.676513 -0.773487 1
0.364561 0.740905 -0.794776 1
0.407310 0.706563 -0.757752 1
0.348445 0.698017 -0.786042 1
0.392379 0.746819 -0.783939 1
0.395693 0.670989 -0.764740 1
0.347373 0.731209 -0.796096 1
0.412687 0.726813 -0.763696 1
0.362185 0.672171 -0.780686 1
0.374017 0.751542 -0.795194 1
0.405001 0.693535 -0.749719 1
0.340368 0.708311 -0.794763 1
0.408544 0.744436 -0.778727 1
0.384547 0.658543 -0.768897 1
0.352522 0.744498 -0.801229 1
0.414735 0.717832 -0.750524 1
0.347379 0.678671 -0.788668 1
0.386627 0.759273 -0.789648 1
0.400431 0.674467 -0.749523 1
0.336842 0.724627 -0.801207 1
0.419341 0.738655 -0.766519 1
0.373194 0.647282 -0.782027 1
0.363891 0.756594 -0.802733 1
0.412408 0.703135 -0.740535 1
0.335186 0.693321 -0.796786 1
0.406054 0.757272 -0.784752 1
0.395343 0.650185 -0.759746 1
0.340244 0.742154 -0.805779 1
0.422733 0.729297 -0.750625 1
0.352391 0.656624 -0.789017 1
0.378031 0.766810 -0.797500 1
0.408282 0.681659 -0.738164 1
0.328406 0.713287 -0.803617 1
0.423281 0.749796 -0.774453 1
0.379463 0.638590 -0.770356 1
0.351919 0.756772 -0.809334 1
0.420134 0.715250 -0.736290 1
0.334590 0.674493 -0.796708 1
0.395242 0.770893 -0.788477 1
0.402197 0.655468 -0.745019 1
0.328741 0.735010 -0.808415 1
0.429941 0.740759 -0.756365 1
0.360862 0.636841 -0.784640 1
0.368190 0.769077 -0.807238 1
0.417943 0.691650 -0.730936 1
0.321989 0.699331 -0.802370 1
0.420476 0.762220 -0.782871 1
0.392535 0.629901 -0.760608 1
0.338384 0.753438 -0.813194 1
0.429176 0.727232 -0.738114 1
0.340378 0.650564 -0.796685 1
0.384385 0.778873 -0.796164 1
0.410473 0.665373 -0.732382 1
0.318557 0.724251 -0.808431 1
0.435055 0.751916 -0.766601 1
0.372512 0.621215 -0.776241 1
0.356080 0.767591 -0.815855 1
0.426315 0.705619 -0.726718 1
0.321242 0.679074 -0.802098 1
0.405482 0.778605 -0.785008 1
0.399498 0.637825 -0.743211 1
0.324206 0.747352 -0.813422 1
0.437292 0.739681 -0.744732 1
0.352187 0.623851 -0.795462 1
0.374291 0.780705 -0.807739 1
0.421003 0.677192 -0.724047 1
0.311654 0.708891 -0.807555 1
0.434321 0.764100 -0.778019 1
0.393339 0.601746 -0.771213 1
0.340745 0.764285 -0.819760 1
0.436173 0.719297 -0.728288 1
0.325388 0.655208 -0.800547 1
0.393886 0.787321 -0.793930 1
0.414624 0.642005 -0.733074 1
0.313334 0.735279 -0.814526 1
0.443703 0.751855 -0.755871 1
0.362438 0.609010 -0.783682 1
0.362282 0.778562 -0.818984 1
0.433137 0.690272 -0.720577 1
0.308883 0.689066 -0.805982 1
0.422837 0.779169 -0.785250 1
0.399748 0.612691 -0.749370 1
0.325151 0.757747 -0.820783 1
0.444307 0.734191 -0.733988 1
0.338802 0.622026 -0.802833 1
0.380731 0.706498 -0.780054 1
0.387024 0.710942 -0.776907 1
0.376130 0.695179 -0.778795 1
0.373548 0.723567 -0.782662 1
0.394038 0.698643 -0.770745 1
0.362497 0.703433 -0.784773 1
0.387976 0.727268 -0.776839 1
0.383081 0.684009 -0.771212 1
0.361996 0.723657 -0.789434 1
0.402755 0.709947 -0.768221 1
0.362579 0.687393 -0.781233 1
0.379415 0.736477 -0.785529 1
0.398107 0.684094 -0.764118 1
0.350253 0.713498 -0.789420 1
0.402532 0.727374 -0.773133 1
0.374979 0.671716 -0.773747 1
0.363935 0.736493 -0.793482 1
0.407147 0.701492 -0.757930 1
0.348078 0.694001 -0.785148 1
0.390638 0.742994 -0.781937 1
0.394882 0.667147 -0.764372 1
0.348617 0.724991 -0.797039 1
0.412420 0.721651 -0.763664 1
0.359059 0.671977 -0.776988 1
0.372638 0.747602 -0.793099 1
0.405819 0.687540 -0.750843 1
0.340213 0.704042 -0.793883 1
0.408496 0.739045 -0.778653 1
0.384790 0.653688 -0.769476 1
0.352881 0.739172 -0.800953 1
0.414665 0.712485 -0.750818 1
0.345380 0.677241 -0.785737 1
0.385615 0.754739 -0.788184 1
0.402574 0.667101 -0.751881 1
0.338823 0.717577 -0.803172 1
0.418567 0.733777 -0.766013 1
0.369559 0.648084 -0.778181 1
0.363606 0.751718 -0.801689 1
0.412994 0.697235 -0.741484 1
0.335075 0.689257 -0.795947 1
0.402942 0.754217 -0.781552 1
0.395610 0.645237 -0.760541 1
0.341994 0.735388 -0.807330 1
0.422961 0.723562 -0.751142 1
0.349855 0.656329 -0.785657 1
0.374831 0.764130 -0.793262 1
0.412098 0.672452 -0.741784 1
0.329913 0.706891 -0.804932 1
0.421896 0.745287 -0.773313 1
0.378242 0.636001 -0.769492 1
0.352108 0.751564 -0.808707 1
0.421115 0.708866 -0.737516 1
0.332200 0.674168 -0.792722 1
0.394569 0.765878 -0.787424 1
0.402685 0.650078 -0.746103 1
0.330450 0.728313 -0.809926 1
0.429851 0.735198 -0.756573 1
0.360236 0.633823 -0.783982 1
0.367067 0.764785 -0.805100 1
0.417092 0.687170 -0.730972 1
0.323383 0.693162 -0.803555 1
0.418119 0.758328 -0.780641 1
0.391029 0.627550 -0.759841 1
0.338573 0.748383 -0.812386 1
0.429128 0.721639 -0.738544 1
0.336368 0.653239 -0.790789 1
0.383275 0.774219 -0.794376 1
0.411798 0.658853 -0.734153 1
0.321024 0.716529 -0.811204 1
0.434249 0.746827 -0.766132 1
0.371839 0.618242 -0.775886 1
0.355617 0.762898 -0.814290 1
0.425829 0.700548 -0.727033 1
0.321141 0.675430 -0.801050 1
0.407380 0.771624 -0.786572 1
0.402208 0.629731 -0.746257 1
0.326358 0.740121 -0.815573 1
0.437436 0.733850 -0.745236 1
0.349508 0.624620 -0.791959 1
0.372581 0.776656 -0.804922 1
0.424219 0.668606 -0.727114 1
0.313712 0.701716 -0.809747 1
0.432510 0.759647 -0.776514 1
0.388034 0.605440 -0.766779 1
0.340754 0.759327 -0.818615 1
0.436602 0.713277 -0.729195 1
0.325079 0.652166 -0.799402 1
0.393224 0.782160 -0.792729 1
0.414750 0.637006 -0.734101 1
0.315839 0.727527 -0.817372 1
0.443243 0.746413 -0.755824 1
0.362891 0.604589 -0.784486 1
0.361511 0.773968 -0.817015 1
0.431126 0.686710 -0.720083 1
0.308608 0.685826 -0.804287 1
0.422122 0.773922 -0.784427 1
0.398953 0.609441 -0.749571 1
0.326300 0.751711 -0.821270 1
0.443926 0.728708 -0.734266 1
0.331559 0.631502 -0.792234 1
0.380491 0.706057 -0.781348 1
0.387733 0.709363 -0.779271 1
0.374897 0.696090 -0.779085 1
0.373854 0.722373 -0.784183 1
0.394034 0.697826 -0.772710 1
0.361089 0.704677 -0.784306 1
0.390307 0.723963 -0.780668 1
0.383501 0.683093 -0.773649 1
0.361012 0.724019 -0.789122 1
0.405059 0.706676 -0.772344 1
0.362671 0.687180 -0.782818 1
0.380101 0.734738 -0.787358 1
0.399284 0.682141 -0.767534 1
0.349965 0.713495 -0.789833 1
0.403237 0.725446 -0.775465 1
0.374898 0.671746 -0.775664 1
0.362632 0.736910 -0.792594 1
0.411208 0.696445 -0.763767 1
0.349036 0.692813 -0.787426 1
0.390572 0.741699 -0.783052 1
0.392998 0.668925 -0.765065 1
0.347234 0.726105 -0.795693 1
0.416698 0.716552 -0.769419 1
0.362225 0.668028 -0.782398 1
0.372108 0.746947 -0.793201 1
0.407322 0.684964 -0.754645 1
0.341349 0.702673 -0.796080 1
0.406395 0.739292 -0.778148 1
0.381573 0.657786 -0.768659 1
0.351035 0.740372 -0.798869 1
0.418029 0.707986 -0.755864 1
0.348187 0.673833 -0.790600 1
0.386703 0.752453 -0.790259 1
0.402471 0.666566 -0.754540 1
0.337052 0.719677 -0.800907 1
0.421038 0.730212 -0.770005 1
0.367238 0.651802 -0.777720 1
0.362441 0.751787 -0.800632 1
0.415592 0.693346 -0.746120 1
0.337041 0.687060 -0.799416 1
0.401849 0.753458 -0.781668 1
0.393591 0.647687 -0.761507 1
0.340721 0.736398 -0.805601 1
0.424631 0.720466 -0.754661 1
0.350381 0.656413 -0.787884 1
0.375566 0.762126 -0.794662 1
0.413297 0.670202 -0.745657 1
0.329519 0.707779 -0.804498 1
0.421433 0.743961 -0.774530 1
0.377840 0.637095 -0.771673 1
0.350799 0.752045 -0.807024 1
0.423897 0.704698 -0.742146 1
0.333877 0.672560 -0.795938 1
0.393972 0.764690 -0.787667 1
0.405142 0.646767 -0.751274 1
0.330119 0.728671 -0.809281 1
0.431159 0.732375 -0.759645 1
0.362348 0.631825 -0.788634 1
0.365792 0.764671 -0.803769 1
0.422806 0.680156 -0.738126 1
0.324086 0.692928 -0.804826 1
0.415730 0.758283 -0.779751 1
0.390780 0.628257 -0.762658 1
0.339026 0.747387 -0.812875 1
0.431381 0.717879 -0.742607 1
0.339966 0.648869 -0.797023 1
0.382714 0.773043 -0.794271 1
0.415545 0.653856 -0.740268 1
0.319938 0.718388 -0.809133 1
0.435065 0.744408 -0.768612 1
0.369879 0.622282 -0.776348 1
0.354620 0.762870 -0.812904 1
0.428137 0.696686 -0.731467 1
0.323411 0.673087 -0.804984 1
0.404335 0.771917 -0.784513 1
0.405362 0.625739 -0.752326 1
0.327030 0.739192 -0.816211 1
0.439053 0.730618 -0.748660 1
0.351890 0.622490 -0.796950 1
0.369425 0.777651 -0.801261 1
0.424722 0.666823 -0.730735 1
0.312983 0.703696 -0.808167 1
0.430248 0.759299 -0.776059 1
0.386275 0.608952 -0.768250 1
0.340865 0.758566 -0.818443 1
0.436115 0.711659 -0.731533 1
0.328566 0.648036 -0.805529 1
0.392554 0.780842 -0.792587 1
0.416910 0.633968 -0.739323 1
0.315975 0.727687 -0.816955 1
0.443619 0.744115 -0.758101 1
0.366889 0.599953 -0.791810 1
0.361017 0.773274 -0.816286 1
0.431238 0.684873 -0.723284 1
0.310389 0.684253 -0.807121 1
0.419101 0.773961 -0.782740 1
0.406794 0.599308 -0.760081 1
0.327944 0.749604 -0.823330 1
0.445423 0.725425 -0.737758 1
0.336186 0.625470 -0.800233 1
0.379134 0.700814 -0.779576 1
0.387918 0.702489 -0.779182 1
0.374690 0.689675 -0.778568 1
0.373290 0.716319 -0.783189 1
0.393983 0.691158 -0.772421 1
0.360874 0.698349 -0.783694 1
0.391219 0.716429 -0.781307 1
0.382816 0.677171 -0.772702 1
0.360213 0.718302 -0.787734 1
0.404232 0.700696 -0.771335 1
0.360005 0.683839 -0.779350 1
0.379596 0.728557 -0.786426 1
0.397391 0.677396 -0.765547 1
0.349960 0.706984 -0.789408 1
0.403263 0.718685 -0.775219 1
0.372522 0.667980 -0.772845 1
0.362771 0.730206 -0.792326 1
0.410013 0.690808 -0.762515 1
0.347145 0.688700 -0.784616 1
0.392074 0.733739 -0.784279 1
0.393271 0.661861 -0.765146 1
0.348094 0.718641 -0.796382 1
0.415205 0.711044 -0.767872 1
0.359092 0.665520 -0.778420 1
0.371500 0.740881 -0.792049 1
0.408940 0.676551 -0.755872 1
0.341117 0.696471 -0.795333 1
0.405225 0.733485 -0.776732 1
0.381654 0.650950 -0.768558 1
0.351534 0.733344 -0.799035 1
0.418114 0.701126 -0.755747 1
0.344877 0.671842 -0.785931 1
0.385815 0.746503 -0.788895 1
0.405008 0.656966 -0.756624 1
0.337969 0.712098 -0.801742 1
0.420646 0.723719 -0.769432 1
0.366256 0.646439 -0.776400 1
0.362235 0.745402 -0.799878 1
0.416349 0.685848 -0.746567 1
0.334254 0.684447 -0.794996 1
0.402087 0.746545 -0.781569 1
0.394445 0.639839 -0.762173 1
0.341083 0.729525 -0.805583 1
0.423681 0.714445 -0.753701 1
0.350172 0.650083 -0.787359 1
0.376466 0.754763 -0.795257 1
0.411668 0.665117 -0.744202 1
0.328386 0.702855 -0.802266 1
0.421424 0.737159 -0.774267 1
0.378685 0.629159 -0.772417 1
0.351017 0.745310 -0.806777 1
0.423134 0.698580 -0.741403 1
0.333652 0.666372 -0.795260 1
0.394416 0.757655 -0.787744 1
0.408302 0.636211 -0.753876 1
0.331039 0.721125 -0.810148 1
0.430029 0.726402 -0.758534 1
0.358072 0.631455 -0.783262 1
0.366423 0.757544 -0.804052 1
0.421320 0.674800 -0.736879 1
0.321490 0.690308 -0.800242 1
0.415582 0.751598 -0.779311 1
0.392444 0.619202 -0.764148 1
0.339647 0.740260 -0.813211 1
0.430982 0.711390 -0.742149 1
0.340631 0.641184 -0.797702 1
0.383367 0.765893 -0.794552 1
0.416032 0.646487 -0.740544 1
0.320003 0.711922 -0.808663 1
0.433922 0.738358 -0.767447 1
0.370010 0.615279 -0.776366 1
0.355284 0.755722 -0.813250 1
0.427195 0.690733 -0.730663 1
0.320192 0.671737 -0.799454 1
0.404631 0.764966 -0.784441 1
0.410519 0.612337 -0.756697 1
0.327460 0.732273 -0.816280 1
0.437466 0.724952 -0.747307 1
0.348612 0.621032 -0.792453 1
0.370543 0.770181 -0.802109 1
0.427703 0.656956 -0.732784 1
0.312630 0.697870 -0.807006 1
0.430762 0.752112 -0.776247 1
0.387271 0.600617 -0.769172 1
0.341752 0.751203 -0.819156 1
0.434739 0.705967 -0.730445 1
0.325294 0.646980 -0.800164 1
0.393379 0.773571 -0.793039 1
0.417036 0.626940 -0.739344 1
0.316013 0.721279 -0.816377 1
0.442187 0.738221 -0.756817 1
0.363572 0.598395 -0.787733 1
0.361219 0.766515 -0.815979 1
0.433477 0.675976 -0.724696 1
0.310249 0.678100 -0.806392 1
0.419138 0.767125 -0.782450 1
0.405412 0.594202 -0.758815 1
0.328475 0.742589 -0.823537 1
0.442532 0.720722 -0.735617 1
0.336520 0.618176 -0.800528 1
0.380648 0.696987 -0.779574 1
0.389864 0.698260 -0.779661 1
0.375226 0.686962 -0.777417 1
0.375356 0.711862 -0.783888 1
0.395353 0.687588 -0.772248 1
0.361160 0.695854 -0.782172 1
0.391976 0.713301 -0.780626 1
0.383877 0.673974 -0.772108 1
0.362139 0.713885 -0.788316 1
0.405230 0.697477 -0.770883 1
0.363099 0.678065 -0.781093 1
0.381569 0.724216 -0.787098 1
0.398547 0.674145 -0.765108 1
0.350802 0.703770 -0.788536 1
0.404653 0.715028 -0.775223 1
0.375177 0.662874 -0.773891 1
0.363625 0.726840 -0.791673 1
0.412018 0.686719 -0.762938 1
0.350776 0.682057 -0.787238 1
0.393300 0.730112 -0.784176 1
0.394514 0.658587 -0.764704 1
0.348943 0.715314 -0.795581 1
0.417778 0.706457 -0.768917 1
0.363400 0.658066 -0.781510 1
0.372328 0.737499 -0.791466 1
0.410436 0.673019 -0.755763 1
0.341996 0.693251 -0.794404 1
0.406286 0.730058 -0.776493 1
0.383196 0.647327 -0.768328 1
0.352565 0.729739 -0.798585 1
0.419796 0.697382 -0.755920 1
0.348954 0.664411 -0.789096 1
0.388160 0.741891 -0.790075 1
0.406389 0.653620 -0.756324 1
0.338955 0.708615 -0.801049 1
0.421594 0.720478 -0.769102 1
0.366821 0.644084 -0.775009 1
0.363440 0.741608 -0.799765 1
0.418031 0.682170 -0.746647 1
0.336497 0.679410 -0.795923 1
0.403127 0.743064 -0.781363 1
0.395983 0.636331 -0.761918 1
0.342542 0.725414 -0.805706 1
0.425136 0.710892 -0.753747 1
0.350222 0.648446 -0.785164 1
0.376740 0.751765 -0.794123 1
0.416679 0.657997 -0.746887 1
0.330129 0.698402 -0.802628 1
0.421930 0.734178 -0.773605 1
0.378931 0.627372 -0.770720 1
0.351800 0.741861 -0.806072 1
0.426673 0.693284 -0.742959 1
0.333999 0.664181 -0.793330 1
0.394967 0.754460 -0.787057 1
0.409707 0.632952 -0.753522 1
0.331818 0.717794 -0.809172 1
0.430843 0.723310 -0.758137 1
0.357991 0.630199 -0.780929 1
0.367438 0.753876 -0.803788 1
0.422945 0.671265 -0.736863 1
0.323261 0.685809 -0.800559 1
0.417615 0.747445 -0.780105 1
0.393540 0.616362 -0.763377 1
0.340498 0.736728 -0.812525 1
0.432290 0.708030 -0.742069 1
0.340419 0.640097 -0.794920 1
0.383364 0.763031 -0.793211 1
0.417435 0.643260 -0.740241 1
0.321391 0.707846 -0.808549 1
0.434142 0.735607 -0.766625 1
0.369906 0.614197 -0.774111 1
0.356132 0.752144 -0.812732 1
0.431015 0.685232 -0.732279 1
0.322899 0.665789 -0.801146 1
0.405553 0.761506 -0.784214 1
0.410931 0.610439 -0.755404 1
0.328726 0.728269 -0.816156 1
0.438093 0.722056 -0.746797 1
0.352642 0.613296 -0.795336 1
0.371738 0.766353 -0.802144 1
0.429041 0.653807 -0.732508 1
0.313215 0.695042 -0.805390 1
0.431293 0.749042 -0.775718 1
0.387094 0.599714 -0.767015 1
0.342540 0.747657 -0.818468 1
0.437320 0.701639 -0.731229 1
0.327492 0.641912 -0.800876 1
0.392918 0.770964 -0.791327 1
0.418364 0.623901 -0.738913 1
0.317111 0.717498 -0.815858 1
0.442124 0.735703 -0.755843 1
0.366109 0.593276 -0.788444 1
0.362044 0.762914 -0.815528 1
0.435090 0.672537 -0.724687 1
0.310610 0.675852 -0.804227 1
0.419525 0.764040 -0.781787 1
0.407433 0.590300 -0.758835 1
0.329415 0.738885 -0.822979 1
0.443795 0.717420 -0.735569 1
0.336790 0.616624 -0.798234 1
0.380908 0.701102 -0.780356 1
0.389414 0.703066 -0.779862 1
0.375814 0.690936 -0.778415 1
0.375272 0.715985 -0.784259 1
0.396364 0.691195 -0.774013 1
0.362018 0.699292 -0.783299 1
0.392636 0.716767 -0.782103 1
0.385092 0.677565 -0.773858 1
0.362487 0.717497 -0.788963 1
0.406100 0.701101 -0.772683 1
0.362555 0.683575 -0.780455 1
0.381497 0.728091 -0.787665 1
0.400947 0.676585 -0.768197 1
0.352772 0.705724 -0.791025 1
0.405482 0.718400 -0.777043 1
0.375828 0.667334 -0.774837 1
0.363981 0.730192 -0.792451 1
0.412608 0.690830 -0.764540 1
0.350797 0.686813 -0.787000 1
0.392658 0.734394 -0.784372 1
0.394890 0.663479 -0.765727 1
0.349333 0.718807 -0.796058 1
0.418454 0.710180 -0.770733 1
0.362162 0.665076 -0.779922 1
0.372896 0.740522 -0.792711 1
0.411789 0.676637 -0.757988 1
0.343245 0.696178 -0.795758 1
0.407915 0.732594 -0.779173 1
0.382912 0.653320 -0.768391 1
0.352970 0.732935 -0.799277 1
0.422395 0.699592 -0.759372 1
0.348299 0.670595 -0.787775 1
0.387881 0.745638 -0.790621 1
0.406152 0.659305 -0.757023 1
0.340218 0.711192 -0.802561 1
0.422287 0.723996 -0.771022 1
0.367016 0.649644 -0.775164 1
0.364028 0.744491 -0.800970 1
0.420627 0.684523 -0.749994 1
0.338005 0.682259 -0.797447 1
0.403797 0.746152 -0.783129 1
0.395195 0.643188 -0.761789 1
0.343586 0.727960 -0.807142 1
0.427414 0.713292 -0.756984 1
0.349961 0.654610 -0.784305 1
0.376730 0.755068 -0.794843 1
0.416863 0.663125 -0.748196 1
0.332378 0.699832 -0.805447 1
0.422967 0.737266 -0.775887 1
0.377664 0.635314 -0.769526 1
0.352889 0.744187 -0.807843 1
0.428658 0.696131 -0.745897 1
0.336545 0.665850 -0.796176 1
0.395556 0.757397 -0.788707 1
0.408514 0.640285 -0.753424 1
0.333211 0.719985 -0.810949 1
0.433129 0.725664 -0.761477 1
0.360738 0.632510 -0.783891 1
0.367725 0.756858 -0.804775 1
0.424079 0.675195 -0.739067 1
0.324967 0.688152 -0.802291 1
0.417432 0.751185 -0.781249 1
0.392317 0.624445 -0.762685 1
0.341522 0.739090 -0.814071 1
0.434652 0.710456 -0.745360 1
0.338087 0.649841 -0.790694 1
0.383530 0.766071 -0.794304 1
0.418403 0.647902 -0.742198 1
0.323441 0.709266 -0.811168 1
0.436022 0.738203 -0.769732 1
0.373054 0.616371 -0.777515 1
0.356648 0.754883 -0.813896 1
0.433186 0.688054 -0.735357 1
0.323614 0.670124 -0.801062 1
0.406063 0.764499 -0.785931 1
0.409858 0.618340 -0.755367 1
0.330031 0.730351 -0.817945 1
0.440731 0.724229 -0.750388 1
0.350169 0.624116 -0.791268 1
0.371398 0.769649 -0.802487 1
0.428650 0.659612 -0.733667 1
0.314758 0.697342 -0.806860 1
0.431623 0.752515 -0.777522 1
0.386665 0.607375 -0.766842 1
0.343382 0.750053 -0.819928 1
0.439833 0.704050 -0.734613 1
0.327896 0.647470 -0.800171 1
0.393675 0.773583 -0.793237 1
0.419096 0.629257 -0.740678 1
0.319222 0.718618 -0.818786 1
0.444748 0.737869 -0.759536 1
0.365059 0.602381 -0.786695 1
0.363132 0.765100 -0.817674 1
0.435941 0.676759 -0.726870 1
0.313600 0.676250 -0.807940 1
0.419851 0.767242 -0.783496 1
0.408560 0.596000 -0.760605 1
0.330342 0.741216 -0.824347 1
0.446489 0.719637 -0.739163 1
0.335161 0.626424 -0.794586 1
0.376107 0.703001 -0.782032 1
0.385106 0.704374 -0.782223 1
0.371371 0.692577 -0.780527 1
0.371181 0.717148 -0.786470 1
0.393228 0.691322 -0.777841 1
0.357970 0.700590 -0.785544 1
0.389052 0.717330 -0.785139 1
0.380049 0.679846 -0.775650 1
0.358102 0.719069 -0.790577 1
0.401656 0.702393 -0.775194 1
0.357113 0.686607 -0.781171 1
0.376453 0.730016 -0.788732 1
0.395854 0.678720 -0.770277 1
0.348111 0.707782 -0.792233 1
0.401944 0.718845 -0.780249 1
0.371082 0.669466 -0.776901 1
0.361256 0.730079 -0.796084 1
0.409220 0.691119 -0.768260 1
0.347310 0.687549 -0.789994 1
0.389968 0.734191 -0.788174 1
0.390760 0.664715 -0.768823 1
0.346409 0.718903 -0.799480 1
0.415107 0.710398 -0.774360 1
0.354879 0.670697 -0.778586 1
0.369485 0.741019 -0.795445 1
0.408736 0.676605 -0.762141 1
0.339857 0.696815 -0.798752 1
0.403470 0.733719 -0.781329 1
0.379170 0.654223 -0.771850 1
0.350204 0.732893 -0.802807 1
0.420538 0.698487 -0.764419 1
0.342775 0.674131 -0.788158 1
0.383467 0.746855 -0.792322 1
0.403188 0.659189 -0.761405 1
0.336541 0.712184 -0.804948 1
0.419380 0.723844 -0.774929 1
0.363077 0.650928 -0.778240 1
0.361023 0.744677 -0.804153 1
0.419437 0.682715 -0.755678 1
0.333863 0.683952 -0.799445 1
0.398841 0.747623 -0.784518 1
0.391411 0.644078 -0.765479 1
0.340405 0.728365 -0.810152 1
0.425454 0.712325 -0.761784 1
0.345075 0.657378 -0.785815 1
0.371811 0.756731 -0.795609 1
0.412754 0.664150 -0.751610 1
0.328241 0.701494 -0.807162 1
0.419087 0.737836 -0.778761 1
0.373238 0.637203 -0.772391 1
0.349779 0.744509 -0.810850 1
0.425571 0.696043 -0.749902 1
0.330054 0.671107 -0.794797 1
0.392486 0.757518 -0.791865 1
0.407060 0.638396 -0.759413 1
0.329197 0.721405 -0.812649 1
0.430291 0.725398 -0.765472 1
0.351078 0.642277 -0.779864 1
0.365921 0.756074 -0.809473 1
0.422610 0.673584 -0.744525 1
0.321572 0.688873 -0.805218 1
0.411924 0.752870 -0.782297 1
0.388517 0.625407 -0.766564 1
0.338369 0.739486 -0.817045 1
0.432665 0.709463 -0.750122 1
0.333348 0.652602 -0.792208 1
0.378832 0.767420 -0.795333 1
0.415506 0.647662 -0.746815 1
0.319284 0.711001 -0.812584 1
0.432766 0.738249 -0.773300 1
0.364361 0.624609 -0.775579 1
0.354327 0.754528 -0.818025 1
0.429682 0.688297 -0.739147 1
0.319790 0.671514 -0.803496 1
0.401246 0.765726 -0.787276 1
0.408018 0.616765 -0.761323 1
0.326699 0.730969 -0.820673 1
0.438453 0.723499 -0.754851 1
0.341242 0.633517 -0.787623 1
0.371375 0.767630 -0.809279 1
0.427089 0.658006 -0.739222 1
0.310902 0.698797 -0.808747 1
0.427120 0.753396 -0.779766 1
0.382089 0.609492 -0.770065 1
0.340414 0.750286 -0.823150 1
0.436633 0.703971 -0.738516 1
0.323826 0.649257 -0.802598 1
0.390315 0.773916 -0.795877 1
0.416342 0.628832 -0.745643 1
0.314677 0.720854 -0.819347 1
0.442482 0.737185 -0.763957 1
0.359748 0.605889 -0.788726 1
0.360451 0.765097 -0.821251 1
0.433847 0.675719 -0.731820 1
0.307841 0.680867 -0.806659 1
0.415538 0.768025 -0.785555 1
0.401806 0.600824 -0.762305 1
0.327276 0.741550 -0.827485 1
0.443496 0.719368 -0.743128 1
0.329748 0.630519 -0.795349 1
0.368698 0.703214 -0.781681 1
0.378369 0.703704 -0.782816 1
0.364453 0.692386 -0.780853 1
0.364847 0.716343 -0.787026 1
0.386389 0.690599 -0.778716 1
0.350525 0.701299 -0.784717 1
0.383890 0.715123 -0.787337 1
0.373348 0.679226 -0.776640 1
0.352202 0.718054 -0.791412 1
0.397814 0.698700 -0.779098 1
0.351387 0.685269 -0.782832 1
0.370879 0.728418 -0.790061 1
0.391097 0.675734 -0.773568 1
0.342289 0.706810 -0.793237 1
0.397849 0.715556 -0.783657 1
0.363753 0.669776 -0.777174 1
0.355209 0.729176 -0.796575 1
0.404088 0.688469 -0.771080 1
0.340653 0.687558 -0.790227 1
0.384819 0.732047 -0.790105 1
0.385162 0.662595 -0.771426 1
0.340093 0.718551 -0.799529 1
0.410200 0.707605 -0.777168 1
0.350820 0.667067 -0.782669 1
0.364604 0.738939 -0.797362 1
0.404475 0.672971 -0.765985 1
0.333316 0.696838 -0.798797 1
0.398834 0.730984 -0.783934 1
0.370566 0.655948 -0.771165 1
0.343662 0.732699 -0.802321 1
0.415628 0.695552 -0.767420 1
0.338134 0.671390 -0.791455 1
0.379288 0.744063 -0.795101 1
0.399487 0.654761 -0.766038 1
0.330596 0.711559 -0.805521 1
0.415968 0.719902 -0.778980 1
0.358367 0.647812 -0.781928 1
0.354817 0.743932 -0.804143 1
0.415349 0.678896 -0.759594 1
0.326454 0.685297 -0.798274 1
0.396424 0.743349 -0.789226 1
0.386735 0.640638 -0.769385 1
0.334197 0.728007 -0.810050 1
0.421315 0.708789 -0.765275 1
0.340677 0.654006 -0.789792 1
0.368442 0.753482 -0.799151 1
0.409702 0.659078 -0.756661 1
0.321131 0.702543 -0.805884 1
0.413882 0.735367 -0.780885 1
0.365419 0.638102 -0.772757 1
0.343301 0.744236 -0.810203 1
0.422796 0.691158 -0.754696 1
0.325487 0.668268 -0.798296 1
0.388288 0.754730 -0.794493 1
0.404091 0.632752 -0.765073 1
0.322851 0.721433 -0.812218 1
0.423910 0.723612 -0.766853 1
0.348696 0.635586 -0.786764 1
0.359944 0.755040 -0.809651 1
0.420675 0.667545 -0.750284 1
0.313823 0.691087 -0.802921 1
0.407184 0.750217 -0.784556 1
0.382586 0.623394 -0.769475 1
0.332107 0.739228 -0.816574 1
0.428279 0.706025 -0.753427 1
0.329336 0.648531 -0.796954 1
0.373334 0.765793 -0.796096 1
0.412403 0.642359 -0.752028 1
0.312777 0.711456 -0.811854 1
0.425360 0.737134 -0.773588 1
0.361284 0.618619 -0.781748 1
0.347607 0.754356 -0.816917 1
0.428367 0.681974 -0.745081 1
0.313098 0.672137 -0.803392 1
0.397787 0.762396 -0.790587 1
0.403779 0.612273 -0.766178 1
0.320172 0.731258 -0.819654 1
0.433599 0.720446 -0.757640 1
0.336762 0.629815 -0.792016 1
0.366592 0.765591 -0.810917 1
0.425447 0.651362 -0.745367 1
0.305707 0.697449 -0.810526 1
0.420090 0.752060 -0.780018 1
0.373756 0.610865 -0.770572 1
0.334392 0.749740 -0.822893 1
0.434016 0.699005 -0.743214 1
0.316789 0.650232 -0.802542 1
0.386407 0.771065 -0.798549 1
0.413811 0.622511 -0.751629 1
0.307780 0.721941 -0.817514 1
0.436110 0.735185 -0.765350 1
0.351101 0.608367 -0.788255 1
0.354736 0.763945 -0.821546 1
0.433510 0.668235 -0.738540 1
0.304809 0.675674 -0.812954 1
0.410212 0.765755 -0.787022 1
0.393732 0.601319 -0.763677 1
0.320544 0.742033 -0.825872 1
0.439328 0.715714 -0.746507 1
0.326590 0.624370 -0.802039 1
0.360206 0.699713 -0.779701 1
0.369173 0.700680 -0.780214 1
0.356354 0.688547 -0.779399 1
0.356781 0.712438 -0.785301 1
0.378200 0.686375 -0.777585 1
0.343567 0.696425 -0.784375 1
0.374018 0.712509 -0.783923 1
0.364737 0.675777 -0.774927 1
0.344712 0.713788 -0.790154 1
0.391466 0.692462 -0.779997 1
0.346078 0.678160 -0.784892 1
0.363090 0.724082 -0.788639 1
0.381178 0.673308 -0.770867 1
0.336578 0.700539 -0.794522 1
0.392339 0.708674 -0.785289 1
0.356758 0.664498 -0.777336 1
0.347157 0.725405 -0.794448 1
0.397646 0.682207 -0.772004 1
0.335362 0.680462 -0.792368 1
0.375945 0.728368 -0.787644 1
0.375955 0.659574 -0.769505 1
0.333224 0.713761 -0.798951 1
0.402883 0.702143 -0.777119 1
0.346468 0.658288 -0.786247 1
0.356610 0.734871 -0.795390 1
0.397738 0.666900 -0.766756 1
0.325834 0.692817 -0.797504 1
0.393694 0.723942 -0.785802 1
0.364672 0.649035 -0.772803 1
0.337799 0.726837 -0.803080 1
0.408887 0.689493 -0.768084 1
0.332593 0.664319 -0.793493 1
0.370445 0.740391 -0.792361 1
0.391322 0.650212 -0.765535 1
0.322831 0.707980 -0.803478 1
0.408285 0.714666 -0.778530 1
0.354084 0.638454 -0.785785 1
0.347148 0.739724 -0.802303 1
0.409964 0.671446 -0.761601 1
0.319690 0.680301 -0.798199 1
0.390121 0.737334 -0.789722 1
0.378168 0.636753 -0.768414 1
0.326971 0.723713 -0.808681 1
0.416876 0.700807 -0.767938 1
0.335774 0.645589 -0.792993 1
0.362880 0.747249 -0.800199 1
0.405752 0.649860 -0.760097 1
0.312790 0.699984 -0.802772 1
0.405770 0.730489 -0.779829 1
0.361587 0.627960 -0.777045 1
0.337101 0.738773 -0.810324 1
0.417760 0.683513 -0.756894 1
0.319507 0.661808 -0.799776 1
0.379811 0.750501 -0.792276 1
0.396464 0.627332 -0.765361 1
0.315601 0.717366 -0.810689 1
0.418966 0.716192 -0.768958 1
0.342797 0.628285 -0.788770 1
0.352017 0.750893 -0.807391 1
0.414094 0.661162 -0.751327 1
0.307892 0.685048 -0.804090 1
0.399304 0.745241 -0.783459 1
0.376958 0.615447 -0.771788 1
0.325752 0.734009 -0.816431 1
0.422779 0.698908 -0.755133 1
0.323836 0.640838 -0.799518 1
0.369711 0.758146 -0.799416 1
0.410633 0.630327 -0.757450 1
0.305837 0.707124 -0.810863 1
0.418407 0.731244 -0.773794 1
0.357330 0.607920 -0.786371 1
0.340557 0.749635 -0.815669 1
0.423134 0.674407 -0.747137 1
0.308820 0.662930 -0.807892 1
0.392306 0.755862 -0.791791 1
0.394995 0.608146 -0.765538 1
0.311914 0.728472 -0.816068 1
0.426741 0.714406 -0.758160 1
0.331624 0.621075 -0.795310 1
0.359453 0.760638 -0.809731 1
0.418582 0.645090 -0.746330 1
0.300803 0.689891 -0.813618 1
0.412831 0.746447 -0.779729 1
0.372123 0.596690 -0.777540 1
0.327789 0.744768 -0.822217 1
0.428151 0.692127 -0.744667 1
0.312831 0.639759 -0.807928 1
0.377621 0.766964 -0.795705 1
0.413379 0.608233 -0.758367 1
0.300368 0.718410 -0.815318 1
0.426981 0.730691 -0.763851 1
0.345761 0.599457 -0.791423 1
0.347449 0.759268 -0.819935 1
0.428600 0.660179 -0.740918 1
0.301168 0.665244 -0.819052 1
0.402327 0.760665 -0.785804 1
0.386947 0.594548 -0.765004 1
0.311888 0.739612 -0.821328 1
0.432422 0.709675 -0.747085 1
0.321355 0.615459 -0.805553 1
0.360925 0.692531 -0.779161 1
0.367893 0.695635 -0.777287 1
0.355442 0.683119 -0.776877 1
0.354511 0.708496 -0.781143 1
0.377155 0.681013 -0.774877 1
0.344122 0.689275 -0.783837 1
0.372094 0.708059 -0.780288 1
0.364893 0.669018 -0.773585 1
0.343206 0.709106 -0.786890 1
0.389653 0.687803 -0.776496 1
0.346991 0.670327 -0.784753 1
0.360964 0.719876 -0.784706 1
0.382045 0.665799 -0.770124 1
0.335153 0.695783 -0.791294 1
0.390956 0.703580 -0.782274 1
0.359918 0.653701 -0.779661 1
0.346104 0.720214 -0.791812 1
0.396136 0.677247 -0.768816 1
0.335747 0.673232 -0.791705 1
0.376025 0.722081 -0.786343 1
0.376104 0.652723 -0.767995 1
0.332773 0.707872 -0.797166 1
0.401817 0.696748 -0.774427 1
0.347932 0.649378 -0.786790 1
0.355511 0.729692 -0.792719 1
0.398036 0.660027 -0.765257 1
0.326605 0.685127 -0.797614 1
0.392739 0.718494 -0.783291 1
0.367444 0.638561 -0.774347 1
0.336798 0.721591 -0.800489 1
0.408122 0.683815 -0.765630 1
0.333679 0.655819 -0.793867 1
0.369560 0.734984 -0.789982 1
0.391735 0.643027 -0.764124 1
0.321582 0.703064 -0.800450 1
0.406876 0.709554 -0.775548 1
0.354833 0.630320 -0.785225 1
0.346458 0.734169 -0.800181 1
0.409253 0.665669 -0.759122 1
0.321649 0.670579 -0.800315 1
0.388714 0.732267 -0.786758 1
0.379005 0.628788 -0.767525 1
0.325894 0.718569 -0.805938 1
0.415224 0.695907 -0.764724 1
0.335996 0.638140 -0.792023 1
0.361605 0.742173 -0.797324 1
0.407602 0.641178 -0.759843 1
0.313475 0.692362 -0.803022 1
0.405568 0.724463 -0.778082 1
0.366507 0.613788 -0.781194 1
0.336085 0.733532 -0.807707 1
0.417545 0.677349 -0.754866 1
0.318014 0.657160 -0.796300 1
0.381513 0.743083 -0.792898 1
0.397258 0.619443 -0.764186 1
0.314134 0.712762 -0.807239 1
0.417390 0.711214 -0.765873 1
0.347850 0.613031 -0.794219 1
0.350258 0.746266 -0.803791 1
0.412505 0.656276 -0.748058 1
0.310463 0.674158 -0.807781 1
0.399397 0.739065 -0.782094 1
0.376986 0.608276 -0.769997 1
0.324186 0.729397 -0.812856 1
0.422711 0.692721 -0.753269 1
0.323749 0.633708 -0.798244 1
0.368573 0.752931 -0.796757 1
0.408988 0.625415 -0.753983 1
0.304376 0.702594 -0.807355 1
0.417391 0.725830 -0.771258 1
0.357210 0.600709 -0.784603 1
0.339154 0.744727 -0.812465 1
0.424553 0.666716 -0.746323 1
0.311504 0.651199 -0.811809 1
0.390578 0.750993 -0.788535 1
0.395829 0.599937 -0.764341 1
0.310981 0.723209 -0.813530 1
0.426260 0.708609 -0.756016 1
0.336924 0.604466 -0.801889 1
0.357638 0.755956 -0.806104 1
0.418475 0.638606 -0.744193 1
0.300101 0.684139 -0.811520 1
0.412396 0.740646 -0.777796 1
0.375420 0.584292 -0.779412 1
0.325589 0.740749 -0.817565 1
0.429817 0.684486 -0.744061 1
0.316289 0.626059 -0.812997 1
0.377280 0.761175 -0.794034 1
0.412063 0.602833 -0.755089 1
0.300849 0.711163 -0.815526 1
0.425805 0.725417 -0.761192 1
0.354270 0.577268 -0.801416 1
0.344937 0.755226 -0.815100 1
0.427398 0.654902 -0.737966 1
0.300051 0.660005 -0.816129 1
0.401091 0.755434 -0.783134 1
0.390078 0.582797 -0.766116 1
0.310261 0.735173 -0.817500 1
0.429752 0.705602 -0.743224 1
0.321618 0.607288 -0.804873 1
0.362028 0.687771 -0.775285 1
0.371380 0.688408 -0.776114 1
0.356753 0.678121 -0.773166 1
0.357578 0.701620 -0.779896 1
0.378985 0.675563 -0.771577 1
0.345399 0.684226 -0.780212 1
0.376904 0.699714 -0.780708 1
0.366525 0.663703 -0.770012 1
0.344525 0.703985 -0.783571 1
0.391542 0.682377 -0.773242 1
0.350330 0.662625 -0.783528 1
0.363833 0.713351 -0.783281 1
0.383611 0.660674 -0.766325 1
0.335598 0.691677 -0.786612 1
0.392683 0.698307 -0.779039 1
0.363098 0.646302 -0.777760 1
0.345981 0.716575 -0.786678 1
0.398053 0.671860 -0.765405 1
0.338741 0.665776 -0.790321 1
0.378000 0.716518 -0.783727 1
0.380034 0.644729 -0.766541 1
0.333387 0.703475 -0.792841 1
0.403460 0.691650 -0.770951 1
0.352188 0.640198 -0.786479 1
0.356286 0.725104 -0.788874 1
0.400296 0.654270 -0.761942 1
0.328397 0.679223 -0.794782 1
0.394262 0.713425 -0.780012 1
0.370589 0.631234 -0.772065 1
0.336806 0.717779 -0.795436 1
0.409471 0.679064 -0.761694 1
0.337899 0.646363 -0.794069 1
0.371421 0.729496 -0.787457 1
0.395491 0.635425 -0.762089 1
0.322824 0.697856 -0.797042 1
0.408787 0.704268 -0.772447 1
0.358354 0.622119 -0.783573 1
0.346830 0.729895 -0.795825 1
0.409829 0.661734 -0.754297 1
0.323999 0.663753 -0.798227 1
0.390422 0.727025 -0.783871 1
0.382719 0.620864 -0.765500 1
0.326637 0.713926 -0.801899 1
0.414664 0.692824 -0.759226 1
0.339640 0.629390 -0.791093 1
0.362348 0.737563 -0.793556 1
0.408566 0.636888 -0.755070 1
0.314973 0.686748 -0.799942 1
0.406770 0.719743 -0.774491 1
0.369681 0.606179 -0.778693 1
0.336402 0.729276 -0.803195 1
0.418441 0.673124 -0.750440 1
0.322011 0.647588 -0.796698 1
0.382903 0.738031 -0.789838 1
0.400840 0.611921 -0.761621 1
0.315091 0.707847 -0.803498 1
0.417361 0.707596 -0.761011 1
0.351073 0.604943 -0.792158 1
0.351533 0.741114 -0.800800 1
0.415203 0.650287 -0.744894 1
0.312363 0.667859 -0.805169 1
0.402145 0.733160 -0.780257 1
0.380364 0.600570 -0.767423 1
0.324452 0.725207 -0.808139 1
0.423216 0.688828 -0.748694 1
0.327104 0.625044 -0.797180 1
0.369008 0.748554 -0.792731 1
0.409552 0.621658 -0.748694 1
0.305839 0.696951 -0.804427 1
0.418102 0.721559 -0.767198 1
0.364526 0.586318 -0.787153 1
0.338880 0.740937 -0.807177 1
0.426020 0.662050 -0.742211 1
0.313562 0.644565 -0.809148 1
0.391527 0.746331 -0.785051 1
0.401953 0.588868 -0.763950 1
0.312382 0.717669 -0.810692 1
0.425756 0.705440 -0.750792 1
0.340164 0.596016 -0.800001 1
0.358891 0.750835 -0.803157 1
0.420836 0.632966 -0.740485 1
0.300834 0.679621 -0.806984 1
0.413965 0.735697 -0.774710 1
0.378118 0.577353 -0.775884 1
0.326117 0.736184 -0.813390 1
0.429732 0.681192 -0.738961 1
0.318092 0.619872 -0.809495 1
0.378726 0.756079 -0.791289 1
0.410677 0.601546 -0.747874 1
0.301514 0.706597 -0.811198 1
0.426823 0.721020 -0.757388 1
0.357659 0.568715 -0.799046 1
0.344860 0.751142 -0.810243 1
0.429221 0.649954 -0.733965 1
0.301630 0.654083 -0.812847 1
0.402813 0.750323 -0.780452 1
0.392701 0.576210 -0.762291 1
0.311715 0.729549 -0.814914 1
0.430103 0.701880 -0.738701 1
0.327059 0.594377 -0.806903 1
0.369304 0.680430 -0.773296 1
0.377667 0.682300 -0.772795 1
0.364242 0.670277 -0.771437 1
0.362136 0.697228 -0.775018 1
0.386486 0.668171 -0.769181 1
0.350600 0.678951 -0.776088 1
0.383064 0.693907 -0.777282 1
0.374004 0.655893 -0.767772 1
0.349038 0.699548 -0.778826 1
0.397940 0.676401 -0.769530 1
0.354684 0.658425 -0.777956 1
0.368605 0.708809 -0.778697 1
0.393525 0.650508 -0.765979 1
0.341444 0.685530 -0.783629 1
0.397480 0.693930 -0.773899 1
0.366610 0.643269 -0.770906 1
0.350796 0.711848 -0.782449 1
0.405428 0.664921 -0.762323 1
0.342950 0.661712 -0.784671 1
0.385786 0.709417 -0.782283 1
0.390915 0.632911 -0.767102 1
0.336843 0.700206 -0.786671 1
0.409353 0.686367 -0.766642 1
0.357646 0.634525 -0.781942 1
0.361343 0.720258 -0.784879 1
0.407587 0.647250 -0.758493 1
0.331923 0.676007 -0.788381 1
0.400060 0.708248 -0.776046 1
0.377813 0.623422 -0.769032 1
0.339401 0.715369 -0.788187 1
0.411447 0.677396 -0.753692 1
0.343110 0.640898 -0.789515 1
0.378174 0.723352 -0.785222 1
0.405579 0.624867 -0.761104 1
0.327618 0.692907 -0.792839 1
0.413236 0.700314 -0.766873 1
0.362869 0.617808 -0.777567 1
0.350887 0.725935 -0.790685 1
0.415480 0.656594 -0.749295 1
0.329062 0.658385 -0.793926 1
0.395284 0.722634 -0.779168 1
0.393520 0.608606 -0.765543 1
0.330956 0.709602 -0.797089 1
0.418336 0.689582 -0.752844 1
0.348900 0.617690 -0.791793 1
0.366405 0.733664 -0.788371 1
0.411462 0.634619 -0.747442 1
0.320481 0.680700 -0.796853 1
0.412856 0.714522 -0.770653 1
0.375215 0.600497 -0.773516 1
0.339781 0.725958 -0.797090 1
0.422367 0.669716 -0.744053 1
0.330661 0.636470 -0.797723 1
0.387624 0.733714 -0.785200 1
0.411409 0.600431 -0.760593 1
0.321327 0.700999 -0.801890 1
0.421025 0.704337 -0.754763 1
0.355762 0.600378 -0.786161 1
0.355653 0.737098 -0.795790 1
0.422255 0.643735 -0.740774 1
0.316767 0.663406 -0.799986 1
0.406536 0.729221 -0.775021 1
0.390349 0.588809 -0.766516 1
0.329048 0.720558 -0.803882 1
0.425925 0.686451 -0.741501 1
0.337446 0.610849 -0.800158 1
0.376116 0.742310 -0.791247 1
0.415834 0.615601 -0.743730 1
0.311352 0.690814 -0.801706 1
0.420940 0.718869 -0.760347 1
0.371788 0.577859 -0.783811 1
0.341967 0.737831 -0.800732 1
0.428809 0.659753 -0.734808 1
0.317977 0.640186 -0.803578 1
0.396724 0.741763 -0.780921 1
0.406282 0.585072 -0.756981 1
0.317366 0.712441 -0.807157 1
0.427608 0.703637 -0.743085 1
0.347374 0.587126 -0.797477 1
0.362794 0.747014 -0.797888 1
0.425740 0.628597 -0.734396 1
0.308785 0.669407 -0.808580 1
0.417415 0.732490 -0.768535 1
0.383720 0.571590 -0.770280 1
0.330167 0.732126 -0.808333 1
0.431540 0.679640 -0.731068 1
0.324184 0.612605 -0.806272 1
0.385651 0.750212 -0.789425 1
0.412885 0.600333 -0.739329 1
0.306598 0.701071 -0.807905 1
0.428549 0.719163 -0.749672 1
0.360873 0.566808 -0.790547 1
0.347531 0.748319 -0.803270 1
0.433837 0.645973 -0.727772 1
0.309452 0.643630 -0.813821 1
0.408593 0.745487 -0.776776 1
0.399186 0.569339 -0.757291 1
0.317488 0.723429 -0.812910 1
0.433908 0.698623 -0.732504 1
0.375724 0.674331 -0.769220 1
0.386478 0.673852 -0.771076 1
0.370646 0.663997 -0.767387 1
0.370560 0.689147 -0.773570 1
0.393280 0.661747 -0.764980 1
0.356682 0.672976 -0.772065 1
0.389552 0.688077 -0.773059 1
0.381240 0.648594 -0.764248 1
0.355792 0.693047 -0.775844 1
0.404170 0.670780 -0.764584 1
0.361896 0.650867 -0.775027 1
0.378183 0.700026 -0.778454 1
0.400938 0.643274 -0.762059 1
0.347296 0.679821 -0.779566 1
0.403418 0.688747 -0.768813 1
0.374957 0.634236 -0.768732 1
0.356721 0.706416 -0.778474 1
0.409099 0.661780 -0.754825 1
0.349956 0.654266 -0.781896 1
0.391556 0.704433 -0.777352 1
0.400016 0.623374 -0.764763 1
0.341345 0.696175 -0.780968 1
0.412032 0.684109 -0.758327 1
0.364816 0.626748 -0.778685 1
0.367916 0.714415 -0.781500 1
0.408256 0.647266 -0.748227 1
0.338017 0.669785 -0.784800 1
0.405648 0.703500 -0.770675 1
0.386904 0.613317 -0.767080 1
0.344407 0.710851 -0.783240 1
0.415011 0.674324 -0.746219 1
0.350559 0.632540 -0.787161 1
0.386096 0.716592 -0.782947 1
0.409488 0.621477 -0.753512 1
0.332195 0.688766 -0.787245 1
0.415536 0.698293 -0.758297 1
0.369470 0.610669 -0.773347 1
0.356117 0.721330 -0.785885 1
0.418371 0.654186 -0.741104 1
0.336027 0.650697 -0.791541 1
0.401404 0.717534 -0.774526 1
0.404905 0.595694 -0.765096 1
0.334744 0.706449 -0.790355 1
0.422306 0.686159 -0.745734 1
0.351897 0.615878 -0.783199 1
0.373679 0.727455 -0.785801 1
0.416226 0.630248 -0.740679 1
0.326289 0.674804 -0.793151 1
0.416129 0.711672 -0.763019 1
0.381305 0.594070 -0.768294 1
0.343687 0.722641 -0.790579 1
0.427340 0.665344 -0.737582 1
0.337433 0.628822 -0.794811 1
0.392992 0.729240 -0.779988 1
0.406199 0.608153 -0.744782 1
0.325029 0.698022 -0.794935 1
0.424077 0.701657 -0.746965 1
0.363910 0.590565 -0.783903 1
0.359956 0.733412 -0.789746 1
0.428018 0.638426 -0.734714 1
0.323402 0.656044 -0.797563 1
0.412097 0.724670 -0.769680 1
0.398012 0.580272 -0.762426 1
0.332937 0.717306 -0.797281 1
0.429472 0.683372 -0.734033 1
0.340006 0.609989 -0.790735 1
0.382094 0.737360 -0.786976 1
0.421462 0.610173 -0.737453 1
0.316262 0.686190 -0.796784 1
0.424934 0.715468 -0.753396 1
0.379202 0.569228 -0.779961 1
0.346810 0.733630 -0.795562 1
0.434325 0.654840 -0.728579 1
0.324536 0.632688 -0.800779 1
0.403494 0.736384 -0.777058 1
0.407871 0.584677 -0.747070 1
0.321072 0.709466 -0.800219 1
0.430821 0.700815 -0.735466 1
0.354850 0.578026 -0.794583 1
0.366587 0.743759 -0.791165 1
0.430908 0.623800 -0.727718 1
0.312156 0.667171 -0.800709 1
0.421706 0.728892 -0.761927 1
0.390063 0.564621 -0.764907 1
0.334243 0.728674 -0.802025 1
0.437344 0.674639 -0.725156 1
0.330468 0.605416 -0.802584 1
0.390552 0.746156 -0.783841 1
0.418679 0.594535 -0.733117 1
0.310967 0.697256 -0.802104 1
0.430913 0.716926 -0.741437 1
0.369342 0.556029 -0.788249 1
0.353556 0.743169 -0.799706 1
0.439039 0.641279 -0.721138 1
0.315655 0.636700 -0.810671 1
0.413986 0.741163 -0.771364 1
0.405094 0.563096 -0.751175 1
0.321461 0.720134 -0.806392 1
0.437642 0.695394 -0.725242 1
0.352772 0.555556 -0.818832 1
0.384042 0.664553 -0.766901 1
0.393479 0.665664 -0.767019 1
0.380071 0.652519 -0.766413 1
0.378636 0.679936 -0.771275 1
0.401439 0.652151 -0.761784 1
0.363364 0.664666 -0.768582 1
0.396192 0.680566 -0.768606 1
0.393071 0.634085 -0.765178 1
0.362105 0.685575 -0.772019 1
0.409050 0.664800 -0.758010 1
0.367312 0.643811 -0.769813 1
0.385345 0.692129 -0.774950 1
0.407471 0.635142 -0.756984 1
0.352953 0.672794 -0.775119 1
0.409360 0.682002 -0.763323 1
0.382792 0.623934 -0.765759 1
0.363226 0.699020 -0.774900 1
0.412865 0.656786 -0.747176 1
0.354900 0.647815 -0.776369 1
0.397154 0.698163 -0.771837 1
0.408302 0.612797 -0.761298 1
0.346628 0.689793 -0.776234 1
0.414187 0.680707 -0.749290 1
0.368647 0.621555 -0.771433 1
0.375433 0.706359 -0.778804 1
0.414886 0.639118 -0.743017 1
0.343201 0.663144 -0.779916 1
0.411456 0.697091 -0.765070 1
0.393969 0.603750 -0.762811 1
0.349745 0.704650 -0.778531 1
0.423461 0.665055 -0.742459 1
0.355271 0.626187 -0.781211 1
0.392022 0.710184 -0.777935 1
0.411867 0.617785 -0.744478 1
0.336715 0.683207 -0.781590 1
0.417941 0.694653 -0.749510 1
0.374517 0.603576 -0.767388 1
0.361500 0.715311 -0.780959 1
0.427365 0.643917 -0.737518 1
0.340966 0.644172 -0.786257 1
0.407735 0.710877 -0.769581 1
0.408728 0.590208 -0.757195 1
0.338322 0.702184 -0.783300 1
0.425593 0.681691 -0.737682 1
0.360268 0.603734 -0.781874 1
0.381465 0.719545 -0.783287 1
0.423212 0.621454 -0.735435 1
0.331453 0.668218 -0.788502 1
0.419798 0.707057 -0.755340 1
0.387513 0.585168 -0.763233 1
0.347920 0.717750 -0.784353 1
0.431105 0.660307 -0.729785 1
0.341765 0.622991 -0.788529 1
0.398709 0.723191 -0.774654 1
0.415877 0.595475 -0.742005 1
0.331192 0.690505 -0.791906 1
0.426733 0.697748 -0.738450 1
0.369087 0.583031 -0.778108 1
0.365325 0.727585 -0.784726 1
0.432785 0.632169 -0.727533 1
0.329067 0.648422 -0.793704 1
0.416882 0.719306 -0.763083 1
0.403630 0.572143 -0.756290 1
0.337103 0.712482 -0.791030 1
0.432929 0.678701 -0.726086 1
0.348620 0.596871 -0.790394 1
0.389357 0.730177 -0.783629 1
0.427211 0.602441 -0.731006 1
0.322488 0.678200 -0.794159 1
0.427252 0.711831 -0.744586 1
0.386881 0.557655 -0.776505 1
0.351053 0.728821 -0.789262 1
0.438024 0.649758 -0.720623 1
0.329395 0.626024 -0.795533 1
0.409847 0.729997 -0.772163 1
0.417660 0.571165 -0.744256 1
0.325864 0.703834 -0.795118 1
0.434493 0.696070 -0.727736 1
0.360892 0.568849 -0.790056 1
0.372412 0.737710 -0.786580 1
0.434540 0.618549 -0.719612 1
0.320168 0.655913 -0.801263 1
0.425286 0.724398 -0.754184 1
0.396217 0.555344 -0.759425 1
0.337859 0.724514 -0.794877 1
0.442034 0.668842 -0.717949 1
0.335921 0.597407 -0.798022 1
0.396182 0.740365 -0.778521 1
0.428252 0.581843 -0.729551 1
0.316028 0.691065 -0.797667 1
0.434128 0.712603 -0.733401 1
0.376936 0.544035 -0.785070 1
0.357536 0.738650 -0.792914 1
0.445392 0.633519 -0.714836 1
0.320263 0.630557 -0.805113 1
0.419128 0.735695 -0.765127 1
0.411918 0.552972 -0.745843 1
0.325886 0.715088 -0.800614 1
0.444563 0.688079 -0.719661 1
0.357576 0.548471 -0.812441 1
0.389732 0.658766 -0.761711 1
0.398822 0.660324 -0.761278 1
0.384103 0.648449 -0.759513 1
0.383424 0.675277 -0.765249 1
0.405484 0.648046 -0.754625 1
0.368145 0.659786 -0.762810 1
0.401006 0.675924 -0.762318 1
0.396765 0.630291 -0.757710 1
0.367135 0.680647 -0.766592 1
0.412197 0.661631 -0.749993 1
0.371301 0.639751 -0.762999 1
0.390173 0.687576 -0.768856 1
0.410281 0.632262 -0.748596 1
0.358397 0.667190 -0.770355 1
0.412661 0.678753 -0.755440 1
0.388052 0.618104 -0.760037 1
0.368111 0.694405 -0.769290 1
0.418142 0.651407 -0.741020 1
0.359335 0.643238 -0.770235 1
0.402248 0.693437 -0.765847 1
0.413767 0.606747 -0.755237 1
0.351953 0.684510 -0.771497 1
0.418726 0.676270 -0.742551 1
0.373322 0.616416 -0.765317 1
0.381860 0.700424 -0.774724 1
0.420551 0.633112 -0.737091 1
0.348561 0.657462 -0.775237 1
0.415105 0.693582 -0.757513 1
0.400525 0.596052 -0.758090 1
0.354301 0.700411 -0.772739 1
0.424163 0.664025 -0.732473 1
0.359365 0.621949 -0.774549 1
0.396791 0.705853 -0.771693 1
0.416260 0.612936 -0.737468 1
0.341950 0.677909 -0.776920 1
0.421704 0.690970 -0.742101 1
0.377724 0.600317 -0.759530 1
0.366821 0.710455 -0.775908 1
0.431531 0.639517 -0.730205 1
0.345758 0.639086 -0.780768 1
0.412406 0.706618 -0.763046 1
0.411192 0.587660 -0.748340 1
0.342990 0.697799 -0.777815 1
0.430031 0.677319 -0.730737 1
0.364503 0.599128 -0.775253 1
0.387643 0.714091 -0.778799 1
0.427885 0.616309 -0.728507 1
0.336829 0.662545 -0.784098 1
0.423202 0.703720 -0.747592 1
0.389154 0.583967 -0.753633 1
0.352528 0.713589 -0.778627 1
0.435725 0.655576 -0.722840 1
0.346845 0.617248 -0.783372 1
0.404368 0.718258 -0.769266 1
0.421023 0.589500 -0.735484 1
0.334579 0.687675 -0.784509 1
0.430552 0.693988 -0.731059 1
0.373449 0.578032 -0.771479 1
0.371161 0.722438 -0.780232 1
0.436525 0.628065 -0.719829 1
0.334466 0.642456 -0.789336 1
0.420159 0.716120 -0.755214 1
0.406944 0.568418 -0.748221 1
0.341271 0.708784 -0.784771 1
0.437778 0.673927 -0.719351 1
0.349499 0.597757 -0.779285 1
0.393373 0.726590 -0.776612 1
0.431113 0.597975 -0.723374 1
0.327361 0.673330 -0.789158 1
0.429835 0.709063 -0.736210 1
0.389889 0.554563 -0.768063 1
0.354917 0.725467 -0.782450 1
0.442101 0.645415 -0.713175 1
0.334877 0.619612 -0.791242 1
0.415122 0.725440 -0.766216 1
0.417775 0.571488 -0.733464 1
0.330676 0.699337 -0.789963 1
0.439147 0.691615 -0.720897 1
0.366755 0.561300 -0.785355 1
0.379185 0.731978 -0.783058 1
0.438061 0.614541 -0.711718 1
0.323093 0.653888 -0.792958 1
0.427754 0.721734 -0.745654 1
0.399538 0.551553 -0.751376 1
0.341901 0.721031 -0.788382 1
0.445719 0.664961 -0.710264 1
0.340369 0.592481 -0.791939 1
0.401305 0.735995 -0.772657 1
0.431584 0.577901 -0.721416 1
0.321197 0.685922 -0.793282 1
0.437607 0.709135 -0.725745 1
0.380824 0.539571 -0.777604 1
0.361001 0.735663 -0.785466 1
0.446053 0.632330 -0.705034 1
0.325511 0.624604 -0.800623 1
0.422675 0.732343 -0.757505 1
0.415941 0.548030 -0.738298 1
0.331042 0.710338 -0.795957 1
0.448634 0.684004 -0.712265 1
0.359952 0.547123 -0.802796 1
0.397458 0.651947 -0.759153 1
0.405660 0.654623 -0.757595 1
0.391918 0.641193 -0.757148 1
0.390073 0.669793 -0.761827 1
0.409128 0.645598 -0.747723 1
0.374184 0.654523 -0.759013 1
0.406280 0.671993 -0.757122 1
0.407595 0.619417 -0.757832 1
0.373171 0.675673 -0.762909 1
0.417088 0.657981 -0.744218 1
0.377658 0.633868 -0.759400 1
0.395846 0.683312 -0.764308 1
0.412853 0.630930 -0.740665 1
0.363261 0.663348 -0.765395 1
0.416566 0.676137 -0.748825 1
0.396056 0.610086 -0.757624 1
0.374250 0.689529 -0.765766 1
0.424131 0.646593 -0.736041 1
0.364326 0.639047 -0.765317 1
0.407797 0.689429 -0.760971 1
0.410933 0.611890 -0.742221 1
0.356636 0.680969 -0.766488 1
0.424405 0.672026 -0.737415 1
0.378708 0.611565 -0.760490 1
0.387697 0.696090 -0.770575 1
0.424438 0.630307 -0.730272 1
0.353471 0.653433 -0.770456 1
0.418352 0.691569 -0.750324 1
0.406508 0.590488 -0.753251 1
0.359134 0.696841 -0.767939 1
0.429538 0.659945 -0.726931 1
0.365501 0.615982 -0.770949 1
0.402461 0.701836 -0.767091 1
0.423135 0.606619 -0.733076 1
0.346294 0.674709 -0.771565 1
0.425833 0.688178 -0.735694 1
0.383931 0.594156 -0.755433 1
0.372649 0.706101 -0.772118 1
0.433226 0.638894 -0.721664 1
0.351157 0.634219 -0.776608 1
0.416048 0.704309 -0.756257 1
0.416312 0.583171 -0.742469 1
0.346993 0.695104 -0.772045 1
0.435472 0.673338 -0.725207 1
0.366409 0.599294 -0.766288 1
0.392919 0.710443 -0.773965 1
0.432394 0.612743 -0.722037 1
0.341350 0.659047 -0.778956 1
0.425071 0.702748 -0.739292 1
0.396727 0.575813 -0.750542 1
0.356933 0.710563 -0.773322 1
0.441364 0.651228 -0.717253 1
0.351919 0.612689 -0.778645 1
