ply
format ascii 1.0
element vertex 1595
property float x
property float y
property float z
property uchar label
end_header
0.047123 1.005172 -0.678197 1
0.077280 0.926567 -0.680574 1
0.018623 0.969350 -0.634492 1
0.072510 0.986630 -0.702234 1
0.047766 0.910857 -0.650040 1
0.027203 1.004116 -0.659867 1
0.083698 0.943162 -0.701521 1
0.026665 0.944303 -0.624383 1
0.057467 1.008029 -0.692963 1
0.074756 0.912554 -0.667259 1
0.018150 0.990438 -0.635710 1
0.082594 0.972448 -0.711394 1
0.031062 0.909137 -0.635890 1
0.038587 1.017826 -0.671842 1
0.086807 0.923592 -0.694586 1
0.012990 0.959736 -0.620973 1
0.070718 1.002445 -0.707080 1
0.054837 0.894370 -0.656207 1
0.024008 1.011535 -0.643647 1
0.092273 0.953149 -0.712905 1
0.021747 0.923916 -0.619603 1
0.050646 1.022513 -0.688943 1
0.082910 0.904310 -0.681263 1
0.012725 0.985255 -0.620683 1
0.083992 0.988202 -0.718121 1
0.036169 0.890175 -0.638763 1
0.035006 1.028257 -0.657312 1
0.097176 0.930150 -0.707229 1
0.011839 0.945361 -0.610186 1
0.065425 1.018506 -0.706245 1
0.071567 0.889063 -0.663009 1
0.017443 1.010441 -0.628183 1
0.096345 0.967513 -0.722498 1
0.021678 0.901780 -0.619540 1
0.042296 1.034131 -0.679613 1
0.091456 0.903056 -0.697520 1
0.006554 0.972478 -0.608306 1
0.080573 1.005173 -0.721236 1
0.050543 0.878688 -0.643933 1
0.032832 1.034043 -0.639419 1
0.105333 0.942854 -0.718604 1
0.010823 0.925079 -0.604658 1
0.056036 1.032543 -0.701466 1
0.079240 0.880086 -0.680210 1
0.011771 1.003347 -0.612704 1
0.095134 0.984019 -0.730264 1
0.029169 0.882393 -0.622993 1
0.039634 1.044701 -0.662382 1
0.102885 0.911996 -0.711185 1
0.008405 0.957997 -0.596117 1
0.072882 1.021867 -0.720597 1
0.058568 0.863461 -0.658843 1
0.023128 1.030887 -0.624367 1
0.108779 0.958744 -0.729258 1
0.020237 0.907642 -0.600780 1
0.044475 1.043970 -0.692345 1
0.096059 0.886059 -0.693079 1
0.013661 0.993967 -0.595959 1
0.090443 1.002437 -0.734064 1
0.041917 0.866742 -0.630643 1
0.036603 1.050360 -0.643122 1
0.115594 0.929819 -0.720519 1
0.011247 0.938814 -0.588243 1
0.063750 1.038088 -0.714367 1
0.066222 0.851418 -0.679266 1
0.010898 1.020765 -0.610279 1
0.105608 0.975495 -0.739916 1
0.027391 0.885787 -0.604294 1
0.045093 1.057232 -0.670933 1
0.105200 0.891967 -0.711699 1
0.008340 0.974944 -0.585211 1
0.081001 1.020430 -0.734821 1
0.053662 0.851671 -0.644959 1
0.025726 1.047591 -0.626898 1
0.119685 0.946984 -0.732776 1
0.017364 0.917449 -0.584663 1
0.050062 1.050748 -0.705704 1
0.085062 0.856728 -0.694727 1
0.004512 1.007259 -0.594834 1
0.099516 0.994909 -0.746213 1
0.036367 0.864046 -0.613730 1
0.048775 0.954963 -0.652557 1
0.051382 0.960631 -0.660492 1
0.051307 0.941552 -0.647599 1
0.036290 0.966987 -0.649691 1
0.059631 0.948798 -0.668545 1
0.038135 0.943567 -0.635042 1
0.047883 0.977277 -0.663697 1
0.060676 0.930682 -0.656397 1
0.024871 0.962815 -0.636974 1
0.059845 0.961670 -0.679802 1
0.034960 0.919178 -0.640339 1
0.032334 0.983732 -0.655352 1
0.069545 0.934896 -0.672729 1
0.024322 0.947116 -0.624399 1
0.055037 0.982383 -0.677706 1
0.049861 0.908611 -0.652299 1
0.016659 0.977328 -0.639466 1
0.068712 0.950156 -0.689100 1
0.025861 0.920023 -0.625376 1
0.039675 0.995479 -0.666363 1
0.073815 0.919261 -0.666321 1
0.014315 0.961005 -0.620440 1
0.066171 0.977581 -0.689915 1
0.035567 0.896012 -0.640380 1
0.023061 0.996086 -0.645855 1
0.078183 0.934441 -0.688633 1
0.014786 0.930686 -0.613840 1
0.051031 0.998983 -0.680598 1
0.063988 0.898789 -0.657768 1
0.011815 0.981079 -0.622734 1
0.076595 0.963607 -0.698852 1
0.022748 0.897360 -0.623639 1
0.028542 1.006907 -0.661454 1
0.083393 0.916498 -0.680201 1
0.011139 0.952801 -0.605788 1
0.064289 0.993452 -0.694805 1
0.047809 0.883485 -0.643774 1
0.018881 1.003007 -0.630295 1
0.084973 0.943207 -0.701516 1
0.016445 0.914533 -0.605849 1
0.042886 1.012848 -0.677417 1
0.073395 0.891489 -0.671198 1
0.008478 0.976981 -0.606701 1
0.077363 0.979075 -0.706085 1
0.030656 0.880391 -0.625122 1
0.029052 1.019479 -0.644611 1
0.089235 0.919341 -0.696434 1
0.008196 0.937211 -0.595734 1
0.059132 1.009660 -0.693844 1
0.061733 0.875548 -0.652681 1
0.016931 1.004191 -0.612707 1
0.089310 0.957990 -0.710933 1
0.024657 0.898597 -0.602025 1
0.034208 1.024401 -0.668213 1
0.087745 0.895695 -0.683293 1
0.010538 0.968856 -0.590952 1
0.074409 0.996438 -0.708779 1
0.041675 0.865821 -0.632307 1
0.024923 1.024416 -0.627811 1
0.095763 0.930925 -0.709387 1
0.014635 0.922008 -0.587181 1
0.048798 1.023248 -0.689660 1
0.074751 0.871604 -0.666471 1
0.008667 0.995745 -0.598416 1
0.089445 0.975611 -0.717465 1
0.028899 0.876818 -0.606829 1
0.036740 1.037396 -0.648088 1
0.096558 0.902436 -0.699102 1
0.015693 0.956623 -0.577773 1
0.067444 1.013559 -0.707496 1
0.050638 0.851231 -0.646848 1
0.013924 1.020618 -0.613102 1
0.101726 0.949198 -0.717880 1
0.024324 0.905142 -0.583282 1
0.039292 1.035636 -0.679078 1
0.086084 0.872369 -0.683691 1
0.007617 0.984779 -0.582878 1
0.085400 0.994487 -0.720618 1
0.038739 0.858754 -0.615869 1
0.030785 1.041818 -0.630620 1
0.106142 0.917703 -0.711462 1
0.014399 0.935110 -0.571484 1
0.057777 1.029485 -0.701675 1
0.053773 0.834521 -0.670364 1
0.002732 1.010819 -0.598163 1
0.100108 0.967305 -0.726932 1
0.028875 0.881540 -0.587693 1
0.040386 1.049178 -0.657735 1
0.099362 0.882675 -0.699176 1
0.016520 0.973723 -0.567030 1
0.076703 1.012834 -0.720641 1
0.050839 0.844119 -0.629981 1
0.011585 1.035516 -0.618095 1
0.112984 0.937679 -0.721233 1
0.017948 0.912158 -0.568795 1
0.043117 1.041676 -0.693610 1
0.065619 0.832458 -0.691857 1
-0.003611 0.997141 -0.582405 1
0.095172 0.987531 -0.731987 1
0.033870 0.856497 -0.598673 1
0.040915 0.940696 -0.639212 1
0.043033 0.946172 -0.647528 1
0.033648 0.919806 -0.639733 1
0.031210 0.954667 -0.634561 1
0.052121 0.934754 -0.655231 1
0.022346 0.923393 -0.625349 1
0.039873 0.963355 -0.650505 1
0.045450 0.910186 -0.647672 1
0.022585 0.952087 -0.620263 1
0.055363 0.950002 -0.664499 1
0.026394 0.903528 -0.626773 1
0.025009 0.970233 -0.641406 1
0.062421 0.920942 -0.659367 1
0.016791 0.932748 -0.610157 1
0.049718 0.970304 -0.662951 1
0.040337 0.891976 -0.639697 1
0.014045 0.966364 -0.622806 1
0.065627 0.939551 -0.672836 1
0.018135 0.904951 -0.611098 1
0.031682 0.981834 -0.653016 1
0.059937 0.899266 -0.657424 1
0.009252 0.948386 -0.604929 1
0.059959 0.964999 -0.675870 1
0.030448 0.882624 -0.624920 1
0.012109 0.980732 -0.633631 1
0.073803 0.922821 -0.673439 1
0.013680 0.920394 -0.596481 1
0.045454 0.986869 -0.665952 1
0.050205 0.878117 -0.648182 1
0.008157 0.969477 -0.606662 1
0.068153 0.949350 -0.686585 1
0.024994 0.889680 -0.604564 1
0.022323 0.994302 -0.646886 1
0.073561 0.899896 -0.669042 1
0.006918 0.940564 -0.589858 1
0.057427 0.980647 -0.681174 1
0.039795 0.867419 -0.630104 1
0.006289 0.986968 -0.618648 1
0.078596 0.930221 -0.687835 1
0.021395 0.908626 -0.586045 1
0.035757 0.999949 -0.663650 1
0.062037 0.872711 -0.660581 1
0.008465 0.967400 -0.589188 1
0.070492 0.966202 -0.692630 1
0.031409 0.871631 -0.606738 1
0.016398 1.003864 -0.633580 1
0.084136 0.907088 -0.681874 1
0.014075 0.931502 -0.575884 1
0.051890 0.996793 -0.680414 1
0.046240 0.852287 -0.643811 1
0.008026 0.990115 -0.599215 1
0.081324 0.944065 -0.698590 1
0.027007 0.890939 -0.583378 1
0.024915 1.010525 -0.655614 1
0.071730 0.872594 -0.676719 1
0.011029 0.959600 -0.573464 1
0.068126 0.984135 -0.694811 1
0.040471 0.855465 -0.614887 1
0.012610 1.009126 -0.616332 1
0.088470 0.917073 -0.696623 1
0.016681 0.913851 -0.568915 1
0.042445 1.010911 -0.675464 1
0.048659 0.837526 -0.665364 1
0.005398 0.984448 -0.582410 1
0.082649 0.962876 -0.704112 1
0.030877 0.868960 -0.588169 1
0.023412 1.021970 -0.637807 1
0.088497 0.887192 -0.686993 1
0.018186 0.948699 -0.559799 1
0.061529 1.001559 -0.693151 1
0.050937 0.842454 -0.628494 1
0.003646 1.006197 -0.600224 1
0.093767 0.935217 -0.705802 1
0.022166 0.893883 -0.566634 1
0.034487 1.024051 -0.663860 1
0.053850 0.831657 -0.688706 1
0.008677 0.975790 -0.565380 1
0.078788 0.982081 -0.707002 1
0.038322 0.848901 -0.598183 1
0.018970 1.027220 -0.619221 1
0.094381 0.899470 -0.702786 1
0.017513 0.927632 -0.553231 1
0.050588 1.016859 -0.688161 1
0.069475 0.841835 -0.641939 1
-0.012450 0.993782 -0.586622 1
0.093288 0.954563 -0.713728 1
0.029009 0.872013 -0.570085 1
0.034017 1.037060 -0.643776 1
0.068734 0.843799 -0.705199 1
0.016184 0.964068 -0.550283 1
0.070853 1.000971 -0.706239 1
0.050773 0.834795 -0.612070 1
0.001634 1.021535 -0.605144 1
0.101482 0.920376 -0.712665 1
0.020016 0.904019 -0.550801 1
0.038201 1.030079 -0.678350 1
0.066874 0.825342 -0.672040 1
-0.025842 0.976067 -0.572564 1
0.088525 0.975142 -0.718453 1
0.036243 0.849006 -0.579945 1
0.030914 0.921136 -0.628274 1
0.037075 0.929672 -0.634472 1
0.024321 0.900032 -0.628152 1
0.024450 0.937693 -0.621637 1
0.044895 0.917132 -0.643148 1
0.018867 0.907939 -0.610479 1
0.034571 0.947628 -0.637030 1
0.036005 0.890020 -0.636587 1
0.013138 0.933204 -0.608314 1
0.048409 0.933022 -0.652373 1
0.023315 0.888064 -0.611726 1
0.022006 0.955864 -0.626411 1
0.052220 0.900575 -0.649451 1
0.013093 0.917209 -0.595340 1
0.043333 0.954126 -0.650343 1
0.035526 0.875043 -0.625812 1
0.012988 0.952960 -0.606801 1
0.060415 0.923742 -0.659819 1
0.023917 0.896163 -0.592032 1
0.024293 0.965102 -0.640547 1
0.052172 0.880187 -0.645861 1
0.010486 0.936199 -0.587979 1
0.054558 0.949501 -0.662830 1
0.032125 0.870823 -0.607578 1
0.010602 0.967140 -0.617734 1
0.066361 0.904864 -0.662168 1
0.018591 0.910759 -0.578123 1
0.038210 0.970463 -0.653778 1
0.045815 0.861335 -0.634273 1
0.009691 0.957527 -0.589641 1
0.065643 0.935823 -0.671607 1
0.029243 0.879845 -0.586337 1
0.014493 0.977509 -0.634429 1
0.063633 0.878965 -0.659435 1
0.016245 0.933610 -0.569988 1
0.053088 0.966077 -0.667319 1
0.038440 0.852943 -0.614353 1
0.011215 0.976841 -0.599966 1
0.074644 0.915442 -0.674125 1
0.023026 0.896666 -0.569201 1
0.025802 0.982221 -0.652855 1
0.047453 0.846269 -0.653384 1
0.015521 0.958743 -0.570347 1
0.063644 0.949865 -0.680798 1
0.031983 0.858680 -0.590114 1
0.009934 0.987945 -0.620286 1
0.076800 0.888820 -0.670868 1
0.021153 0.923320 -0.557258 1
0.046425 0.981693 -0.667205 1
0.049112 0.841804 -0.625682 1
0.008747 0.977763 -0.582731 1
0.076930 0.929254 -0.685149 1
0.028667 0.878943 -0.566564 1
0.019823 0.995484 -0.641748 1
0.047940 0.837076 -0.676776 1
0.017145 0.950507 -0.555348 1
0.061318 0.968185 -0.682861 1
0.040660 0.842134 -0.598473 1
0.010736 0.995578 -0.600910 1
0.083952 0.901715 -0.683511 1
0.020668 0.903542 -0.551421 1
0.034580 0.994617 -0.663614 1
0.062753 0.838536 -0.639830 1
0.008675 0.973449 -0.565156 1
0.074531 0.945667 -0.693584 1
0.033281 0.857484 -0.570967 1
0.016678 1.006312 -0.624878 1
0.065952 0.853402 -0.687767 1
0.020212 0.937166 -0.543305 1
0.055847 0.986529 -0.680215 1
0.054049 0.832131 -0.610571 1
0.000955 0.992106 -0.585086 1
0.087196 0.918593 -0.694398 1
0.024962 0.882667 -0.549541 1
0.023662 1.006512 -0.653587 1
0.059578 0.824558 -0.667701 1
0.012982 0.965479 -0.548092 1
0.071554 0.965928 -0.695608 1
0.040659 0.837370 -0.580918 1
0.009675 1.010471 -0.607383 1
0.091397 0.885298 -0.688532 1
0.017352 0.914395 -0.537305 1
0.044491 1.001684 -0.675295 1
0.072497 0.831993 -0.624078 1
-0.020726 0.976518 -0.573115 1
0.086804 0.938503 -0.702137 1
0.032101 0.861033 -0.552842 1
0.026698 1.021506 -0.631461 1
0.065154 0.827564 -0.690890 1
0.015537 0.950915 -0.534731 1
0.065326 0.986148 -0.693274 1
0.049966 0.820232 -0.596293 1
-0.010378 1.003295 -0.593806 1
0.095707 0.904179 -0.700795 1
0.020917 0.891310 -0.534470 1
0.030710 1.014278 -0.666160 1
0.086327 0.833665 -0.642403 1
-0.031801 0.959506 -0.557761 1
0.082522 0.959827 -0.706225 1
0.039451 0.838139 -0.562532 1
0.022482 0.900204 -0.616601 1
0.026153 0.907225 -0.624418 1
0.024366 0.885014 -0.611923 1
0.015562 0.916973 -0.609998 1
0.035414 0.895288 -0.632635 1
0.023726 0.896561 -0.592165 1
0.032387 0.931838 -0.622255 1
0.034434 0.873734 -0.621325 1
0.011498 0.917244 -0.592968 1
0.038021 0.911100 -0.642669 1
0.028410 0.876955 -0.593240 1
0.015375 0.937159 -0.613707 1
0.044533 0.879598 -0.638139 1
0.018548 0.906119 -0.577058 1
0.035919 0.935010 -0.638736 1
0.036357 0.860532 -0.609311 1
0.010918 0.937017 -0.591751 1
0.051428 0.902563 -0.649712 1
0.027605 0.883949 -0.574567 1
0.022310 0.949498 -0.625494 1
0.042250 0.856444 -0.635793 1
0.015834 0.924953 -0.569968 1
0.046917 0.930167 -0.651730 1
0.033944 0.857008 -0.590721 1
0.009853 0.952113 -0.602035 1
0.056541 0.882249 -0.652814 1
0.020648 0.897275 -0.561483 1
0.032796 0.952994 -0.640900 1
0.044056 0.844408 -0.619242 1
0.014862 0.946098 -0.571781 1
0.060721 0.918246 -0.658988 1
0.031928 0.866780 -0.569351 1
0.011593 0.961367 -0.619756 1
0.045017 0.847026 -0.655639 1
0.016023 0.918721 -0.554344 1
0.048427 0.949179 -0.654268 1
0.041493 0.840190 -0.596845 1
0.011114 0.962340 -0.584218 1
0.066238 0.894475 -0.664212 1
0.024424 0.882596 -0.552868 1
0.019601 0.964369 -0.640165 1
0.053639 0.836902 -0.633450 1
0.018137 0.945920 -0.553864 1
0.061459 0.934579 -0.666150 1
0.035823 0.846485 -0.572529 1
0.010135 0.973590 -0.604202 1
0.058653 0.857667 -0.667916 1
0.020241 0.907875 -0.541915 1
0.041260 0.964678 -0.654347 1
0.053231 0.830286 -0.607557 1
0.011467 0.964869 -0.566050 1
0.074244 0.913488 -0.671078 1
0.030237 0.864866 -0.550172 1
0.014302 0.978229 -0.628591 1
0.058482 0.832218 -0.653268 1
0.017723 0.936396 -0.539664 1
0.056545 0.951345 -0.669987 1
0.042099 0.827656 -0.581891 1
0.009399 0.980551 -0.585768 1
0.075358 0.880081 -0.674135 1
0.021420 0.889009 -0.535416 1
0.027757 0.976749 -0.651536 1
0.069745 0.830449 -0.619892 1
0.010787 0.960250 -0.548902 1
0.071846 0.930140 -0.679351 1
0.037282 0.845395 -0.553595 1
0.010915 0.989157 -0.611826 1
0.049427 0.821829 -0.683640 1
0.014941 0.918971 -0.529320 1
0.051003 0.969899 -0.667289 1
0.051252 0.813360 -0.596195 1
-0.001885 0.976152 -0.570417 1
0.083133 0.901608 -0.681549 1
0.025353 0.867564 -0.533577 1
0.015045 0.987873 -0.642285 1
0.081369 0.832462 -0.637045 1
0.009390 0.948955 -0.533718 1
0.065697 0.948418 -0.683713 1
0.044109 0.824720 -0.563631 1
0.004859 0.993836 -0.593763 1
0.072202 0.852483 -0.687929 1
0.015825 0.898284 -0.521996 1
0.038287 0.984390 -0.663060 1
0.069812 0.813537 -0.610118 1
-0.030496 0.956368 -0.560185 1
0.081988 0.921348 -0.689797 1
0.034106 0.847088 -0.536332 1
0.017270 1.002985 -0.620594 1
0.073885 0.821749 -0.668085 1
0.014588 0.935838 -0.519539 1
0.059753 0.969166 -0.681006 1
0.049999 0.803990 -0.580431 1
-0.012048 0.987820 -0.578504 1
0.090467 0.885852 -0.689128 1
0.021425 0.876374 -0.518497 1
0.023567 0.996588 -0.654218 1
0.086058 0.818225 -0.627227 1
0.076241 0.941990 -0.694915 1
0.042915 0.825404 -0.545424 1
0.025717 0.878684 -0.597253 1
0.025274 0.882700 -0.607197 1
0.029698 0.864978 -0.591552 1
0.021522 0.897638 -0.589459 1
0.033930 0.870019 -0.615899 1
0.028667 0.876500 -0.572309 1
0.021048 0.900587 -0.610709 1
0.035474 0.849947 -0.603118 1
0.020324 0.899976 -0.571464 1
0.033759 0.884152 -0.627672 1
0.033175 0.856479 -0.573364 1
0.015812 0.914229 -0.595838 1
0.039739 0.850934 -0.623465 1
0.023092 0.885858 -0.557516 1
0.026712 0.905375 -0.626545 1
0.039253 0.838111 -0.590191 1
0.015645 0.917045 -0.572122 1
0.045225 0.873771 -0.636329 1
0.031450 0.862910 -0.555269 1
0.022615 0.926836 -0.607857 1
0.045753 0.834558 -0.616245 1
0.018136 0.903390 -0.551446 1
0.038304 0.900729 -0.639790 1
0.039082 0.836566 -0.570645 1
0.011381 0.930164 -0.583755 1
-0.141740 0.676251 -0.761084 1
0.025274 0.877055 -0.541997 1
0.029648 0.928237 -0.625322 1
0.049598 0.824279 -0.598752 1
0.016753 0.924661 -0.553603 1
0.050396 0.886834 -0.648786 1
0.036174 0.845785 -0.549848 1
0.014361 0.940231 -0.600832 1
0.052852 0.829193 -0.633208 1
0.019785 0.898195 -0.535349 1
0.039718 0.920576 -0.642548 1
0.042988 0.815873 -0.578380 1
0.015820 0.942714 -0.564949 1
-0.165852 0.660631 -0.805903 1
0.027625 0.860998 -0.533808 1
0.021736 0.942937 -0.621448 1
0.064298 0.822184 -0.609970 1
0.021223 0.925507 -0.535451 1
0.053583 0.905950 -0.654489 1
0.042807 0.827649 -0.551835 1
0.010152 0.951111 -0.586755 1
0.047739 0.821867 -0.658093 1
0.021381 0.885305 -0.523704 1
0.035680 0.938735 -0.640511 1
0.054093 0.805112 -0.589637 1
0.020692 0.948182 -0.545502 1
0.065793 0.883361 -0.660372 1
0.034333 0.843707 -0.530748 1
0.012264 0.954520 -0.612129 1
0.077832 0.826950 -0.623689 1
0.016414 0.912881 -0.522454 1
0.051686 0.925576 -0.656159 1
0.048612 0.808067 -0.561220 1
0.012246 0.959963 -0.567352 1
-0.156447 0.630474 -0.826930 1
0.023993 0.867085 -0.516573 1
0.024851 0.952588 -0.635782 1
0.067237 0.801800 -0.604325 1
0.018180 0.942567 -0.529246 1
0.068932 0.905343 -0.664570 1
0.041931 0.824349 -0.533903 1
0.009552 0.966148 -0.595106 1
0.083223 0.831535 -0.642270 1
0.014508 0.895542 -0.511506 1
0.046679 0.945024 -0.652974 1
0.053640 0.789103 -0.577349 1
0.008055 0.959298 -0.549454 1
0.075226 0.871298 -0.670966 1
0.031816 0.848513 -0.513478 1
0.011612 0.963478 -0.626591 1
0.082062 0.807637 -0.620008 1
0.011910 0.928161 -0.515430 1
0.064686 0.925479 -0.667337 1
0.050526 0.805022 -0.543177 1
0.009850 0.974295 -0.574417 1
0.067888 0.823053 -0.674247 1
0.018651 0.876766 -0.503085 1
0.035545 0.960648 -0.647442 1
0.067846 0.784574 -0.594056 1
0.003272 0.952174 -0.531748 1
0.079216 0.896504 -0.675166 1
0.040327 0.827563 -0.516192 1
0.012571 0.978580 -0.605704 1
0.092957 0.817488 -0.637682 1
0.009209 0.909622 -0.503035 1
0.056550 0.945089 -0.666108 1
0.055772 0.783116 -0.560028 1
-0.008860 0.966933 -0.559716 1
-0.143602 0.628422 -0.862848 1
0.026702 0.856450 -0.498824 1
0.017080 0.970816 -0.640522 1
0.084810 0.790461 -0.611468 1
0.004539 0.942316 -0.513574 1
0.075345 0.919173 -0.678570 1
0.047442 0.803732 -0.525680 1
0.034834 0.851325 -0.576698 1
0.033675 0.854722 -0.586912 1
0.039765 0.838238 -0.570582 1
0.031049 0.871112 -0.568887 1
0.039361 0.839149 -0.597152 1
0.036135 0.848035 -0.552630 1
0.028054 0.871837 -0.591112 1
0.045226 0.822490 -0.582178 1
0.027584 0.871893 -0.551953 1
0.036201 0.851150 -0.610607 1
0.042476 0.829058 -0.552838 1
0.026138 0.888389 -0.574886 1
0.049644 0.823631 -0.602329 1
0.029580 0.856904 -0.538205 1
0.030121 0.873935 -0.608874 1
0.048011 0.809454 -0.569778 1
0.022150 0.888755 -0.552991 1
0.041327 0.834588 -0.623317 1
0.039145 0.834388 -0.535428 1
0.023570 0.894565 -0.591392 1
0.057326 0.808661 -0.594322 1
0.024771 0.875116 -0.532206 1
0.038367 0.866516 -0.624339 1
0.048780 0.808969 -0.549885 1
0.020054 0.903450 -0.563742 1
0.057000 0.822274 -0.620402 1
0.032302 0.848468 -0.522422 1
0.023474 0.890726 -0.612954 1
0.055189 0.791846 -0.579979 1
0.021742 0.895820 -0.535153 1
0.043919 0.846157 -0.637897 1
0.044458 0.817285 -0.529687 1
0.017227 0.909667 -0.583359 1
0.068653 0.807813 -0.608633 1
0.025329 0.869134 -0.516385 1
0.036198 0.884562 -0.629344 1
0.054017 0.788853 -0.556910 1
0.021105 0.914463 -0.546584 1
0.049493 0.818938 -0.643798 1
0.036799 0.833853 -0.513409 1
0.024615 0.912421 -0.604136 1
0.065330 0.784739 -0.594119 1
0.019520 0.892249 -0.519025 1
0.045243 0.865051 -0.645113 1
0.050104 0.797440 -0.531941 1
0.016994 0.923546 -0.567640 1
0.080520 0.818189 -0.621706 1
0.027216 0.856145 -0.504444 1
0.031556 0.903232 -0.627539 1
0.059694 0.771699 -0.570774 1
0.022198 0.918056 -0.528544 1
0.054991 0.838250 -0.653511 1
0.042766 0.815386 -0.510443 1
0.016410 0.924999 -0.594097 1
0.080796 0.792122 -0.607394 1
0.018848 0.882115 -0.504388 1
0.046729 0.888773 -0.644525 1
0.057295 0.778401 -0.540762 1
0.018980 0.932921 -0.548578 1
0.081846 0.826742 -0.638724 1
0.032284 0.839451 -0.496432 1
0.028328 0.922680 -0.618210 1
0.073647 0.769311 -0.585500 1
0.013957 0.908514 -0.513571 1
0.051968 0.856660 -0.662400 1
0.048341 0.793157 -0.514097 1
0.014808 0.937782 -0.576716 1
0.088418 0.799578 -0.624830 1
0.021518 0.867677 -0.491945 1
0.038408 0.906924 -0.643214 1
0.063360 0.759636 -0.556422 1
0.019800 0.935451 -0.529142 1
0.076884 0.837447 -0.655817 1
0.039670 0.819951 -0.493282 1
0.017372 0.934934 -0.607683 1
0.088823 0.776194 -0.601465 1
0.012529 0.896759 -0.497865 1
0.059994 0.888955 -0.656228 1
0.057646 0.773596 -0.523175 1
0.018811 0.948628 -0.554845 1
0.096478 0.816692 -0.639106 1
0.023972 0.846961 -0.483589 1
0.033189 0.927347 -0.633548 1
0.075499 0.752581 -0.574449 1
0.013976 0.927649 -0.511866 1
0.014761 0.801608 -0.710895 1
0.047279 0.797238 -0.496073 1
0.010205 0.946039 -0.590905 1
0.098086 0.784796 -0.620569 1
0.013265 0.879985 -0.484192 1
0.052156 0.909824 -0.654419 1
0.065637 0.753653 -0.539001 1
0.013812 0.948474 -0.535489 1
0.091920 0.828215 -0.658136 1
0.030827 0.824802 -0.479317 1
0.022741 0.942363 -0.621620 1
0.096724 0.764723 -0.589902 1
0.005813 0.911801 -0.495912 1
0.074361 0.885471 -0.665262 1
0.054474 0.772186 -0.505430 1
0.045058 0.815829 -0.556098 1
0.044292 0.819570 -0.566164 1
0.050372 0.802657 -0.549773 1
0.040775 0.836186 -0.548603 1
0.050481 0.803712 -0.576169 1
0.047680 0.814073 -0.531443 1
0.038501 0.837080 -0.570470 1
0.054648 0.784698 -0.561935 1
0.037684 0.837490 -0.531427 1
0.047333 0.816028 -0.589609 1
0.052328 0.792498 -0.532163 1
0.035460 0.853649 -0.554862 1
0.060442 0.787260 -0.581646 1
0.042101 0.824274 -0.516678 1
0.038113 0.836886 -0.589489 1
0.058673 0.772396 -0.548832 1
0.030923 0.853809 -0.533052 1
0.060785 0.807136 -0.597637 1
0.049923 0.799264 -0.514294 1
0.029340 0.856803 -0.572977 1
0.065570 0.768740 -0.574994 1
0.034617 0.840883 -0.511683 1
0.042049 0.825122 -0.607579 1
0.059276 0.771988 -0.528832 1
0.027592 0.867931 -0.544442 1
0.072140 0.790651 -0.597397 1
0.044081 0.815082 -0.501008 1
0.029737 0.852760 -0.594408 1
0.065493 0.753182 -0.559303 1
0.026773 0.858518 -0.516376 1
0.060061 0.815690 -0.613897 1
0.052782 0.778676 -0.509102 1
0.027530 0.876041 -0.562951 1
0.079625 0.771173 -0.588262 1
0.034723 0.834491 -0.495799 1
0.037652 0.842262 -0.613914 1
0.067499 0.754028 -0.534646 1
0.021717 0.874618 -0.529696 1
0.080293 0.803628 -0.610450 1
0.046291 0.797649 -0.492362 1
0.024147 0.870587 -0.589008 1
0.078233 0.748877 -0.572471 1
0.026471 0.856521 -0.499393 1
0.043286 0.818049 -0.632409 1
0.059627 0.758770 -0.510847 1
0.023119 0.887696 -0.549075 1
0.089001 0.779528 -0.603247 1
0.037650 0.822007 -0.483305 1
0.034895 0.863591 -0.610935 1
0.073351 0.735915 -0.548446 1
0.020744 0.877296 -0.511925 1
0.081211 0.818507 -0.622564 1
0.052351 0.778234 -0.489119 1
0.023216 0.889149 -0.575326 1
0.097643 0.762273 -0.583846 1
0.027475 0.847469 -0.484001 1
0.031639 0.832166 -0.640163 1
0.065976 0.737180 -0.520019 1
0.020799 0.894947 -0.531536 1
0.092803 0.791468 -0.618723 1
0.042366 0.804309 -0.475055 1
0.025609 0.879654 -0.604729 1
0.087540 0.733974 -0.563420 1
0.019802 0.872678 -0.494338 1
0.074574 0.833082 -0.633501 1
0.057322 0.753710 -0.492715 1
0.018608 0.900690 -0.559246 1
0.103185 0.767686 -0.602532 1
0.029679 0.832153 -0.471268 1
0.039073 0.865263 -0.628596 1
0.075736 0.721512 -0.534475 1
0.018447 0.895852 -0.512742 1
0.094639 0.810085 -0.630668 1
0.049918 0.783988 -0.471574 1
0.021515 0.897407 -0.590305 1
0.110910 0.753018 -0.575024 1
0.021745 0.863180 -0.477479 1
0.037077 0.824803 -0.658894 1
0.059614 0.723711 -0.503967 1
0.018593 0.910016 -0.538836 1
0.104463 0.777487 -0.621639 1
0.034156 0.812289 -0.462039 1
0.030075 0.884164 -0.620844 1
0.090051 0.717013 -0.551929 1
0.014256 0.888885 -0.494313 1
0.087317 0.825969 -0.643125 1
0.055648 0.757632 -0.474498 1
0.015260 0.909662 -0.572965 1
0.116496 0.757424 -0.596091 1
0.045377 0.862330 -0.645418 1
0.073743 0.709479 -0.518307 1
0.018763 0.913454 -0.517410 1
0.104679 0.795367 -0.636922 1
0.041380 0.789413 -0.457281 1
0.022457 0.902075 -0.606826 1
0.109798 0.728548 -0.568819 1
0.013697 0.877667 -0.475962 1
0.026510 0.796006 -0.688703 1
0.054913 0.720474 -0.485682 1
0.058981 0.792033 -0.535852 1
0.059099 0.796631 -0.545450 1
0.061006 0.775125 -0.530781 1
0.049992 0.808353 -0.530404 1
0.064418 0.779496 -0.555622 1
0.057362 0.786205 -0.512880 1
0.052750 0.813729 -0.550052 1
0.066225 0.757381 -0.542413 1
0.049505 0.812355 -0.512339 1
0.057511 0.787962 -0.570825 1
0.061266 0.762854 -0.513635 1
0.044491 0.826053 -0.536856 1
0.068066 0.755385 -0.564123 1
0.050919 0.796026 -0.498391 1
0.049934 0.810897 -0.569937 1
0.070791 0.745417 -0.529037 1
0.042257 0.828462 -0.514254 1
0.065561 0.773014 -0.581891 1
0.057431 0.768574 -0.496107 1
0.045108 0.834789 -0.551980 1
0.073539 0.736335 -0.557205 1
0.043886 0.813636 -0.493401 1
0.055638 0.800425 -0.586857 1
0.062844 0.734849 -0.511928 1
0.037393 0.841382 -0.526248 1
0.077394 0.756198 -0.581575 1
0.051749 0.785476 -0.482795 1
0.043548 0.828610 -0.573866 1
0.079835 0.728189 -0.538439 1
0.037509 0.832891 -0.497860 1
0.066324 0.783480 -0.597491 1
0.058780 0.745103 -0.490985 1
0.038780 0.850639 -0.544173 1
0.086808 0.738030 -0.571343 1
0.037877 0.801361 -0.478745 1
0.048546 0.815182 -0.594632 1
0.068266 0.711748 -0.518871 1
0.034273 0.850552 -0.510729 1
0.086285 0.770879 -0.594600 1
0.054329 0.767656 -0.473696 1
0.038391 0.846985 -0.568461 1
0.084159 0.712590 -0.555780 1
0.032106 0.826610 -0.482077 1
0.064247 0.800466 -0.606791 1
0.056689 0.712620 -0.495117 1
0.032290 0.860987 -0.531278 1
0.101654 0.754082 -0.583416 1
0.042540 0.790069 -0.465467 1
0.041092 0.832954 -0.594301 1
0.080309 0.700242 -0.530595 1
0.028034 0.849282 -0.494554 1
0.084828 0.783805 -0.608410 1
0.060339 0.747204 -0.470170 1
0.036090 0.864947 -0.555802 1
0.101905 0.724696 -0.568905 1
0.025346 0.810375 -0.467830 1
0.052103 0.813329 -0.614660 1
0.067426 0.694412 -0.503200 1
0.030002 0.868679 -0.513880 1
0.104079 0.764812 -0.599727 1
0.046333 0.770497 -0.456947 1
0.036900 0.853607 -0.585445 1
0.089636 0.691023 -0.548502 1
0.022433 0.840937 -0.477798 1
0.081186 0.802290 -0.617301 1
0.055292 0.708458 -0.475753 1
0.028888 0.874812 -0.541064 1
0.118505 0.745936 -0.581175 1
0.044248 0.833642 -0.612655 1
0.078657 0.679013 -0.517720 1
0.023572 0.866765 -0.496215 1
0.100015 0.777025 -0.615773 1
0.055722 0.750978 -0.452799 1
0.034703 0.873249 -0.570436 1
0.105256 0.699793 -0.565767 1
0.070527 0.818954 -0.623964 1
0.060358 0.678965 -0.486338 1
0.026085 0.882698 -0.521889 1
0.120479 0.757009 -0.599474 1
0.038434 0.855763 -0.603033 1
0.087323 0.665065 -0.538667 1
0.018237 0.858841 -0.477689 1
0.095724 0.797072 -0.625904 1
0.067761 0.730621 -0.454251 1
0.028904 0.886003 -0.553306 1
0.123560 0.723441 -0.580230 1
0.046594 0.826897 -0.632197 1
0.068106 0.653413 -0.503471 1
0.021777 0.883451 -0.501786 1
0.114246 0.766906 -0.619233 1
0.040902 0.749903 -0.438934 1
0.033912 0.876445 -0.587555 1
0.106660 0.676207 -0.557632 1
0.088814 0.819794 -0.630952 1
0.057861 0.678679 -0.466662 1
0.062904 0.768975 -0.529272 1
0.062932 0.773567 -0.539054 1
0.065893 0.752499 -0.523720 1
0.058063 0.790190 -0.522209 1
0.069129 0.756619 -0.548986 1
0.058596 0.760143 -0.506813 1
0.059541 0.794255 -0.542439 1
0.076491 0.740491 -0.533224 1
0.051215 0.788053 -0.506169 1
0.067155 0.770667 -0.561887 1
0.058362 0.730566 -0.508884 1
0.052780 0.808353 -0.528629 1
0.074877 0.733955 -0.556582 1
0.055513 0.774190 -0.491063 1
0.059669 0.794053 -0.560968 1
0.072571 0.717528 -0.523132 1
0.047319 0.807960 -0.507080 1
0.071892 0.751483 -0.574725 1
0.055730 0.738339 -0.490368 1
0.052827 0.816603 -0.543998 1
0.080892 0.714944 -0.549366 1
0.046745 0.790709 -0.486544 1
0.059910 0.777483 -0.580749 1
0.060674 0.701493 -0.506756 1
0.043343 0.821860 -0.518892 1
0.084630 0.735289 -0.574009 1
0.053810 0.760618 -0.475804 1
0.052872 0.811510 -0.565089 1
0.082795 0.700684 -0.532340 1
0.040307 0.810546 -0.491170 1
0.076450 0.766569 -0.588215 1
0.054158 0.709743 -0.485706 1
0.043219 0.829866 -0.537524 1
0.091430 0.712998 -0.565194 1
0.047873 0.785239 -0.469989 1
0.054911 0.794729 -0.587390 1
0.073546 0.686731 -0.511301 1
0.036625 0.828271 -0.504427 1
0.097524 0.755630 -0.584696 1
0.059153 0.745197 -0.465812 1
0.046736 0.829276 -0.560182 1
0.093447 0.693034 -0.547042 1
0.036220 0.805356 -0.474797 1
0.072593 0.781867 -0.598518 1
0.060632 0.686093 -0.487432 1
0.037134 0.840886 -0.524396 1
0.111779 0.737430 -0.574287 1
0.048114 0.769294 -0.457470 1
0.049255 0.814551 -0.586046 1
0.082337 0.669706 -0.524614 1
0.032460 0.828832 -0.487462 1
0.095264 0.767711 -0.598891 1
0.062938 0.721134 -0.462557 1
0.040999 0.844802 -0.549059 1
0.106129 0.698334 -0.563142 1
0.028839 0.788005 -0.460336 1
0.062155 0.796425 -0.605278 1
0.065951 0.658971 -0.497330 1
0.031952 0.846607 -0.507815 1
0.117191 0.752476 -0.588536 1
0.054862 0.752423 -0.448227 1
0.042821 0.833690 -0.578337 1
0.094815 0.664339 -0.541676 1
0.030450 0.823428 -0.469741 1
0.087329 0.781533 -0.610549 1
0.060213 0.683215 -0.467416 1
0.034186 0.855252 -0.534100 1
0.125222 0.724369 -0.574273 1
0.048440 0.811393 -0.606714 1
0.074390 0.637562 -0.513540 1
0.026821 0.845775 -0.489534 1
0.111766 0.762843 -0.605301 1
0.060567 0.728027 -0.444468 1
0.038442 0.852178 -0.564311 1
0.107040 0.667990 -0.561370 1
0.077700 0.799598 -0.616415 1
0.063042 0.648721 -0.478580 1
0.029870 0.862335 -0.515376 1
0.130008 0.739938 -0.590749 1
0.043155 0.834696 -0.596643 1
0.086202 0.626696 -0.534327 1
0.021224 0.837516 -0.470790 1
0.101620 0.775966 -0.619528 1
0.052055 0.679690 -0.449118 1
0.034339 0.866668 -0.546358 1
0.126757 0.695070 -0.575712 1
0.061554 0.814638 -0.619479 1
0.072456 0.623707 -0.495604 1
0.021199 0.859979 -0.496286 1
0.125339 0.752025 -0.609231 1
0.049634 0.731457 -0.429900 1
0.037245 0.854925 -0.581757 1
0.099123 0.626987 -0.557970 1
0.093268 0.797772 -0.625480 1
0.062056 0.650824 -0.458060 1
0.067049 0.751625 -0.530624 1
0.070894 0.760604 -0.538887 1
0.071362 0.736217 -0.524520 1
0.064034 0.775559 -0.522688 1
0.074565 0.740175 -0.550119 1
0.061797 0.741613 -0.508160 1
0.066502 0.780598 -0.542652 1
0.079926 0.721130 -0.535073 1
0.056598 0.772826 -0.506729 1
0.069114 0.750507 -0.564887 1
0.062644 0.712179 -0.509980 1
0.060117 0.795430 -0.528584 1
0.081885 0.718684 -0.557159 1
0.058232 0.755811 -0.492246 1
0.066758 0.780341 -0.561252 1
0.076604 0.698106 -0.524618 1
0.053436 0.793941 -0.507376 1
0.081075 0.739210 -0.574190 1
0.057739 0.717692 -0.491800 1
0.059332 0.802887 -0.544350 1
0.088116 0.699463 -0.549849 1
0.052029 0.775603 -0.486951 1
0.066316 0.762391 -0.581667 1
0.065940 0.683279 -0.507557 1
0.050737 0.809183 -0.518797 1
0.099828 0.730863 -0.570063 1
0.059323 0.745074 -0.476049 1
0.060132 0.798222 -0.565248 1
0.087721 0.681626 -0.533708 1
0.046984 0.797176 -0.491233 1
0.087513 0.756844 -0.586467 1
0.056308 0.688055 -0.487037 1
0.051330 0.817818 -0.537171 1
0.105260 0.706805 -0.562175 1
0.052826 0.769812 -0.470313 1
0.062387 0.781103 -0.587669 1
0.076961 0.665194 -0.512881 1
0.043337 0.815105 -0.504527 1
0.109725 0.747800 -0.582120 1
0.059594 0.723216 -0.467044 1
0.054097 0.816382 -0.560205 1
0.099069 0.674441 -0.548406 1
0.043104 0.792166 -0.474765 1
0.081464 0.769667 -0.598037 1
0.062174 0.662342 -0.489010 1
0.043413 0.827405 -0.524701 1
0.120748 0.725186 -0.573770 1
0.056385 0.757170 -0.457040 1
0.055427 0.800006 -0.586926 1
0.085111 0.646056 -0.526861 1
0.038085 0.814790 -0.487803 1
0.107766 0.760209 -0.595961 1
0.064608 0.699551 -0.463447 1
0.048595 0.832383 -0.548897 1
0.112272 0.680521 -0.564501 1
0.042682 0.781374 -0.458993 1
0.070952 0.784177 -0.604816 1
0.068365 0.634846 -0.498968 1
0.037612 0.832772 -0.508246 1
0.127748 0.742836 -0.586858 1
0.062438 0.739343 -0.447849 1
0.048822 0.819411 -0.579141 1
0.097948 0.640486 -0.544318 1
0.031955 0.805689 -0.470859 1
0.097343 0.770837 -0.609247 1
0.062430 0.660510 -0.468319 1
0.041670 0.842897 -0.533956 1
0.127780 0.701888 -0.578020 1
0.057052 0.798959 -0.606340 1
0.074145 0.607632 -0.516700 1
0.032024 0.831624 -0.490007 1
0.122064 0.752744 -0.603767 1
0.058794 0.702659 -0.445488 1
0.045758 0.839455 -0.564299 1
0.110395 0.644168 -0.564521 1
0.029929 0.792202 -0.453825 1
0.086538 0.787644 -0.615844 1
0.067889 0.628011 -0.479113 1
0.035207 0.848446 -0.515932 1
0.134897 0.721582 -0.593210 1
0.040039 0.732535 -0.436352 1
0.049427 0.820520 -0.597443 1
0.086590 0.596342 -0.538147 1
0.027548 0.824220 -0.470938 1
0.111491 0.765199 -0.618286 1
0.054689 0.657703 -0.449533 1
0.040226 0.853104 -0.546858 1
0.125219 0.663921 -0.582516 1
0.073951 0.806218 -0.616518 1
0.066684 0.584181 -0.499879 1
0.025273 0.845080 -0.497122 1
0.133418 0.738685 -0.609441 1
0.061797 0.723511 -0.428940 1
0.041676 0.839667 -0.583296 1
0.100038 0.596687 -0.562578 1
0.101844 0.785677 -0.625065 1
0.066989 0.630614 -0.458198 1
0.075038 0.739493 -0.537893 1
0.076080 0.745308 -0.547426 1
0.079860 0.724446 -0.531588 1
0.070130 0.761994 -0.530457 1
0.078082 0.721865 -0.559930 1
0.068112 0.727498 -0.515927 1
0.071573 0.765778 -0.551163 1
0.085592 0.705061 -0.543624 1
0.062003 0.758604 -0.514605 1
0.075417 0.735802 -0.573531 1
0.071825 0.700801 -0.516952 1
0.066843 0.782965 -0.536046 1
0.091438 0.707383 -0.564149 1
0.063321 0.740925 -0.500096 1
0.069576 0.762754 -0.571342 1
0.083379 0.682897 -0.532710 1
0.060933 0.782438 -0.514397 1
0.098101 0.737757 -0.576779 1
0.060212 0.698232 -0.500738 1
0.063679 0.787976 -0.553072 1
0.096036 0.685464 -0.557737 1
0.057310 0.761576 -0.494589 1
0.079523 0.755826 -0.586517 1
0.073779 0.669338 -0.515188 1
0.060322 0.799856 -0.525046 1
0.114099 0.726423 -0.573984 1
0.057532 0.721941 -0.485522 1
0.062494 0.780837 -0.575523 1
0.091548 0.661189 -0.543434 1
0.053891 0.785271 -0.498356 1
0.103723 0.754458 -0.589064 1
0.058417 0.666887 -0.496181 1
0.058991 0.806576 -0.544243 1
0.116477 0.697789 -0.568100 1
0.056922 0.754560 -0.478032 1
0.071739 0.770340 -0.594670 1
0.080173 0.643641 -0.522445 1
0.052778 0.805750 -0.510851 1
0.123814 0.743411 -0.585711 1
0.054646 0.695112 -0.477088 1
0.059168 0.802378 -0.568810 1
0.105179 0.656705 -0.557418 1
0.049525 0.779827 -0.481950 1
0.095341 0.764134 -0.602081 1
0.067559 0.644507 -0.497345 1
0.052231 0.817424 -0.531228 1
0.125906 0.707493 -0.583380 1
0.059376 0.740448 -0.464798 1
0.059809 0.784484 -0.596672 1
0.086840 0.620661 -0.537679 1
0.045515 0.803659 -0.494747 1
0.119383 0.752373 -0.601176 1
0.061871 0.672734 -0.472928 1
0.056484 0.821458 -0.555881 1
0.118891 0.663377 -0.573508 1
0.050685 0.770611 -0.465776 1
0.084523 0.778044 -0.609096 1
0.067138 0.605328 -0.509943 1
0.046774 0.823243 -0.514627 1
0.130971 0.722725 -0.598042 1
0.060475 0.716082 -0.456371 1
0.053499 0.804870 -0.588357 1
0.101130 0.616345 -0.555139 1
0.041075 0.796079 -0.477450 1
0.110156 0.764268 -0.613716 1
0.066009 0.640384 -0.476698 1
0.050196 0.832756 -0.540544 1
0.131587 0.680630 -0.589031 1
0.050223 0.751087 -0.452617 1
0.069726 0.791645 -0.611291 1
0.071416 0.573123 -0.529312 1
0.038442 0.819792 -0.497224 1
0.130524 0.740409 -0.611371 1
0.055568 0.675883 -0.454376 1
0.050475 0.825668 -0.572994 1
0.115950 0.623485 -0.574644 1
0.036391 0.780005 -0.461003 1
0.098467 0.779912 -0.620957 1
0.066769 0.598662 -0.489268 1
0.043078 0.837909 -0.522709 1
0.139528 0.702213 -0.603930 1
0.056421 0.730743 -0.442101 1
0.054589 0.806258 -0.606766 1
0.087939 0.566871 -0.550108 1
0.031870 0.810559 -0.478592 1
0.123261 0.757358 -0.623441 1
0.065036 0.647525 -0.456298 1
0.047692 0.842077 -0.553928 1
0.129011 0.640395 -0.594241 1
0.085780 0.798361 -0.621671 1
0.066563 0.553183 -0.510923 1
0.032736 0.834185 -0.504088 1
0.141503 0.725198 -0.617620 1
0.064538 0.705634 -0.436279 1
0.047449 0.826573 -0.591827 1
0.104654 0.571986 -0.573785 1
0.026782 0.794752 -0.460032 1
0.113669 0.777975 -0.630088 1
0.078712 0.722319 -0.549808 1
0.079328 0.727641 -0.559773 1
0.084929 0.708551 -0.542779 1
0.076288 0.748754 -0.540914 1
0.088518 0.712288 -0.569044 1
0.077725 0.717795 -0.525065 1
0.075437 0.749627 -0.563148 1
0.091766 0.689616 -0.554718 1
0.069328 0.746864 -0.524461 1
0.096571 0.739682 -0.576540 1
0.081084 0.690024 -0.526397 1
0.071567 0.768668 -0.547112 1
0.106519 0.704067 -0.570580 1
0.069462 0.727605 -0.510267 1
0.077028 0.750255 -0.581974 1
0.089240 0.666422 -0.543916 1
0.068869 0.771918 -0.523846 1
0.114425 0.736323 -0.581909 1
0.069404 0.687541 -0.510244 1
0.069621 0.774835 -0.563934 1
0.111965 0.683470 -0.563818 1
0.063962 0.749488 -0.504450 1
0.096995 0.754981 -0.591198 1
0.080783 0.654490 -0.525737 1
0.066575 0.787809 -0.535173 1
0.128624 0.722998 -0.579977 1
0.058686 0.702207 -0.497135 1
0.067263 0.765830 -0.587637 1
0.098748 0.645523 -0.554380 1
0.061444 0.774601 -0.507861 1
0.118382 0.750852 -0.594905 1
0.066994 0.654621 -0.506096 1
0.063151 0.792311 -0.555633 1
0.126800 0.687623 -0.577047 1
0.059430 0.737909 -0.488852 1
0.086775 0.766261 -0.600893 1
0.085268 0.624636 -0.534106 1
0.059769 0.794732 -0.520559 1
0.132732 0.732115 -0.595271 1
0.053303 0.671147 -0.489321 1
0.061048 0.785296 -0.582092 1
0.115468 0.645429 -0.566848 1
0.053415 0.765472 -0.492420 1
0.110612 0.760859 -0.607605 1
0.073703 0.627940 -0.508116 1
0.061215 0.808208 -0.540289 1
0.132411 0.691233 -0.595060 1
0.058132 0.719079 -0.476234 1
0.072051 0.777149 -0.604757 1
0.093168 0.602073 -0.549359 1
0.055648 0.795782 -0.503435 1
0.129070 0.742046 -0.610432 1
0.063563 0.651638 -0.484278 1
0.056634 0.803705 -0.569417 1
0.126705 0.647709 -0.584603 1
0.055891 0.757655 -0.475677 1
0.098464 0.772844 -0.615668 1
0.077906 0.594288 -0.519574 1
0.053090 0.811847 -0.524591 1
0.136559 0.705244 -0.610696 1
0.056851 0.690662 -0.468143 1
0.058429 0.790608 -0.600542 1
0.109479 0.600329 -0.566128 1
0.049644 0.786781 -0.486654 1
0.122473 0.757359 -0.621140 1
0.069486 0.620187 -0.487832 1
0.057067 0.821724 -0.550518 1
0.133348 0.654699 -0.604811 1
0.060536 0.743541 -0.461451 1
0.085232 0.787832 -0.616992 1
0.084932 0.565316 -0.538184 1
0.048457 0.811808 -0.505980 1
0.138734 0.727337 -0.622101 1
0.053871 0.650890 -0.465944 1
0.053717 0.810712 -0.585499 1
0.123252 0.605088 -0.586634 1
0.051595 0.777270 -0.468915 1
0.111452 0.773703 -0.627966 1
0.067104 0.570959 -0.502029 1
0.049831 0.827046 -0.532559 1
0.146968 0.686465 -0.615593 1
0.067391 0.724020 -0.450812 1
0.066768 0.798855 -0.614820 1
0.103361 0.562072 -0.557890 1
0.041487 0.802257 -0.487616 1
0.133804 0.747872 -0.632334 1
0.058705 0.613715 -0.468981 1
0.052086 0.828900 -0.565232 1
0.138266 0.625552 -0.605122 1
0.050255 0.756209 -0.454137 1
0.098248 0.791529 -0.629100 1
0.074138 0.534794 -0.522202 1
0.043275 0.826580 -0.512699 1
0.149739 0.711341 -0.628684 1
0.061767 0.681017 -0.447096 1
0.051115 0.811763 -0.604652 1
0.114604 0.556394 -0.584753 1
0.040745 0.790511 -0.468342 1
0.126078 0.771144 -0.637366 1
0.055939 0.558456 -0.481963 1
0.086599 0.707730 -0.564797 1
0.092811 0.720154 -0.571936 1
0.092806 0.693610 -0.557630 1
0.079613 0.729844 -0.557600 1
0.115079 0.722302 -0.573603 1
0.085688 0.703851 -0.539445 1
0.084798 0.737437 -0.577436 1
0.105468 0.681973 -0.566845 1
0.078085 0.734839 -0.538362 1
0.116481 0.740746 -0.584317 1
0.089134 0.675125 -0.540997 1
0.075383 0.751143 -0.563628 1
0.119690 0.695730 -0.582715 1
0.079383 0.716831 -0.523642 1
0.098472 0.752185 -0.589369 1
0.096971 0.649443 -0.559288 1
0.074250 0.756858 -0.538905 1
0.128493 0.729826 -0.592995 1
0.081361 0.678404 -0.523217 1
0.072256 0.755887 -0.581672 1
0.124097 0.673226 -0.576625 1
0.070910 0.735907 -0.518728 1
0.115294 0.753613 -0.599750 1
0.087465 0.636105 -0.541298 1
0.072749 0.773901 -0.550076 1
0.139043 0.710962 -0.593449 1
0.068369 0.690703 -0.510867 1
0.085571 0.763554 -0.597055 1
0.109478 0.631967 -0.568535 1
0.069642 0.763058 -0.521583 1
0.130409 0.741530 -0.607374 1
0.076662 0.641402 -0.520218 1
0.066854 0.775547 -0.572355 1
0.125910 0.655659 -0.598847 1
0.064122 0.721687 -0.503694 1
0.104169 0.763242 -0.610266 1
0.092301 0.604993 -0.550032 1
0.069469 0.784931 -0.533753 1
0.141360 0.717176 -0.610387 1
0.061583 0.657036 -0.503742 1
0.067836 0.770893 -0.598149 1
0.115045 0.611992 -0.588139 1
0.061671 0.754043 -0.506133 1
0.124097 0.753274 -0.619269 1
0.086790 0.619055 -0.521085 1
0.066133 0.793609 -0.555778 1
0.141801 0.675643 -0.610237 1
0.055195 0.693110 -0.492981 1
0.089496 0.773711 -0.614437 1
0.101782 0.583244 -0.565147 1
0.064745 0.785705 -0.516718 1
0.139830 0.730206 -0.624259 1
0.071054 0.635859 -0.498778 1
0.061522 0.788317 -0.585958 1
0.136869 0.631895 -0.599562 1
0.061734 0.743772 -0.489807 1
0.113823 0.767386 -0.626171 1
0.074522 0.556179 -0.539830 1
0.062634 0.802064 -0.537891 1
0.146843 0.691140 -0.625455 1
0.053959 0.663248 -0.484730 1
0.072408 0.783365 -0.612645 1
0.120713 0.585236 -0.580701 1
0.057968 0.776017 -0.500184 1
0.134955 0.748096 -0.633703 1
0.070915 0.593456 -0.504458 1
0.060007 0.805546 -0.567180 1
0.144790 0.640610 -0.619292 1
0.060055 0.722215 -0.476750 1
0.099467 0.780974 -0.628483 1
0.095501 0.548806 -0.553194 1
0.058422 0.802714 -0.519023 1
0.148989 0.713711 -0.636901 1
0.060293 0.634183 -0.480537 1
0.056895 0.793630 -0.603529 1
0.134882 0.589942 -0.601291 1
0.052288 0.758784 -0.484122 1
0.125789 0.766934 -0.639106 1
0.074620 0.551014 -0.517584 1
0.060665 0.818507 -0.545351 1
0.157763 0.672079 -0.630315 1
0.060722 0.694127 -0.466967 1
0.086211 0.797200 -0.623036 1
0.115351 0.547095 -0.572380 1
0.051787 0.793568 -0.500657 1
0.144266 0.735090 -0.647011 1
0.048914 0.570396 -0.487879 1
0.053957 0.811787 -0.582960 1
0.151059 0.612664 -0.618918 1
0.059659 0.746660 -0.467293 1
0.111620 0.783690 -0.641082 1
0.091049 0.529456 -0.534622 1
0.051213 0.815734 -0.526525 1
0.159694 0.696114 -0.644237 1
0.059522 0.654316 -0.462578 1
0.063020 0.802610 -0.618015 1
0.132806 0.552525 -0.595589 1
0.050746 0.781726 -0.481455 1
0.134730 0.756671 -0.653539 1
0.070535 0.550810 -0.495251 1
0.111825 0.713866 -0.573836 1
0.117565 0.725680 -0.580692 1
0.108045 0.686157 -0.572209 1
0.091291 0.718441 -0.573970 1
0.128698 0.713037 -0.588459 1
0.090957 0.683482 -0.558677 1
0.110931 0.743930 -0.585414 1
0.117935 0.669826 -0.583065 1
0.084509 0.717644 -0.556750 1
0.133948 0.737001 -0.596470 1
0.098641 0.659293 -0.558512 1
0.085757 0.738619 -0.580668 1
0.137739 0.692215 -0.595038 1
0.086543 0.700238 -0.541383 1
0.119578 0.752566 -0.599583 1
0.115787 0.646512 -0.572343 1
0.080947 0.740951 -0.556991 1
0.141322 0.719023 -0.608493 1
0.092368 0.665554 -0.539695 1
0.094647 0.756930 -0.592130 1
0.130261 0.649800 -0.597161 1
0.080238 0.722939 -0.535414 1
0.129233 0.744798 -0.614521 1
0.102726 0.627680 -0.556500 1
0.074512 0.752935 -0.570805 1
0.145061 0.688423 -0.614369 1
0.086141 0.687681 -0.524736 1
0.105760 0.762120 -0.608219 1
0.116184 0.607751 -0.589027 1
0.076394 0.747968 -0.539116 1
0.141132 0.727552 -0.624783 1
0.088476 0.628514 -0.536814 1
0.075310 0.761435 -0.590554 1
0.143406 0.649771 -0.612271 1
0.072110 0.707034 -0.520825 1
0.121251 0.758185 -0.623076 1
0.097215 0.577475 -0.571134 1
0.075625 0.769706 -0.551676 1
0.150954 0.699996 -0.629193 1
0.081048 0.655994 -0.517573 1
0.088280 0.769119 -0.609716 1
0.136108 0.611633 -0.599874 1
0.073902 0.745219 -0.521563 1
0.138432 0.744420 -0.634047 1
0.084072 0.581415 -0.543950 1
0.069314 0.775130 -0.575900 1
0.150842 0.655130 -0.630289 1
0.071196 0.687989 -0.507841 1
0.107504 0.769426 -0.626935 1
0.111202 0.561327 -0.584622 1
0.072849 0.772984 -0.533454 1
0.149742 0.713682 -0.643236 1
0.077389 0.615287 -0.517034 1
0.070070 0.774406 -0.604477 1
0.146395 0.610246 -0.619473 1
0.064808 0.724625 -0.507966 1
0.129835 0.760755 -0.639752 1
0.098356 0.560324 -0.552251 1
0.067835 0.786453 -0.556308 1
0.162131 0.681639 -0.640243 1
0.072229 0.660977 -0.499229 1
0.092220 0.780727 -0.624314 1
0.130417 0.562563 -0.600452 1
0.065176 0.762446 -0.517111 1
0.146501 0.734588 -0.651334 1
0.069614 0.557842 -0.526105 1
0.063740 0.787967 -0.587447 1
0.158737 0.626760 -0.636114 1
0.056796 0.694782 -0.496372 1
0.116423 0.775401 -0.641540 1
0.113287 0.541751 -0.568140 1
0.066725 0.790607 -0.535706 1
0.159384 0.696345 -0.656369 1
0.071637 0.621766 -0.497049 1
0.072469 0.786514 -0.618246 1
0.144831 0.566392 -0.621721 1
0.062993 0.748829 -0.499998 1
0.137834 0.754751 -0.656264 1
0.091489 0.543613 -0.533100 1
0.063563 0.801212 -0.564937 1
0.166318 0.648773 -0.652107 1
0.055615 0.662685 -0.486745 1
0.099993 0.788279 -0.638512 1
0.128405 0.529554 -0.590200 1
0.062448 0.783901 -0.516445 1
0.159646 0.726363 -0.661591 1
0.070653 0.572048 -0.502307 1
0.059483 0.795871 -0.602906 1
0.158940 0.584583 -0.641791 1
0.062103 0.727593 -0.484868 1
0.126507 0.775533 -0.655751 1
0.110502 0.525883 -0.548891 1
0.065408 0.809179 -0.541057 1
0.170807 0.678368 -0.663736 1
0.063894 0.633377 -0.480288 1
0.087957 0.804710 -0.626275 1
0.147526 0.537232 -0.612671 1
0.055158 0.765942 -0.498866 1
0.150410 0.748719 -0.667804 1
0.082098 0.534938 -0.512477 1
0.130307 0.718822 -0.586889 1
0.135436 0.729710 -0.593729 1
0.128841 0.694597 -0.584381 1
0.117911 0.733249 -0.583036 1
0.143909 0.713265 -0.603115 1
0.107991 0.686243 -0.573798 1
0.128104 0.746589 -0.598928 1
0.135693 0.673719 -0.596947 1
0.094644 0.711369 -0.575264 1
0.140430 0.724645 -0.617241 1
0.118532 0.666659 -0.572090 1
0.109382 0.748576 -0.591367 1
0.144400 0.678318 -0.616258 1
0.090341 0.685606 -0.562786 1
0.130619 0.746967 -0.617138 1
0.129281 0.643637 -0.589287 1
0.084971 0.727751 -0.578451 1
0.149716 0.708289 -0.628469 1
0.103534 0.660345 -0.557828 1
0.111723 0.758770 -0.606176 1
0.139752 0.639160 -0.617105 1
0.087263 0.713471 -0.554991 1
0.141901 0.740843 -0.631082 1
0.108485 0.612198 -0.578125 1
0.087649 0.750286 -0.587775 1
0.154643 0.678271 -0.634036 1
0.091955 0.675902 -0.544841 1
0.120174 0.760552 -0.623770 1
0.135882 0.614646 -0.602550 1
0.083132 0.738704 -0.558704 1
0.150067 0.717336 -0.644857 1
0.101256 0.625237 -0.554710 1
0.093035 0.763513 -0.604869 1
0.153855 0.639969 -0.631782 1
0.088256 0.709159 -0.536827 1
0.135144 0.755720 -0.638868 1
0.121090 0.591789 -0.583402 1
0.076436 0.754194 -0.574247 1
0.159976 0.688577 -0.649729 1
0.089714 0.647665 -0.536830 1
0.104724 0.769595 -0.624356 1
0.143510 0.595405 -0.622034 1
0.081866 0.737775 -0.540330 1
0.148502 0.736116 -0.653253 1
0.090493 0.566222 -0.565730 1
0.076286 0.765930 -0.596210 1
0.165251 0.651920 -0.646613 1
0.081068 0.682249 -0.526393 1
0.123470 0.769316 -0.641416 1
0.135168 0.576415 -0.596167 1
0.077597 0.762334 -0.553543 1
0.162507 0.708316 -0.660550 1
0.089599 0.611521 -0.535452 1
0.087916 0.776091 -0.618767 1
0.155843 0.596645 -0.640759 1
0.077137 0.722296 -0.525435 1
0.141290 0.754648 -0.657817 1
0.111853 0.556619 -0.570552 1
0.071084 0.774179 -0.577789 1
0.171455 0.669267 -0.661240 1
0.081445 0.654146 -0.518161 1
0.108030 0.780232 -0.639252 1
0.142534 0.553945 -0.619858 1
0.077979 0.760633 -0.534012 1
0.159971 0.730460 -0.667931 1
0.087781 0.562772 -0.543050 1
0.069925 0.778065 -0.608512 1
0.167574 0.611367 -0.658402 1
0.070013 0.693527 -0.514089 1
0.129976 0.772131 -0.657912 1
0.129445 0.542380 -0.584892 1
0.071623 0.780589 -0.555721 1
0.173970 0.693185 -0.672321 1
0.081330 0.614934 -0.516234 1
0.090938 0.788550 -0.631899 1
0.156949 0.556592 -0.641498 1
0.069882 0.740769 -0.519006 1
0.151626 0.751230 -0.672569 1
0.100700 0.532433 -0.553546 1
0.065114 0.787658 -0.587496 1
0.175464 0.633897 -0.674524 1
0.073186 0.667303 -0.503589 1
0.116758 0.788686 -0.652490 1
0.147354 0.535229 -0.604883 1
0.069666 0.776488 -0.535262 1
0.171173 0.718533 -0.680483 1
0.081683 0.566145 -0.521678 1
0.071710 0.791753 -0.620761 1
0.169338 0.570264 -0.663574 1
0.064935 0.714755 -0.505014 1
0.138242 0.769634 -0.673936 1
0.123261 0.520276 -0.567633 1
0.067292 0.796695 -0.562369 1
0.181636 0.667342 -0.684309 1
0.062680 0.611549 -0.502349 1
0.102682 0.803031 -0.641832 1
0.164323 0.537599 -0.628503 1
0.069406 0.765866 -0.515561 1
0.163870 0.744278 -0.684617 1
0.095156 0.531570 -0.531296 1
0.140815 0.722190 -0.603076 1
0.143182 0.728990 -0.611662 1
0.144497 0.705893 -0.597459 1
0.131974 0.741227 -0.597125 1
0.150574 0.710489 -0.622103 1
0.128857 0.704686 -0.584861 1
0.135493 0.745381 -0.617193 1
0.148149 0.680162 -0.612232 1
0.117720 0.730965 -0.585379 1
0.149284 0.724857 -0.634786 1
0.129929 0.671871 -0.588625 1
0.121789 0.753844 -0.606645 1
0.155478 0.682013 -0.632454 1
0.108099 0.699081 -0.576624 1
0.139548 0.747376 -0.634585 1
0.139975 0.647465 -0.606350 1
0.106276 0.743859 -0.589765 1
0.157800 0.706859 -0.646944 1
0.117300 0.669272 -0.573622 1
0.121076 0.759945 -0.623460 1
0.161791 0.662308 -0.625043 1
0.098158 0.717560 -0.572166 1
0.150240 0.740034 -0.649153 1
0.129585 0.633664 -0.589797 1
0.103129 0.758789 -0.601927 1
0.169432 0.687913 -0.646784 1
0.101214 0.678287 -0.563076 1
0.130243 0.762278 -0.640564 1
0.147442 0.619747 -0.619286 1
0.088186 0.735626 -0.578637 1
0.162645 0.722474 -0.659445 1
