ply
format ascii 1.0
element vertex 1591
property float x
property float y
property float z
property uchar label
end_header
0.375621 0.541078 -0.866520 1
0.030446 0.545339 -0.613495 1
0.063392 0.555642 -1.033817 1
0.264582 0.699780 -0.733757 1
-0.083427 0.527514 -0.797573 1
0.264499 0.564079 -0.991086 1
0.127814 0.628740 -0.604726 1
-0.034223 0.539493 -0.982023 1
0.343055 0.638372 -0.822578 1
-0.043496 0.552720 -0.678693 1
0.148162 0.539044 -1.041632 1
0.216151 0.704432 -0.675210 1
-0.088909 0.522057 -0.875708 1
0.011577 0.562777 -1.035371 1
0.142564 0.541595 -0.806856 1
0.146914 0.538429 -0.778932 1
0.117156 0.536844 -0.833605 1
0.192815 0.535542 -0.796187 1
0.106706 0.535771 -0.775772 1
0.147508 0.540102 -0.862051 1
0.184819 0.540800 -0.747672 1
0.081314 0.527171 -0.823363 1
0.202357 0.548536 -0.838833 1
0.118729 0.550016 -0.738729 1
0.107047 0.535121 -0.880463 1
0.227319 0.545616 -0.763690 1
0.059969 0.541143 -0.787152 1
0.178321 0.547408 -0.885845 1
0.168499 0.554332 -0.712476 1
0.062262 0.528702 -0.863661 1
0.246413 0.547285 -0.814437 1
0.077634 0.548605 -0.733712 1
0.130889 0.533336 -0.910786 1
0.224096 0.565194 -0.726973 1
0.030091 0.538499 -0.819916 1
0.226994 0.543817 -0.877354 1
0.137692 0.543485 -0.683173 1
0.066063 0.537117 -0.907643 1
0.265418 0.564377 -0.777434 1
0.038024 0.537911 -0.750451 1
0.170811 0.539007 -0.926042 1
0.201770 0.570206 -0.686960 1
0.020068 0.530973 -0.862622 1
0.270027 0.551248 -0.848809 1
0.086561 0.543286 -0.684147 1
0.094403 0.539227 -0.941297 1
0.256361 0.590591 -0.736508 1
0.002587 0.539591 -0.793344 1
0.224160 0.540996 -0.918567 1
0.161554 0.564308 -0.656041 1
0.028434 0.530701 -0.910428 1
0.297904 0.565620 -0.803361 1
0.033828 0.541378 -0.708985 1
0.139052 0.545211 -0.961299 1
0.226656 0.608319 -0.694867 1
-0.013342 0.533961 -0.844356 1
0.276359 0.549438 -0.889902 1
0.104552 0.559300 -0.649390 1
0.053690 0.541562 -0.955180 1
0.285845 0.607693 -0.761191 1
-0.010868 0.541448 -0.755501 1
0.204379 0.536596 -0.956595 1
0.184063 0.606127 -0.655790 1
-0.009332 0.531483 -0.899940 1
0.325144 0.551245 -0.836207 1
0.042347 0.555174 -0.669890 1
0.098587 0.549805 -0.984968 1
0.254423 0.638290 -0.715721 1
-0.036005 0.533489 -0.811561 1
0.262240 0.551772 -0.935312 1
0.136958 0.574605 -0.620729 1
0.011314 0.544630 -0.955451 1
0.319103 0.603569 -0.790368 1
-0.011019 0.545510 -0.711005 1
0.165106 0.544382 -0.991465 1
0.212086 0.643879 -0.668272 1
-0.038873 0.523382 -0.872635 1
0.310377 0.573591 -0.892550 1
0.072463 0.553571 -0.621658 1
0.055909 0.548060 -0.995059 1
0.281025 0.660110 -0.747698 1
-0.049589 0.539194 -0.771350 1
0.231277 0.557261 -0.979040 1
0.162353 0.621206 -0.624055 1
-0.026532 0.540150 -0.940390 1
0.353533 0.579441 -0.823043 1
0.003184 0.549828 -0.662240 1
0.123646 0.539936 -1.013400 1
0.246531 0.669173 -0.688246 1
-0.064782 0.528545 -0.838621 1
0.306105 0.556598 -0.936092 1
0.108562 0.570383 -0.589732 1
0.007681 0.556999 -0.995864 1
0.313294 0.660315 -0.781437 1
-0.047666 0.534811 -0.718192 1
0.198763 0.544964 -1.011472 1
0.187264 0.672624 -0.645378 1
-0.058451 0.530040 -0.911023 1
0.374719 0.551788 -0.864722 1
0.067810 0.556762 -1.029354 1
0.272164 0.698247 -0.726120 1
-0.078282 0.524991 -0.790845 1
0.269465 0.565722 -0.986357 1
0.134580 0.626566 -0.595907 1
-0.031128 0.544052 -0.978501 1
0.349506 0.638899 -0.816620 1
-0.037761 0.549249 -0.670359 1
0.147943 0.550019 -1.039241 1
0.224095 0.701837 -0.666370 1
-0.085075 0.524368 -0.871405 1
0.019410 0.554319 -1.028738 1
0.150410 0.538614 -0.799342 1
0.153242 0.538670 -0.772729 1
0.122939 0.537601 -0.827987 1
0.195109 0.543582 -0.793703 1
0.107928 0.546557 -0.774794 1
0.153154 0.541302 -0.856732 1
0.190705 0.542431 -0.741945 1
0.080959 0.541791 -0.823819 1
0.211936 0.543360 -0.830592 1
0.126656 0.546731 -0.730438 1
0.111516 0.538393 -0.876055 1
0.230970 0.551328 -0.760074 1
0.069171 0.533232 -0.777185 1
0.187162 0.542847 -0.878400 1
0.178641 0.547965 -0.702080 1
0.066635 0.532106 -0.859293 1
0.251116 0.551075 -0.809968 1
0.086952 0.541272 -0.723242 1
0.135755 0.535780 -0.906119 1
0.228386 0.569863 -0.722819 1
0.036289 0.537145 -0.813394 1
0.232602 0.545698 -0.872298 1
0.142495 0.547112 -0.678360 1
0.071997 0.536552 -0.901958 1
0.268672 0.570609 -0.774122 1
0.043019 0.540092 -0.745239 1
0.171522 0.549468 -0.924141 1
0.204648 0.577374 -0.684265 1
0.023034 0.537928 -0.859736 1
0.274478 0.555380 -0.844562 1
0.087742 0.554710 -0.684025 1
0.100259 0.539040 -0.935905 1
0.255579 0.603021 -0.736792 1
0.008211 0.539456 -0.787250 1
0.224320 0.552004 -0.916861 1
0.166939 0.566994 -0.650553 1
0.029859 0.541427 -0.908778 1
0.303565 0.568222 -0.798285 1
0.035340 0.552605 -0.708707 1
0.145665 0.543903 -0.955648 1
0.231398 0.612187 -0.690285 1
-0.006671 0.530282 -0.837065 1
0.280660 0.553655 -0.885758 1
0.111846 0.557495 -0.641115 1
0.054432 0.553208 -0.953597 1
0.287011 0.616752 -0.759582 1
-0.005583 0.542266 -0.749691 1
0.208468 0.540661 -0.952510 1
0.188465 0.610514 -0.651476 1
-0.003861 0.531121 -0.894343 1
0.326783 0.559731 -0.833772 1
0.048803 0.554058 -0.662344 1
0.109712 0.537965 -0.976502 1
0.252723 0.651541 -0.717047 1
-0.031949 0.537611 -0.807547 1
0.267997 0.553398 -0.930390 1
0.139517 0.582707 -0.618796 1
0.015992 0.546352 -0.950808 1
0.320287 0.612435 -0.788517 1
-0.004509 0.542988 -0.703081 1
0.171812 0.543108 -0.985992 1
0.208867 0.660092 -0.672050 1
-0.034198 0.525316 -0.867797 1
0.325077 0.562844 -0.882642 1
0.077915 0.555511 -0.615661 1
0.061641 0.547365 -0.989843 1
0.281121 0.670215 -0.747088 1
-0.043567 0.536985 -0.764164 1
0.236922 0.558600 -0.974242 1
0.158998 0.639208 -0.629350 1
-0.022005 0.542129 -0.935803 1
0.338932 0.609511 -0.830795 1
0.008454 0.551271 -0.656278 1
0.126168 0.546679 -1.010101 1
0.243195 0.684522 -0.691487 1
-0.061275 0.534441 -0.835409 1
0.301226 0.574237 -0.936555 1
0.113147 0.574553 -0.585076 1
0.013942 0.554106 -0.990102 1
0.317047 0.665379 -0.777850 1
-0.043933 0.540425 -0.714863 1
0.200892 0.552200 -1.008287 1
0.187025 0.684094 -0.646374 1
-0.055178 0.536303 -0.907866 1
0.381239 0.553531 -0.859416 1
0.072629 0.558133 -1.024829 1
0.266289 0.716007 -0.730857 1
-0.075258 0.533040 -0.788677 1
0.267961 0.578374 -0.984850 1
0.128431 0.650387 -0.605981 1
-0.025829 0.543389 -0.973256 1
0.340485 0.660213 -0.821146 1
-0.034368 0.555967 -0.667717 1
0.157899 0.541911 -1.032510 1
0.220101 0.717968 -0.670832 1
-0.080102 0.524745 -0.866006 1
0.021734 0.561845 -1.025711 1
0.157056 0.538981 -0.793508 1
0.159358 0.540227 -0.767319 1
0.128858 0.539008 -0.822815 1
0.204895 0.538828 -0.785330 1
0.118837 0.537343 -0.764124 1
0.159023 0.542955 -0.851761 1
0.195969 0.546019 -0.737395 1
0.090913 0.533537 -0.814394 1
0.217593 0.546004 -0.825865 1
0.131279 0.551221 -0.726468 1
0.117840 0.538594 -0.870639 1
0.233721 0.559252 -0.757777 1
0.074858 0.534857 -0.771953 1
0.192732 0.545251 -0.873776 1
0.181190 0.556629 -0.700339 1
0.073962 0.529428 -0.852662 1
0.257527 0.552842 -0.804718 1
0.092677 0.543185 -0.717898 1
0.142078 0.536153 -0.900891 1
0.231389 0.577355 -0.720416 1
0.040929 0.540889 -0.809340 1
0.238457 0.547973 -0.867554 1
0.148713 0.548736 -0.672522 1
0.078148 0.536528 -0.896636 1
0.272388 0.576785 -0.770953 1
0.045091 0.550581 -0.744569 1
0.183350 0.539805 -0.915526 1
0.209144 0.582418 -0.680466 1
0.030188 0.534736 -0.852960 1
0.281952 0.555546 -0.838768 1
0.098057 0.546561 -0.672523 1
0.107812 0.536133 -0.929783 1
0.258838 0.609786 -0.734088 1
0.012845 0.543179 -0.783184 1
0.236608 0.543092 -0.908339 1
0.168819 0.576944 -0.649845 1
0.040140 0.530051 -0.899474 1
0.306396 0.575690 -0.795694 1
0.039930 0.556801 -0.704716 1
0.150534 0.547014 -0.951531 1
0.230910 0.624926 -0.691388 1
-0.001446 0.532087 -0.832261 1
0.287507 0.554683 -0.880546 1
0.115164 0.564959 -0.638892 1
0.058982 0.556458 -0.949635 1
0.288825 0.625429 -0.757950 1
-0.000750 0.545502 -0.745322 1
0.217075 0.537560 -0.946365 1
0.186189 0.626905 -0.655321 1
0.002548 0.529280 -0.888382 1
0.331328 0.564686 -0.829966 1
0.053616 0.557973 -0.658039 1
0.115886 0.538015 -0.971547 1
0.253035 0.662290 -0.717054 1
-0.028317 0.544166 -0.804878 1
0.264738 0.569998 -0.930735 1
0.143708 0.588305 -0.615372 1
0.022284 0.544842 -0.945338 1
0.317805 0.626841 -0.789721 1
0.000593 0.545682 -0.698264 1
0.177987 0.543778 -0.981223 1
0.211442 0.667676 -0.670240 1
-0.029095 0.527133 -0.863122 1
0.326248 0.572376 -0.880735 1
0.083817 0.557328 -0.609744 1
0.062742 0.558730 -0.988164 1
0.281533 0.680357 -0.746690 1
-0.039104 0.541147 -0.760346 1
0.239477 0.565847 -0.971369 1
0.162035 0.646409 -0.627275 1
-0.016529 0.542438 -0.930871 1
0.347272 0.609230 -0.824681 1
0.014546 0.551530 -0.649758 1
0.135065 0.541133 -1.003875 1
0.249052 0.687174 -0.686383 1
-0.055658 0.534277 -0.829838 1
0.319936 0.557878 -0.925680 1
0.117424 0.580115 -0.581585 1
0.018655 0.556542 -0.985996 1
0.313238 0.680766 -0.780191 1
-0.038278 0.540953 -0.708953 1
0.205449 0.555881 -1.004406 1
0.188744 0.692916 -0.645660 1
-0.047865 0.530180 -0.900529 1
0.387726 0.556065 -0.854557 1
0.080218 0.554146 -1.019187 1
0.267767 0.724365 -0.729716 1
-0.068690 0.529452 -0.781235 1
0.287210 0.559783 -0.974456 1
0.135481 0.650253 -0.598537 1
-0.020770 0.544717 -0.968787 1
0.341766 0.668879 -0.819547 1
-0.027501 0.553015 -0.659400 1
0.164411 0.541581 -1.027706 1
0.228087 0.717409 -0.663365 1
-0.074243 0.523301 -0.860090 1
0.025832 0.565685 -1.022036 1
0.159519 0.546954 -0.791954 1
0.162925 0.546107 -0.764778 1
0.133920 0.541649 -0.818877 1
0.208663 0.544376 -0.782522 1
0.123349 0.541232 -0.760663 1
0.162513 0.548744 -0.849161 1
0.199757 0.551572 -0.734614 1
0.095444 0.537162 -0.810940 1
0.220091 0.553611 -0.823978 1
0.142670 0.541210 -0.715324 1
0.120661 0.545776 -0.868638 1
0.240552 0.559699 -0.752306 1
0.076076 0.546228 -0.772287 1
0.203074 0.538602 -0.866199 1
0.188445 0.555823 -0.693931 1
0.075827 0.539187 -0.851798 1
0.260124 0.560233 -0.802716 1
0.099487 0.541908 -0.711577 1
0.144978 0.543064 -0.898672 1
0.235701 0.581941 -0.717093 1
0.048549 0.536419 -0.802293 1
0.241782 0.554051 -0.864934 1
0.151576 0.556139 -0.670942 1
0.081152 0.543393 -0.894517 1
0.276716 0.581400 -0.767634 1
0.054526 0.541871 -0.734617 1
0.186019 0.547001 -0.913324 1
0.206284 0.599086 -0.684571 1
0.034722 0.537953 -0.849513 1
0.284996 0.562130 -0.836324 1
0.102490 0.550671 -0.669090 1
0.109429 0.545836 -0.928490 1
0.265151 0.611248 -0.729014 1
0.019893 0.539568 -0.776359 1
0.241181 0.547012 -0.904902 1
0.172992 0.581689 -0.646655 1
0.045590 0.530913 -0.895208 1
0.310831 0.580240 -0.792305 1
0.049689 0.547212 -0.693663 1
0.155019 0.550555 -0.948165 1
0.235016 0.629610 -0.688202 1
0.004213 0.532013 -0.827417 1
0.289671 0.562514 -0.878542 1
0.123118 0.561801 -0.630686 1
0.071088 0.541403 -0.940461 1
0.293573 0.629283 -0.754277 1
0.003655 0.549055 -0.741953 1
0.217662 0.548282 -0.945156 1
0.190306 0.631452 -0.652104 1
0.006264 0.534647 -0.885821 1
0.338784 0.565057 -0.824676 1
0.057965 0.562002 -0.654678 1
0.115283 0.552227 -0.971354 1
0.260877 0.661432 -0.710473 1
-0.021088 0.538846 -0.797536 1
0.275119 0.564784 -0.924199 1
0.138430 0.610908 -0.624514 1
0.025022 0.552428 -0.943454 1
0.322548 0.630774 -0.786110 1
0.006627 0.544794 -0.692258 1
0.180481 0.551101 -0.978921 1
0.219400 0.666170 -0.662928 1
-0.024099 0.528674 -0.859110 1
0.353612 0.544453 -0.864469 1
0.086844 0.564570 -0.608349 1
0.073054 0.547991 -0.980960 1
0.287343 0.682533 -0.742106 1
-0.031353 0.533939 -0.751613 1
0.241999 0.572816 -0.968987 1
0.168455 0.646825 -0.621147 1
-0.012969 0.548018 -0.928413 1
0.340572 0.628369 -0.828291 1
0.017447 0.559340 -0.648840 1
0.135297 0.553166 -1.002783 1
0.240036 0.710003 -0.695725 1
-0.051145 0.537171 -0.826382 1
0.322214 0.565370 -0.923411 1
0.023104 0.559376 -0.982672 1
0.317133 0.685557 -0.777176 1
-0.034025 0.544953 -0.705849 1
0.213846 0.552634 -0.999252 1
0.194919 0.693907 -0.639967 1
-0.043340 0.532972 -0.897111 1
0.388579 0.565639 -0.853156 1
0.081650 0.564040 -1.017573 1
0.277544 0.721220 -0.721597 1
-0.064210 0.532572 -0.777817 1
0.296907 0.555887 -0.968753 1
0.131132 0.669837 -0.606776 1
-0.016293 0.547453 -0.965435 1
0.351047 0.667065 -0.813098 1
-0.023145 0.556697 -0.656036 1
0.168124 0.546517 -1.024710 1
0.226101 0.730173 -0.666345 1
-0.070900 0.530444 -0.858381 1
0.035321 0.555474 -1.015518 1
0.170115 0.538339 -0.782234 1
0.171915 0.540736 -0.756295 1
0.141358 0.538602 -0.812113 1
0.214434 0.545591 -0.777355 1
0.128135 0.543670 -0.756195 1
0.172021 0.542155 -0.841111 1
0.208406 0.547690 -0.726486 1
0.097849 0.544590 -0.808949 1
0.231140 0.545763 -0.814928 1
0.146401 0.546023 -0.711963 1
0.128239 0.542054 -0.862050 1
0.246145 0.561533 -0.747264 1
0.084150 0.540648 -0.763978 1
0.206537 0.543693 -0.862960 1
0.192213 0.560656 -0.690486 1
0.083629 0.534028 -0.844547 1
0.267414 0.559397 -0.796591 1
0.106602 0.539171 -0.704106 1
0.152502 0.539834 -0.892489 1
0.235653 0.592877 -0.717170 1
0.054716 0.534744 -0.796197 1
0.250922 0.549765 -0.857859 1
0.157653 0.556430 -0.664794 1
0.090049 0.535749 -0.886765 1
0.278049 0.589864 -0.766078 1
0.057357 0.548586 -0.732504 1
0.195881 0.540142 -0.905909 1
0.212113 0.600279 -0.678946 1
0.042190 0.532557 -0.842219 1
0.298250 0.552429 -0.826482 1
0.107600 0.552425 -0.663941 1
0.118782 0.537932 -0.921027 1
0.259765 0.629580 -0.733465 1
0.024856 0.540636 -0.771491 1
0.245933 0.549877 -0.900827 1
0.172759 0.593659 -0.647889 1
0.048138 0.538116 -0.892989 1
0.308993 0.593131 -0.792803 1
0.053726 0.551015 -0.689939 1
0.163588 0.545345 -0.941744 1
0.233422 0.642417 -0.689958 1
0.009467 0.532022 -0.822311 1
0.301693 0.554681 -0.870108 1
0.127517 0.565244 -0.626414 1
0.073583 0.548357 -0.938046 1
0.287202 0.648081 -0.758803 1
0.010518 0.544679 -0.734100 1
0.225286 0.545928 -0.939529 1
0.189002 0.644340 -0.654301 1
0.012632 0.531419 -0.879769 1
0.341267 0.571795 -0.821987 1
0.066535 0.555066 -0.644141 1
0.129696 0.533774 -0.961287 1
0.252832 0.682657 -0.717642 1
-0.014546 0.534630 -0.790363 1
0.275595 0.574307 -0.922499 1
0.143956 0.612048 -0.618697 1
0.034990 0.540010 -0.934839 1
0.313415 0.652648 -0.791776 1
0.012392 0.543655 -0.685771 1
0.192269 0.540398 -0.971184 1
0.214208 0.684118 -0.668811 1
-0.019181 0.529261 -0.854435 1
0.359001 0.547182 -0.860020 1
0.095178 0.559131 -0.598091 1
0.080198 0.543967 -0.975319 1
0.280652 0.700805 -0.747168 1
-0.027710 0.538614 -0.748590 1
0.243803 0.580151 -0.966501 1
0.163289 0.666384 -0.628617 1
-0.005317 0.540446 -0.921257 1
0.332118 0.648919 -0.832516 1
0.026906 0.548674 -0.635986 1
0.145445 0.544205 -0.995938 1
0.246581 0.710312 -0.689529 1
-0.046940 0.539769 -0.822525 1
0.030631 0.553166 -0.976500 1
0.312944 0.700018 -0.779520 1
-0.029113 0.545635 -0.700585 1
0.218242 0.555668 -0.995480 1
0.193716 0.705702 -0.642040 1
-0.037542 0.530329 -0.891444 1
0.366264 0.604671 -0.864071 1
0.095917 0.544137 -1.008229 1
0.269052 0.741231 -0.728667 1
-0.062026 0.542299 -0.777325 1
0.133508 0.676401 -0.605026 1
-0.010028 0.543761 -0.959894 1
0.336862 0.693660 -0.821166 1
-0.018530 0.558421 -0.651152 1
0.175698 0.543259 -1.019495 1
0.229922 0.734189 -0.662706 1
-0.065645 0.529177 -0.853044 1
0.038873 0.559582 -1.012277 1
0.175586 0.540040 -0.778273 1
0.177993 0.541367 -0.751694 1
0.148057 0.537489 -0.807027 1
0.223671 0.541055 -0.770248 1
0.136722 0.538631 -0.748769 1
0.178333 0.542086 -0.836604 1
0.211065 0.554764 -0.725182 1
0.108142 0.534911 -0.799984 1
0.233844 0.552496 -0.813281 1
0.149387 0.552622 -0.710524 1
0.133189 0.544211 -0.858605 1
0.246132 0.572732 -0.748106 1
0.088559 0.544029 -0.760943 1
0.208736 0.551222 -0.861584 1
0.196478 0.564861 -0.687627 1
0.088011 0.537278 -0.841559 1
0.272218 0.562755 -0.793349 1
0.107640 0.550166 -0.705195 1
0.157540 0.541904 -0.889053 1
0.239100 0.598296 -0.715054 1
0.057306 0.542418 -0.795249 1
0.257010 0.550808 -0.853794 1
0.162000 0.560445 -0.661836 1
0.094985 0.537633 -0.883312 1
0.279230 0.598645 -0.765662 1
0.061670 0.552102 -0.729555 1
0.203620 0.537560 -0.900789 1
0.217241 0.602926 -0.675148 1
0.047465 0.533369 -0.838258 1
0.303948 0.554548 -0.822693 1
0.114410 0.550994 -0.657751 1
0.124300 0.538668 -0.917239 1
0.266259 0.630261 -0.728651 1
0.028194 0.546543 -0.769816 1
0.253337 0.548584 -0.896086 1
0.175127 0.601089 -0.647191 1
0.056816 0.530308 -0.886015 1
0.313012 0.597685 -0.790150 1
0.062315 0.544251 -0.680934 1
0.168801 0.546977 -0.938287 1
0.236565 0.648035 -0.688121 1
0.012007 0.540145 -0.821535 1
0.307329 0.556783 -0.866458 1
0.130398 0.572142 -0.625368 1
0.076483 0.554591 -0.936190 1
0.289823 0.654295 -0.757234 1
0.015047 0.547436 -0.730823 1
0.231160 0.546875 -0.935780 1
0.190595 0.652519 -0.654313 1
0.018082 0.531318 -0.875628 1
0.332606 0.594068 -0.827382 1
0.071440 0.557449 -0.640308 1
0.128313 0.548857 -0.961935 1
0.260464 0.681656 -0.711667 1
-0.009260 0.534910 -0.786047 1
0.290418 0.561959 -0.913965 1
0.150922 0.610896 -0.612196 1
0.040000 0.541086 -0.931303 1
0.316242 0.658496 -0.789964 1
0.014903 0.552083 -0.685682 1
0.198517 0.540288 -0.967261 1
0.221680 0.682977 -0.662424 1
-0.016187 0.536262 -0.853107 1
0.356737 0.560677 -0.860897 1
0.099909 0.562217 -0.594518 1
0.086391 0.542561 -0.971146 1
0.286457 0.702492 -0.743012 1
-0.024047 0.543819 -0.746662 1
0.253412 0.575088 -0.961030 1
0.169031 0.667508 -0.623715 1
-0.000853 0.542742 -0.918145 1
0.343493 0.643665 -0.825253 1
0.032176 0.549866 -0.631445 1
0.150854 0.545149 -0.992453 1
0.253337 0.710552 -0.684147 1
-0.041405 0.538638 -0.817774 1
0.348780 0.547681 -0.907755 1
0.035580 0.554129 -0.973078 1
0.316063 0.705238 -0.777508 1
-0.023847 0.545980 -0.695939 1
0.221061 0.561594 -0.993312 1
0.197473 0.710008 -0.639515 1
-0.032747 0.531587 -0.887913 1
0.375521 0.602411 -0.858522 1
0.101771 0.543604 -1.004443 1
0.277317 0.739683 -0.722273 1
-0.053714 0.531481 -0.767610 1
0.139884 0.676134 -0.598997 1
-0.005374 0.545323 -0.956627 1
0.345006 0.692743 -0.815890 1
-0.012237 0.555949 -0.644485 1
0.181724 0.543232 -1.015822 1
0.233504 0.738681 -0.660340 1
-0.061309 0.531916 -0.850046 1
0.043533 0.561183 -1.009123 1
0.177284 0.549728 -0.777067 1
0.180800 0.549019 -0.749533 1
0.151482 0.543857 -0.804239 1
0.226623 0.548355 -0.767782 1
0.140607 0.544212 -0.745626 1
0.180937 0.549871 -0.834365 1
0.214745 0.560798 -0.722149 1
0.112718 0.538838 -0.796142 1
0.238313 0.557021 -0.809528 1
0.160359 0.544322 -0.699551 1
0.137144 0.549284 -0.855308 1
0.250755 0.577120 -0.744190 1
0.096756 0.539734 -0.752927 1
0.222699 0.538855 -0.851049 1
0.199092 0.572772 -0.685761 1
0.092576 0.540998 -0.837746 1
0.276404 0.567879 -0.789799 1
0.118756 0.540200 -0.693314 1
0.161516 0.546924 -0.885692 1
0.244055 0.602069 -0.710787 1
0.065847 0.536411 -0.786846 1
0.259735 0.558142 -0.851222 1
0.166398 0.565157 -0.658090 1
0.097277 0.546346 -0.881452 1
0.284151 0.602562 -0.761533 1
0.069757 0.547481 -0.721088 1
0.204839 0.547643 -0.899176 1
0.212771 0.622070 -0.680539 1
0.051171 0.539104 -0.835361 1
0.307172 0.561193 -0.819770 1
0.118537 0.556156 -0.654376 1
0.127751 0.544668 -0.914267 1
0.270358 0.635259 -0.725163 1
0.036189 0.541133 -0.761471 1
0.257664 0.553210 -0.892438 1
0.181213 0.602625 -0.641401 1
0.060129 0.536911 -0.883382 1
0.316745 0.603400 -0.786920 1
0.066525 0.549069 -0.677503 1
0.171735 0.553817 -0.935533 1
0.241215 0.652090 -0.684072 1
0.020037 0.534024 -0.813483 1
0.307656 0.567580 -0.865204 1
0.134192 0.577927 -0.622380 1
0.091577 0.533707 -0.924387 1
0.295798 0.656606 -0.752273 1
0.019058 0.552482 -0.727709 1
0.234377 0.553193 -0.932758 1
0.195289 0.656299 -0.650109 1
0.021631 0.537439 -0.872901 1
0.337306 0.598432 -0.823501 1
0.074865 0.564088 -0.637991 1
0.136025 0.545867 -0.956206 1
0.264346 0.686694 -0.708350 1
-0.005309 0.540123 -0.783049 1
0.295233 0.565854 -0.910054 1
0.145138 0.634034 -0.621535 1
0.041091 0.553128 -0.930474 1
0.322469 0.660589 -0.784988 1
0.022794 0.546773 -0.676452 1
0.199459 0.550681 -0.965436 1
0.219506 0.696973 -0.665446 1
-0.009169 0.532136 -0.846288 1
0.366329 0.558517 -0.854243 1
0.102525 0.570661 -0.593376 1
0.091976 0.543560 -0.966713 1
0.290286 0.707506 -0.739742 1
-0.015943 0.536419 -0.737148 1
0.258176 0.578658 -0.957196 1
0.169203 0.678681 -0.624962 1
0.009891 0.528253 -0.908281 1
0.341710 0.656158 -0.825488 1
0.033812 0.561274 -0.632270 1
0.151320 0.556749 -0.990906 1
0.246946 0.729455 -0.690642 1
-0.037226 0.543004 -0.814478 1
0.039477 0.558774 -0.969830 1
0.320314 0.709738 -0.773938 1
-0.019785 0.550940 -0.692840 1
0.226035 0.564625 -0.989384 1
0.201220 0.715023 -0.636294 1
-0.028591 0.535955 -0.884605 1
0.379803 0.607393 -0.854915 1
0.101085 0.558375 -1.003690 1
0.272031 0.756033 -0.726828 1
-0.049314 0.535312 -0.764013 1
0.136181 0.694264 -0.605928 1
-0.001172 0.549238 -0.953187 1
0.338980 0.709720 -0.818947 1
-0.008110 0.560744 -0.641230 1
0.186951 0.545615 -1.011768 1
0.232725 0.749777 -0.661762 1
-0.056728 0.534887 -0.846207 1
0.050290 0.558594 -1.003993 1
0.191244 0.538654 -0.766017 1
0.192539 0.542291 -0.740249 1
0.162562 0.537341 -0.795844 1
0.234972 0.548466 -0.762097 1
0.151852 0.537327 -0.736295 1
0.195176 0.538157 -0.824043 1
0.221632 0.563416 -0.717569 1
0.117870 0.543935 -0.793153 1
0.251379 0.549281 -0.800470 1
0.166008 0.548998 -0.696125 1
0.147256 0.544103 -0.848123 1
0.257665 0.579853 -0.739728 1
0.104332 0.539589 -0.747241 1
0.228658 0.542725 -0.847446 1
0.206273 0.574820 -0.680725 1
0.101571 0.537215 -0.831032 1
0.283475 0.570447 -0.785391 1
0.123358 0.546928 -0.691125 1
0.172721 0.540077 -0.878179 1
0.242291 0.618317 -0.714230 1
0.073818 0.534685 -0.780667 1
0.270956 0.553725 -0.844134 1
0.173248 0.567624 -0.653236 1
0.108420 0.537726 -0.873282 1
0.288239 0.609536 -0.759410 1
0.077731 0.546074 -0.714560 1
0.215606 0.542606 -0.892449 1
0.218056 0.627124 -0.677415 1
0.060304 0.533968 -0.828105 1
0.318668 0.557415 -0.812545 1
0.126372 0.556149 -0.648062 1
0.137992 0.538720 -0.907468 1
0.262138 0.659832 -0.733723 1
0.043746 0.539962 -0.755430 1
0.262973 0.558076 -0.889301 1
0.179827 0.619485 -0.646081 1
0.066269 0.539056 -0.879383 1
0.310412 0.624828 -0.792124 1
0.073272 0.550685 -0.672431 1
0.183517 0.545956 -0.928294 1
0.237738 0.670093 -0.689474 1
0.027818 0.531733 -0.807319 1
0.330163 0.547516 -0.851778 1
0.141568 0.579104 -0.616582 1
0.095156 0.541758 -0.922458 1
0.289323 0.677502 -0.758445 1
0.028829 0.545192 -0.718129 1
0.242680 0.552770 -0.927914 1
0.199124 0.663465 -0.648532 1
0.029543 0.534521 -0.866943 1
0.330808 0.619671 -0.827954 1
0.086390 0.555003 -0.625820 1
0.143378 0.545798 -0.951688 1
0.259015 0.706085 -0.714740 1
0.003025 0.535768 -0.775695 1
0.309550 0.557268 -0.902051 1
0.151683 0.636604 -0.616710 1
0.054489 0.536547 -0.920357 1
0.315585 0.681306 -0.790542 1
0.027400 0.553501 -0.674501 1
0.212354 0.541441 -0.958164 1
0.219209 0.709800 -0.668036 1
-0.004626 0.538510 -0.844005 1
0.385962 0.544591 -0.843067 1
0.109647 0.572117 -0.587669 1
0.099052 0.543452 -0.962268 1
0.292863 0.715709 -0.738824 1
-0.011075 0.542321 -0.734751 1
0.264612 0.581302 -0.953500 1
0.169254 0.691908 -0.628080 1
0.011421 0.542736 -0.908718 1
0.336349 0.674559 -0.829160 1
0.045513 0.550075 -0.618753 1
0.163729 0.546838 -0.983854 1
0.251459 0.735030 -0.688144 1
-0.029612 0.539742 -0.807975 1
0.393277 0.509453 -0.883327 1
0.119520 0.641566 -0.593307 1
0.048719 0.552345 -0.963585 1
0.323697 0.716820 -0.772255 1
-0.012072 0.548390 -0.685617 1
0.230122 0.570890 -0.986786 1
0.201154 0.727495 -0.639037 1
-0.020840 0.532195 -0.878481 1
0.357452 0.647639 -0.867264 1
0.112487 0.548792 -0.996950 1
0.280336 0.756692 -0.721042 1
-0.045186 0.543590 -0.762847 1
0.140198 0.700848 -0.604242 1
0.006484 0.546018 -0.947793 1
0.337522 0.722439 -0.820251 1
-0.001246 0.561077 -0.635346 1
0.191489 0.551109 -1.008903 1
0.234650 0.758741 -0.661904 1
-0.050143 0.534468 -0.841176 1
0.057829 0.556468 -0.999256 1
0.193796 0.548055 -0.764550 1
0.198504 0.545515 -0.735618 1
0.169398 0.538440 -0.790454 1
0.239463 0.554364 -0.758835 1
0.158427 0.539066 -0.730937 1
0.201538 0.540362 -0.819233 1
0.225501 0.570383 -0.714942 1
0.128907 0.535584 -0.783369 1
0.254216 0.557775 -0.798433 1
0.169438 0.556982 -0.694137 1
0.151779 0.549376 -0.844782 1
0.253963 0.598516 -0.743508 1
0.107684 0.547782 -0.745378 1
0.230689 0.552519 -0.845861 1
0.205061 0.590556 -0.683493 1
0.106490 0.541645 -0.827362 1
0.288180 0.575918 -0.781937 1
0.128408 0.551660 -0.687345 1
0.178959 0.542079 -0.873540 1
0.247629 0.622591 -0.710198 1
0.080232 0.535714 -0.775321 1
0.277086 0.556784 -0.839688 1
0.177927 0.573263 -0.649884 1
0.111923 0.545082 -0.870797 1
0.284862 0.626559 -0.762327 1
0.085380 0.544498 -0.707431 1
0.222226 0.544240 -0.887675 1
0.224721 0.629227 -0.671942 1
0.066974 0.534010 -0.822585 1
0.323020 0.563523 -0.809313 1
0.132980 0.557795 -0.642264 1
0.142333 0.544150 -0.904199 1
0.270764 0.659246 -0.726890 1
0.046784 0.549195 -0.754204 1
0.274130 0.552878 -0.881878 1
0.183235 0.626953 -0.644129 1
0.076897 0.529470 -0.870447 1
0.316279 0.628445 -0.787869 1
0.083039 0.544266 -0.662051 1
0.186831 0.553228 -0.925619 1
0.242847 0.674498 -0.685599 1
0.030405 0.542220 -0.806466 1
0.335453 0.552220 -0.847931 1
0.146469 0.584244 -0.612948 1
0.106749 0.530857 -0.913675 1
0.295383 0.680634 -0.753949 1
0.033065 0.551499 -0.715470 1
0.247327 0.557734 -0.924414 1
0.196244 0.680481 -0.653491 1
0.034924 0.537319 -0.862771 1
0.329478 0.632959 -0.828367 1
0.090409 0.562064 -0.623516 1
0.147446 0.551534 -0.948530 1
0.264219 0.710214 -0.710817 1
0.007920 0.540127 -0.772080 1
0.330375 0.538631 -0.889766 1
0.156348 0.641764 -0.613264 1
0.056789 0.546878 -0.918856 1
0.322199 0.683798 -0.785791 1
0.032416 0.557856 -0.670707 1
0.215006 0.549783 -0.955707 1
0.227733 0.709030 -0.660513 1
0.002350 0.536507 -0.837828 1
0.358507 0.593561 -0.857848 1
0.114546 0.577300 -0.584055 1
0.105678 0.543498 -0.957424 1
0.292537 0.726948 -0.739479 1
-0.006998 0.549117 -0.732420 1
0.279559 0.570085 -0.944872 1
0.175975 0.693386 -0.622032 1
0.016477 0.546023 -0.904867 1
0.348012 0.670781 -0.821401 1
0.047849 0.561454 -0.619355 1
0.170365 0.547519 -0.979239 1
0.258704 0.736380 -0.682209 1
-0.022964 0.538345 -0.801849 1
0.432631 0.467711 -0.862160 1
0.124165 0.646671 -0.589868 1
0.054253 0.554319 -0.959407 1
0.324805 0.726051 -0.771477 1
-0.006815 0.551863 -0.681405 1
0.235209 0.574701 -0.983074 1
0.205449 0.732763 -0.635900 1
-0.015045 0.533328 -0.873764 1
0.368732 0.644428 -0.860218 1
0.119216 0.548613 -0.992213 1
0.285228 0.761117 -0.717418 1
-0.035965 0.533656 -0.752139 1
0.146784 0.702269 -0.598064 1
0.011962 0.547904 -0.943571 1
0.346090 0.722620 -0.814428 1
0.194815 0.557969 -1.005969 1
0.240935 0.761261 -0.656710 1
-0.044756 0.536731 -0.836839 1
0.413829 0.564849 -0.884566 1
0.060882 0.564283 -0.996740 1
0.198183 0.552089 -0.761542 1
0.200786 0.553457 -0.734623 1
0.172080 0.545656 -0.789010 1
0.244098 0.558158 -0.755612 1
0.161179 0.546300 -0.729638 1
0.202711 0.550161 -0.818821 1
0.230043 0.574265 -0.711746 1
0.132758 0.540510 -0.780916 1
0.262160 0.556175 -0.792709 1
0.178739 0.551742 -0.685719 1
0.156183 0.552993 -0.841779 1
0.260554 0.599133 -0.738560 1
0.116323 0.542285 -0.737559 1
0.241763 0.545170 -0.838096 1
0.208942 0.595404 -0.680915 1
0.110898 0.545154 -0.824356 1
0.292498 0.580262 -0.778975 1
0.137292 0.546291 -0.678896 1
0.181750 0.548838 -0.871733 1
0.251681 0.627050 -0.707395 1
0.084365 0.539917 -0.772618 1
0.281276 0.561260 -0.836833 1
0.182209 0.577505 -0.646905 1
0.116348 0.548448 -0.867785 1
0.290636 0.628565 -0.758181 1
0.089805 0.548118 -0.704350 1
0.225650 0.549806 -0.885329 1
0.220568 0.646579 -0.677536 1
0.069871 0.541059 -0.821176 1
0.327482 0.567818 -0.806268 1
0.136465 0.563591 -0.640340 1
0.146801 0.547500 -0.901170 1
0.267709 0.673590 -0.730173 1
0.054097 0.545278 -0.747424 1
0.277308 0.558861 -0.879636 1
0.187312 0.631217 -0.641268 1
0.079166 0.537911 -0.869423 1
0.320407 0.632876 -0.785027 1
0.086374 0.550481 -0.660460 1
0.191175 0.556898 -0.922681 1
0.246685 0.679004 -0.682923 1
0.038894 0.534731 -0.798555 1
0.339949 0.556495 -0.844883 1
0.142603 0.603973 -0.620573 1
0.110390 0.535951 -0.911282 1
0.299204 0.685191 -0.751298 1
0.037408 0.554986 -0.712469 1
0.251603 0.561746 -0.921513 1
0.201555 0.682516 -0.649151 1
0.039109 0.541043 -0.860005 1
0.335506 0.634806 -0.824330 1
0.094688 0.566071 -0.620550 1
0.156002 0.546648 -0.942954 1
0.262033 0.722657 -0.713508 1
0.011585 0.545391 -0.770059 1
0.332051 0.546990 -0.888266 1
0.150645 0.663158 -0.622879 1
0.065649 0.539050 -0.912121 1
0.326048 0.688341 -0.783126 1
0.039819 0.553534 -0.662931 1
0.219518 0.553233 -0.952681 1
0.225522 0.721992 -0.664066 1
0.007060 0.538707 -0.834458 1
0.361208 0.600089 -0.855834 1
0.118679 0.581679 -0.581240 1
0.110072 0.546717 -0.954461 1
0.296068 0.731660 -0.737024 1
0.000052 0.544595 -0.725243 1
0.282304 0.576453 -0.942743 1
0.172875 0.708752 -0.627732 1
0.026175 0.534564 -0.896723 1
0.344416 0.684633 -0.823431 1
0.052619 0.564082 -0.615590 1
0.172325 0.555568 -0.977597 1
0.253708 0.752239 -0.687857 1
-0.019773 0.545066 -0.800533 1
0.437981 0.471672 -0.858651 1
0.122911 0.660653 -0.594468 1
0.057225 0.560657 -0.957498 1
0.328523 0.730596 -0.768884 1
-0.002457 0.555194 -0.678355 1
0.239709 0.578043 -0.980082 1
0.207924 0.738860 -0.634624 1
-0.011274 0.538177 -0.871512 1
0.359590 0.665284 -0.864797 1
0.121503 0.556208 -0.990464 1
0.285923 0.769138 -0.717358 1
-0.032296 0.539123 -0.750304 1
0.142812 0.719498 -0.605721 1
0.015147 0.553992 -0.941657 1
0.344396 0.733491 -0.815321 1
0.202722 0.555049 -1.001383 1
0.241707 0.769392 -0.657022 1
-0.040846 0.541203 -0.834517 1
0.421568 0.565210 -0.879947 1
0.070919 0.553639 -0.990159 1
0.210150 0.541226 -0.751242 1
0.210558 0.546700 -0.726063 1
0.181426 0.538791 -0.781125 1
0.249777 0.559043 -0.751180 1
0.170387 0.539641 -0.721152 1
0.212032 0.543959 -0.811544 1
0.234745 0.576749 -0.708050 1
0.135492 0.546324 -0.779104 1
0.268253 0.556436 -0.788124 1
0.184054 0.552930 -0.681227 1
0.165788 0.545086 -0.834087 1
0.264220 0.603224 -0.735844 1
0.122629 0.540612 -0.731871 1
0.247720 0.545327 -0.833709 1
0.215048 0.595402 -0.675654 1
0.118757 0.539743 -0.817609 1
0.291833 0.590886 -0.779514 1
0.142784 0.546774 -0.674023 1
0.191563 0.541069 -0.864458 1
0.248554 0.641348 -0.710925 1
0.091543 0.535611 -0.765923 1
0.292341 0.553860 -0.829129 1
0.183190 0.586590 -0.647303 1
0.123750 0.543988 -0.861845 1
0.293191 0.634138 -0.756348 1
0.096536 0.545173 -0.697756 1
0.232927 0.547372 -0.880206 1
0.224359 0.650278 -0.674649 1
0.077002 0.536372 -0.814771 1
0.323454 0.583094 -0.808721 1
0.141911 0.564228 -0.635372 1
0.155616 0.540690 -0.894647 1
0.265098 0.686164 -0.732844 1
0.060231 0.542939 -0.741550 1
0.281850 0.561401 -0.876359 1
0.184560 0.646011 -0.645918 1
0.086312 0.533228 -0.863453 1
0.312583 0.652383 -0.790498 1
0.090979 0.552438 -0.656483 1
0.203817 0.544094 -0.914290 1
0.241702 0.695283 -0.688554 1
0.044404 0.533572 -0.793611 1
0.351891 0.548971 -0.837173 1
0.150800 0.599394 -0.611918 1
0.114636 0.538096 -0.908036 1
0.292926 0.702056 -0.756412 1
0.045411 0.547679 -0.703584 1
0.260221 0.557375 -0.915961 1
0.199095 0.695750 -0.653147 1
0.045603 0.537112 -0.854294 1
0.327150 0.654566 -0.829311 1
0.103688 0.558520 -0.610156 1
0.160786 0.547822 -0.939449 1
0.262961 0.729926 -0.713207 1
0.017862 0.541738 -0.763759 1
0.350365 0.529842 -0.877527 1
0.155250 0.665208 -0.618836 1
0.070485 0.539480 -0.908327 1
0.320561 0.703645 -0.786929 1
0.044571 0.554705 -0.658572 1
0.230610 0.543888 -0.945883 1
0.227110 0.728554 -0.663407 1
0.011760 0.539165 -0.830446 1
0.375011 0.590810 -0.847381 1
0.119195 0.592333 -0.583125 1
0.117648 0.541455 -0.949039 1
0.298433 0.736952 -0.735374 1
0.003568 0.548704 -0.722769 1
0.291611 0.571502 -0.937170 1
0.174878 0.714939 -0.626867 1
0.028124 0.542391 -0.895583 1
0.343504 0.694029 -0.823676 1
0.061104 0.556432 -0.605156 1
0.184233 0.543291 -0.970332 1
0.256084 0.757477 -0.686294 1
-0.013434 0.540347 -0.794032 1
0.396619 0.537440 -0.878835 1
0.122587 0.671744 -0.597239 1
0.066609 0.549772 -0.950405 1
0.331183 0.735509 -0.766957 1
0.003790 0.551606 -0.671313 1
0.243474 0.581227 -0.977282 1
0.207706 0.747985 -0.636122 1
-0.005462 0.535000 -0.866240 1
0.364337 0.667734 -0.861565 1
0.130533 0.548041 -0.984573 1
0.287435 0.775302 -0.716467 1
-0.029135 0.544292 -0.748418 1
0.145764 0.724107 -0.603718 1
0.022192 0.547705 -0.935861 1
0.343804 0.742051 -0.815437 1
0.017662 0.556596 -0.615265 1
0.207089 0.557079 -0.998261 1
0.241858 0.777497 -0.657778 1
-0.035537 0.539094 -0.829467 1
0.400292 0.600982 -0.889550 1
0.076588 0.551812 -0.986037 1
0.211085 0.550561 -0.750966 1
0.212289 0.554635 -0.725156 1
0.184610 0.544017 -0.778788 1
0.252104 0.565702 -0.749542 1
0.175529 0.541268 -0.716881 1
0.217019 0.545893 -0.807691 1
0.234590 0.587486 -0.708901 1
0.145401 0.537686 -0.770131 1
0.270442 0.563218 -0.786463 1
0.186455 0.559794 -0.679871 1
0.170557 0.547029 -0.830374 1
0.262994 0.614990 -0.737248 1
0.124435 0.548847 -0.731231 1
0.248197 0.554932 -0.833178 1
0.220650 0.596540 -0.670873 1
0.123517 0.541443 -0.813795 1
0.295013 0.595948 -0.777093 1
0.145939 0.552285 -0.671925 1
0.196597 0.542621 -0.860637 1
0.251252 0.646934 -0.709018 1
0.092434 0.546092 -0.766310 1
0.297621 0.555787 -0.825236 1
0.187228 0.590331 -0.644118 1
0.128280 0.546049 -0.858310 1
0.287558 0.651414 -0.760868 1
0.102909 0.543442 -0.691631 1
0.237787 0.549448 -0.876599 1
0.229969 0.651373 -0.669845 1
0.082471 0.536101 -0.810122 1
0.326617 0.588214 -0.806269 1
0.145383 0.569079 -0.632906 1
0.160380 0.542410 -0.891023 1
0.273774 0.683145 -0.725737 1
0.061670 0.552466 -0.741671 1
0.293316 0.553520 -0.868794 1
0.187374 0.651491 -0.644069 1
0.092790 0.530603 -0.858093 1
0.317871 0.654305 -0.786578 1
0.098952 0.547144 -0.647876 1
0.208896 0.545495 -0.910564 1
0.244071 0.701049 -0.686975 1
0.045553 0.544006 -0.793878 1
0.358339 0.549641 -0.832680 1
0.154575 0.603511 -0.609010 1
0.121834 0.534234 -0.902522 1
0.295192 0.707780 -0.754731 1
0.049889 0.549783 -0.699753 1
0.264748 0.560011 -0.912640 1
0.201207 0.701974 -0.651991 1
0.050005 0.539019 -0.850761 1
0.334396 0.653916 -0.824275 1
0.106539 0.564767 -0.608655 1
0.163645 0.553107 -0.937109 1
0.267708 0.732291 -0.709415 1
0.022440 0.543219 -0.759824 1
0.359811 0.526087 -0.871521 1
0.159952 0.667326 -0.614636 1
0.075618 0.539624 -0.904274 1
0.326471 0.704775 -0.782592 1
0.047660 0.560371 -0.656791 1
0.236130 0.544634 -0.942022 1
0.231230 0.731699 -0.660051 1
0.017366 0.537547 -0.825387 1
0.348581 0.634557 -0.861750 1
0.122926 0.596555 -0.580288 1
0.122470 0.542599 -0.945417 1
0.298300 0.745503 -0.735668 1
0.006582 0.554528 -0.721094 1
0.302816 0.564115 -0.930545 1
0.180708 0.715252 -0.621306 1
0.032483 0.544120 -0.892112 1
0.350151 0.694346 -0.819068 1
0.065032 0.560214 -0.602093 1
0.189902 0.543274 -0.966378 1
0.262361 0.757846 -0.680952 1
-0.008041 0.539026 -0.788928 1
0.401549 0.540412 -0.875351 1
0.126774 0.674586 -0.593585 1
0.071235 0.550898 -0.946847 1
0.329874 0.745281 -0.767819 1
0.007750 0.554907 -0.668181 1
0.251436 0.577936 -0.972405 1
0.211103 0.752058 -0.633481 1
-0.000700 0.535462 -0.862226 1
0.369259 0.670223 -0.858137 1
0.135543 0.548755 -0.980936 1
0.291274 0.778824 -0.713503 1
-0.022106 0.537719 -0.740365 1
0.151388 0.724487 -0.598114 1
0.026573 0.549160 -0.932409 1
0.349731 0.743257 -0.811279 1
0.210213 0.561649 -0.995654 1
0.247032 0.779237 -0.653324 1
-0.031214 0.540693 -0.825854 1
0.388847 0.624198 -0.894241 1
0.077882 0.560628 -0.984705 1
0.214744 0.554178 -0.748181 1
0.216504 0.557345 -0.721849 1
0.188849 0.546410 -0.775461 1
0.255620 0.569613 -0.746901 1
0.177603 0.547957 -0.715740 1
0.220527 0.549634 -0.805018 1
0.238301 0.591052 -0.706082 1
0.148522 0.542199 -0.767849 1
0.274025 0.566968 -0.783761 1
0.191205 0.561521 -0.675907 1
0.172467 0.553619 -0.829002 1
0.265123 0.620839 -0.735803 1
0.132972 0.542045 -0.722950 1
0.260533 0.544069 -0.824193 1
0.213481 0.618149 -0.679314 1
0.125948 0.547222 -0.812116 1
0.299452 0.598408 -0.773775 1
0.153136 0.548887 -0.664921 1
0.198507 0.549074 -0.859105 1
0.256433 0.648129 -0.704851 1
0.100164 0.540128 -0.758901 1
0.300387 0.560775 -0.823084 1
0.190818 0.594138 -0.641405 1
0.131155 0.550702 -0.856124 1
0.293192 0.652075 -0.756594 1
0.106627 0.546834 -0.688748 1
0.240941 0.553600 -0.874138 1
0.224425 0.668974 -0.676447 1
0.084732 0.542459 -0.808727 1
0.330759 0.591183 -0.803227 1
0.148669 0.573511 -0.630587 1
0.162201 0.549048 -0.889520 1
0.276977 0.687132 -0.723386 1
0.069885 0.544644 -0.733042 1
0.295452 0.559343 -0.866961 1
0.190667 0.655497 -0.641647 1
0.094072 0.539046 -0.857396 1
0.321215 0.658162 -0.784112 1
0.101363 0.553550 -0.646793 1
0.209001 0.554947 -0.909980 1
0.249392 0.702001 -0.682573 1
0.053132 0.537065 -0.786355 1
0.357839 0.559280 -0.832462 1
0.145140 0.631486 -0.623159 1
0.126497 0.535004 -0.898899 1
0.301434 0.707725 -0.750001 1
0.051953 0.557038 -0.699157 1
0.267175 0.565202 -0.910567 1
0.206031 0.703429 -0.647839 1
0.053318 0.542717 -0.848230 1
0.338909 0.656196 -0.821064 1
0.110181 0.568486 -0.605881 1
0.171411 0.548024 -0.931692 1
0.270763 0.736312 -0.707197 1
0.025414 0.548095 -0.757876 1
0.361003 0.533416 -0.870118 1
0.154904 0.685572 -0.622811 1
0.077287 0.547045 -0.903062 1
0.329666 0.708673 -0.780261 1
0.054364 0.556190 -0.649298 1
0.235412 0.555186 -0.941600 1
0.230936 0.740433 -0.661312 1
0.021472 0.539143 -0.821959 1
0.352385 0.637752 -0.859006 1
0.126404 0.600559 -0.577717 1
0.126766 0.543973 -0.942133 1
0.301109 0.749786 -0.733654 1
0.015113 0.544018 -0.710792 1
0.304678 0.570079 -0.928707 1
0.180288 0.724791 -0.623320 1
0.040557 0.535142 -0.884937 1
0.344117 0.709390 -0.822553 1
0.068704 0.563787 -0.599264 1
0.190270 0.552244 -0.965347 1
0.259244 0.769729 -0.684593 1
-0.005749 0.545916 -0.787929 1
0.403058 0.547132 -0.873728 1
0.130118 0.678369 -0.591072 1
0.072505 0.559016 -0.945745 1
0.333598 0.748479 -0.765125 1
0.011443 0.558038 -0.665263 1
0.254831 0.581263 -0.969778 1
0.214181 0.756037 -0.631239 1
0.002267 0.540109 -0.860104 1
0.372472 0.674122 -0.855772 1
0.137477 0.554900 -0.979082 1
0.291851 0.785678 -0.713412 1
-0.019186 0.543005 -0.738668 1
0.146610 0.741335 -0.606320 1
0.028588 0.555891 -0.930934 1
0.352554 0.747436 -0.809218 1
0.215041 0.562359 -0.992311 1
0.247720 0.786209 -0.653516 1
-0.028262 0.545555 -0.823897 1
0.399139 0.619439 -0.888320 1
0.095587 0.674303 -0.573800 1
0.087972 0.548148 -0.977684 1
0.226261 0.546777 -0.738174 1
0.222988 0.558845 -0.716339 1
0.199168 0.540367 -0.766569 1
0.261736 0.571943 -0.741915 1
0.183419 0.550367 -0.710756 1
0.231446 0.543160 -0.796241 1
0.240350 0.599879 -0.704784 1
0.152512 0.547826 -0.764711 1
0.281269 0.567553 -0.778048 1
0.197731 0.562858 -0.670100 1
0.184455 0.543819 -0.819143 1
0.268209 0.627647 -0.733413 1
0.140091 0.541363 -0.716400 1
0.263738 0.550975 -0.821482 1
0.217863 0.623041 -0.675795 1
0.135519 0.540916 -0.803657 1
0.293219 0.618785 -0.778247 1
0.159558 0.550094 -0.659035 1
0.209723 0.541298 -0.850519 1
0.252518 0.665128 -0.708968 1
0.107817 0.537592 -0.751730 1
0.310448 0.557255 -0.815723 1
0.186333 0.614766 -0.648091 1
0.139642 0.546589 -0.849087 1
0.287824 0.670270 -0.760775 1
0.114705 0.543778 -0.680633 1
0.250437 0.549703 -0.867219 1
0.229655 0.672335 -0.672043 1
0.093147 0.537646 -0.800974 1
0.321765 0.614860 -0.808728 1
0.155358 0.574190 -0.624188 1
0.172868 0.541197 -0.881367 1
0.267335 0.710820 -0.731943 1
0.076807 0.543327 -0.726348 1
0.301448 0.561733 -0.862424 1
0.193407 0.662890 -0.639971 1
0.099750 0.540436 -0.852637 1
0.315101 0.676671 -0.788125 1
0.107842 0.554055 -0.640484 1
0.222737 0.542814 -0.900518 1
0.245325 0.718383 -0.687215 1
0.060143 0.535027 -0.779732 1
0.346615 0.586102 -0.838381 1
0.151416 0.632737 -0.617148 1
0.129624 0.541945 -0.896249 1
0.297729 0.722589 -0.752905 1
0.061946 0.547957 -0.687799 1
0.279604 0.557005 -0.902437 1
0.203810 0.717847 -0.651548 1
0.061617 0.537196 -0.840641 1
0.334398 0.672269 -0.823313 1
0.117237 0.567993 -0.598611 1
0.177721 0.548544 -0.926865 1
0.267489 0.750646 -0.710542 1
0.033056 0.543894 -0.749986 1
0.379048 0.519322 -0.859035 1
0.159948 0.688869 -0.618332 1
0.087279 0.537964 -0.894750 1
0.327572 0.721143 -0.781438 1
0.060580 0.556627 -0.643070 1
0.244630 0.551382 -0.935372 1
0.231535 0.750017 -0.661648 1
0.027616 0.538636 -0.816330 1
0.357045 0.642071 -0.855412 1
0.116716 0.633404 -0.594468 1
0.134382 0.541227 -0.936346 1
0.301851 0.758626 -0.733165 1
0.018374 0.551756 -0.709043 1
0.317865 0.561597 -0.920693 1
0.180778 0.735107 -0.624354 1
0.043988 0.541681 -0.882265 1
0.340794 0.723058 -0.824049 1
0.078303 0.556691 -0.587558 1
0.202070 0.542754 -0.957678 1
0.261982 0.776123 -0.682619 1
0.002821 0.538018 -0.778633 1
0.384233 0.582988 -0.882103 1
0.127023 0.696269 -0.597878 1
0.085624 0.542342 -0.935598 1
0.336101 0.755129 -0.763106 1
0.017982 0.556852 -0.658247 1
0.261014 0.582534 -0.965361 1
0.213808 0.766979 -0.632923 1
0.008913 0.537683 -0.853952 1
0.368192 0.689103 -0.857248 1
0.147024 0.548256 -0.972473 1
0.294155 0.792440 -0.711727 1
-0.014766 0.547364 -0.735155 1
0.149018 0.748630 -0.605179 1
0.038121 0.546062 -0.922812 1
0.350124 0.759517 -0.810266 1
0.220804 0.563970 -0.988058 1
0.247882 0.795839 -0.654229 1
-0.021180 0.541203 -0.816676 1
0.402066 0.626075 -0.885604 1
0.095861 0.543886 -0.971776 1
0.227870 0.554658 -0.737004 1
0.226858 0.562785 -0.713100 1
0.205094 0.540450 -0.761502 1
0.260023 0.584764 -0.743430 1
0.191830 0.545755 -0.702821 1
0.234917 0.547717 -0.793353 1
0.239839 0.610698 -0.705656 1
0.162681 0.538949 -0.755258 1
0.284926 0.571848 -0.774997 1
0.201179 0.567543 -0.667291 1
0.189356 0.545527 -0.815091 1
0.276276 0.625168 -0.726579 1
0.142169 0.548768 -0.715172 1
0.265290 0.558606 -0.819940 1
0.224058 0.622947 -0.670083 1
0.140379 0.542385 -0.799525 1
0.295387 0.625002 -0.776319 1
0.162210 0.556356 -0.657219 1
0.214727 0.542938 -0.846495 1
0.254882 0.670885 -0.707064 1
0.108879 0.547338 -0.751657 1
0.316282 0.558361 -0.811194 1
0.188862 0.620733 -0.646288 1
0.144085 0.548805 -0.845417 1
0.290715 0.675184 -0.758324 1
0.115768 0.553535 -0.680910 1
0.254393 0.553291 -0.863972 1
0.234608 0.674222 -0.667594 1
0.098208 0.538324 -0.796539 1
0.323748 0.621297 -0.806814 1
0.151115 0.593569 -0.631139 1
0.177716 0.542785 -0.877474 1
0.275650 0.708228 -0.724859 1
0.078283 0.552413 -0.726135 1
0.318719 0.545415 -0.851039 1
0.190978 0.676558 -0.643793 1
0.108215 0.533432 -0.845272 1
0.317678 0.681961 -0.785864 1
0.108820 0.564015 -0.641139 1
0.227842 0.544245 -0.896558 1
0.247615 0.723944 -0.685396 1
0.061239 0.545212 -0.779807 1
0.347943 0.593573 -0.836739 1
0.155893 0.635087 -0.612943 1
0.131760 0.548845 -0.894395 1
0.300145 0.727883 -0.750825 1
0.066414 0.549957 -0.683709 1
0.284402 0.559264 -0.898730 1
0.206248 0.723229 -0.649689 1
0.065684 0.539902 -0.837260 1
0.337952 0.676291 -0.820370 1
0.121058 0.571833 -0.595347 1
0.181057 0.552884 -0.924035 1
0.271387 0.753929 -0.707210 1
0.034487 0.553516 -0.750037 1
0.374894 0.534938 -0.860225 1
0.163790 0.692130 -0.614862 1
0.092325 0.538401 -0.890594 1
0.330691 0.725580 -0.778800 1
0.063653 0.562024 -0.640976 1
0.249529 0.553200 -0.931637 1
0.235166 0.753597 -0.658473 1
0.030185 0.545218 -0.814682 1
0.366147 0.639160 -0.849278 1
0.118283 0.641234 -0.594292 1
0.135771 0.549573 -0.934844 1
0.305233 0.762625 -0.730316 1
0.021091 0.558063 -0.707520 1
0.337298 0.542515 -0.909602 1
0.186197 0.735866 -0.618951 1
0.048296 0.543552 -0.878673 1
0.350601 0.719496 -0.817180 1
0.082084 0.560573 -0.584370 1
0.207631 0.543066 -0.953581 1
0.267030 0.777931 -0.678135 1
0.006179 0.542585 -0.776138 1
0.385016 0.591050 -0.880524 1
0.130316 0.700339 -0.595085 1
0.090418 0.543227 -0.931747 1
0.333579 0.765972 -0.764569 1
0.022790 0.557576 -0.653392 1
0.271150 0.576033 -0.959201 1
0.216852 0.771289 -0.630335 1
0.013792 0.537799 -0.849630 1
0.373345 0.691206 -0.853433 1
0.151817 0.549515 -0.968782 1
0.297229 0.796701 -0.709117 1
-0.008294 0.542613 -0.727800 1
0.154247 0.749394 -0.599737 1
0.043803 0.544224 -0.918070 1
0.355669 0.761095 -0.806080 1
0.225276 0.566185 -0.984625 1
0.252439 0.798205 -0.650081 1
-0.016251 0.540846 -0.812046 1
0.412981 0.621417 -0.878968 1
0.100522 0.688115 -0.571569 1
0.096626 0.553829 -0.970637 1
0.231740 0.558726 -0.733780 1
0.230143 0.567884 -0.710435 1
0.207456 0.547166 -0.759625 1
0.262865 0.590385 -0.741097 1
0.194749 0.551627 -0.700575 1
0.239258 0.550846 -0.789744 1
0.243108 0.615581 -0.703004 1
0.166379 0.543161 -0.752179 1
0.288724 0.576008 -0.771853 1
0.198194 0.583849 -0.671471 1
0.191371 0.552680 -0.813377 1
0.267974 0.646964 -0.733793 1
0.146067 0.552596 -0.711890 1
0.278088 0.548185 -0.810320 1
0.218344 0.642269 -0.676738 1
0.143159 0.548237 -0.797288 1
0.301071 0.626261 -0.771791 1
0.167489 0.557746 -0.652317 1
0.217227 0.549075 -0.844254 1
0.260101 0.672658 -0.702617 1
0.117382 0.540886 -0.743223 1
0.318991 0.564177 -0.808780 1
0.194010 0.622422 -0.641554 1
0.147241 0.553672 -0.842749 1
0.296080 0.676842 -0.754000 1
0.124441 0.547173 -0.671643 1
0.258212 0.557101 -0.860780 1
0.227573 0.694208 -0.675447 1
0.101018 0.544225 -0.794363 1
0.328944 0.623345 -0.802778 1
0.155996 0.595582 -0.626587 1
0.179635 0.549964 -0.875631 1
0.278958 0.712590 -0.722168 1
0.087109 0.544483 -0.716632 1
0.321230 0.551476 -0.848662 1
0.194250 0.681150 -0.641169 1
0.109985 0.541489 -0.843899 1
0.323271 0.683419 -0.781528 1
0.117042 0.558620 -0.631966 1
0.228514 0.553355 -0.895330 1
0.252574 0.726012 -0.681111 1
0.069534 0.537807 -0.771311 1
0.352250 0.596947 -0.833324 1
0.148542 0.659071 -0.624062 1
0.142436 0.537941 -0.885931 1
0.305887 0.729103 -0.746232 1
0.068721 0.557433 -0.682618 1
0.286842 0.565167 -0.896338 1
0.210818 0.725686 -0.645601 1
0.069495 0.543284 -0.834021 1
0.342145 0.679555 -0.817084 1
0.124515 0.576772 -0.592674 1
0.184897 0.556192 -0.920798 1
0.274552 0.758328 -0.704654 1
0.042991 0.544850 -0.740534 1
0.378335 0.539774 -0.857257 1
0.167208 0.696415 -0.612057 1
0.094622 0.545144 -0.888617 1
0.336074 0.727382 -0.774656 1
0.071707 0.555829 -0.631384 1
0.250358 0.561706 -0.930077 1
0.238352 0.758017 -0.655899 1
0.037482 0.539313 -0.807325 1
0.357017 0.659392 -0.853657 1
0.124027 0.641263 -0.588234 1
0.143860 0.543975 -0.928734 1
0.307792 0.767745 -0.728259 1
0.031064 0.545160 -0.695041 1
0.339741 0.548503 -0.907119 1
0.189470 0.740216 -0.616287 1
0.051573 0.548047 -0.875932 1
0.346418 0.732559 -0.819247 1
0.085960 0.564625 -0.581107 1
0.208790 0.551245 -0.951818 1
0.265307 0.788381 -0.680212 1
0.009146 0.548377 -0.774065 1
0.396045 0.585743 -0.873696 1
0.133722 0.704552 -0.592278 1
0.091926 0.551576 -0.930217 1
0.337241 0.769773 -0.761666 1
0.026809 0.560806 -0.649853 1
0.274526 0.580146 -0.956255 1
0.220001 0.775714 -0.627794 1
0.016791 0.543254 -0.847301 1
0.376669 0.695506 -0.850720 1
0.154617 0.554650 -0.966136 1
0.298964 0.802666 -0.707799 1
-0.004909 0.547416 -0.725263 1
0.149775 0.765855 -0.607256 1
0.045909 0.551555 -0.916293 1
0.358682 0.765583 -0.803635 1
0.229529 0.568664 -0.981227 1
0.252138 0.806842 -0.651047 1
-0.013341 0.546790 -0.810020 1
0.392347 0.654975 -0.888135 1
0.097771 0.704118 -0.578264 1
0.106079 0.544157 -0.963720 1
0.236583 0.560762 -0.729348 1
0.233376 0.572681 -0.707489 1
0.216053 0.542241 -0.751797 1
0.267954 0.592126 -0.736552 1
0.198620 0.555325 -0.696992 1
0.251065 0.540982 -0.779849 1
0.242904 0.625563 -0.703315 1
0.168866 0.549297 -0.749954 1
0.286908 0.588337 -0.772726 1
0.205499 0.581472 -0.664172 1
0.201834 0.543828 -0.804353 1
0.271329 0.651179 -0.730756 1
0.155492 0.544901 -0.702095 1
0.279391 0.555903 -0.808656 1
0.222379 0.645471 -0.672995 1
0.151189 0.542947 -0.789762 1
0.295197 0.643567 -0.775684 1
0.173501 0.557385 -0.646172 1
0.226064 0.543609 -0.837064 1
0.262350 0.678428 -0.700607 1
0.121956 0.542659 -0.738807 1
0.327016 0.561813 -0.802501 1
0.188331 0.642216 -0.648857 1
0.156148 0.546560 -0.834920 1
0.291041 0.692233 -0.757587 1
0.130217 0.546700 -0.665623 1
0.260076 0.563704 -0.858604 1
0.232533 0.695920 -0.670776 1
0.108322 0.539576 -0.787159 1
0.331529 0.628654 -0.800244 1
0.162161 0.594843 -0.620038 1
0.189371 0.541911 -0.867807 1
0.270897 0.731726 -0.728971 1
0.092030 0.545306 -0.711651 1
0.324006 0.556745 -0.845862 1
0.196418 0.687180 -0.639474 1
0.113444 0.545268 -0.840659 1
0.317700 0.698919 -0.784898 1
0.121549 0.560868 -0.627440 1
