ply
format ascii 1.0
element vertex 1595
property float x
property float y
property float z
property uchar label
end_header
1.524429 0.664617 -0.568801 1
1.369895 0.732327 -0.585984 1
1.517205 0.657669 -0.536039 1
1.498949 0.718670 -0.558204 1
1.493254 0.722542 -0.561358 1
1.509103 0.711620 -0.562365 1
1.492967 0.726271 -0.546522 1
1.498688 0.717752 -0.573771 1
1.502424 0.708917 -0.544064 1
1.484198 0.732573 -0.556179 1
1.511027 0.706799 -0.573740 1
1.484862 0.725143 -0.573710 1
1.512710 0.700825 -0.554101 1
1.465068 0.732555 -0.531779 1
1.474556 0.736348 -0.564024 1
1.521899 0.699583 -0.573533 1
1.509394 0.696473 -0.538003 1
1.464545 0.742756 -0.542555 1
1.467482 0.732718 -0.574637 1
1.516178 0.688894 -0.557853 1
1.459584 0.746123 -0.555804 1
1.512883 0.684708 -0.539414 1
1.460719 0.743971 -0.573160 1
1.523371 0.683699 -0.569691 1
1.455362 0.756080 -0.546410 1
1.444236 0.730570 -0.581288 1
1.518054 0.676119 -0.548006 1
1.451113 0.754388 -0.564744 1
1.441870 0.744112 -0.579794 1
1.524838 0.671793 -0.562014 1
1.518440 0.666834 -0.535097 1
1.419986 0.753982 -0.565340 1
1.516080 0.662985 -0.570514 1
1.419812 0.739291 -0.585662 1
1.521977 0.659977 -0.548886 1
1.399514 0.751843 -0.572258 1
1.527559 0.658346 -0.567010 1
1.172515 0.441760 -0.300421 1
1.506297 0.714852 -0.560410 1
1.500877 0.718705 -0.563610 1
1.511202 0.706035 -0.561719 1
1.493731 0.720121 -0.545071 1
1.501282 0.712355 -0.573403 1
1.507336 0.704244 -0.545050 1
1.488246 0.727420 -0.556541 1
1.511878 0.700759 -0.572489 1
1.488257 0.719901 -0.573706 1
1.514768 0.695134 -0.553402 1
1.465993 0.726219 -0.530397 1
1.479539 0.731384 -0.564780 1
1.520660 0.692595 -0.571132 1
1.511412 0.690617 -0.537222 1
1.465361 0.736525 -0.541172 1
1.471688 0.727540 -0.574952 1
1.519835 0.683921 -0.558092 1
1.468741 0.741862 -0.558586 1
1.515975 0.679314 -0.539314 1
1.464129 0.738500 -0.573097 1
1.526152 0.678411 -0.569444 1
1.521115 0.670762 -0.547892 1
1.449324 0.747733 -0.562317 1
1.444915 0.738416 -0.579538 1
1.527439 0.666300 -0.561649 1
1.434609 0.750154 -0.569842 1
1.516122 0.655960 -0.568814 1
1.523576 0.653706 -0.547859 1
1.168387 0.450290 -0.266803 1
1.412305 0.747487 -0.575598 1
1.526891 0.650816 -0.564798 1
1.199924 0.445583 -0.316114 1
1.518249 0.639934 -0.568160 1
1.514313 0.643884 -0.571941 1
1.511739 0.625348 -0.563049 1
1.517513 0.648507 -0.560241 1
1.501045 0.630818 -0.574420 1
1.515345 0.656622 -0.572301 1
1.500560 0.613376 -0.567580 1
1.510041 0.639657 -0.542714 1
1.516954 0.661381 -0.561236 1
1.491151 0.615776 -0.577527 1
1.510804 0.651977 -0.540908 1
1.515426 0.670286 -0.569828 1
1.484627 0.597409 -0.573055 1
1.513811 0.666408 -0.548789 1
1.515521 0.677772 -0.561772 1
1.461275 0.585528 -0.576971 1
1.467177 0.569302 -0.569318 1
1.513656 0.680220 -0.549075 1
1.515008 0.689597 -0.567275 1
1.450478 0.563773 -0.577829 1
1.513596 0.691892 -0.553703 1
1.508006 0.696528 -0.571970 1
1.440128 0.539967 -0.573968 1
1.512982 0.701489 -0.560835 1
1.429875 0.545725 -0.587851 1
1.512875 0.636446 -0.565208 1
1.514387 0.643253 -0.571941 1
1.511496 0.624564 -0.562866 1
1.518210 0.648185 -0.560640 1
1.500628 0.629912 -0.574130 1
1.514249 0.655428 -0.571707 1
1.499902 0.612328 -0.567148 1
1.488997 0.628182 -0.529672 1
1.517985 0.661148 -0.561834 1
1.490600 0.614775 -0.577145 1
1.511553 0.651639 -0.541409 1
1.517105 0.670259 -0.570723 1
1.483478 0.596021 -0.572366 1
1.515098 0.666242 -0.549610 1
1.516351 0.677360 -0.562269 1
1.463210 0.585955 -0.577579 1
1.512848 0.665535 -0.535174 1
1.473668 0.572911 -0.572059 1
1.515044 0.679998 -0.549973 1
1.515923 0.689148 -0.567801 1
1.451196 0.563489 -0.577872 1
1.513549 0.691112 -0.553739 1
1.508176 0.695788 -0.572071 1
1.441574 0.540211 -0.574270 1
1.508893 0.688658 -0.535549 1
1.514158 0.701044 -0.561552 1
1.430848 0.545575 -0.587888 1
1.383231 0.139602 -0.806292 1
1.383327 0.150636 -0.813853 1
1.382094 0.114963 -0.805166 1
1.360147 0.135701 -0.794170 1
1.387165 0.139382 -0.827126 1
1.363068 0.095039 -0.784484 1
1.382638 0.175066 -0.812294 1
1.394328 0.114432 -0.820035 1
1.314058 0.078158 -0.772049 1
1.387719 0.163382 -0.834322 1
1.390064 0.098747 -0.792032 1
1.371898 0.175046 -0.795487 1
1.395965 0.127597 -0.838479 1
1.321582 0.053172 -0.760803 1
1.384307 0.187160 -0.827005 1
1.401544 0.096973 -0.812703 1
1.280041 0.071658 -0.764515 1
1.389750 0.151386 -0.848795 1
1.393726 0.100286 -0.773815 1
1.374543 0.194664 -0.807461 1
1.400927 0.104661 -0.838258 1
1.283361 0.036489 -0.743527 1
1.388053 0.186251 -0.843684 1
1.402625 0.082115 -0.795658 1
1.217931 0.042416 -0.768133 1
1.386236 0.120343 -0.858090 1
1.362264 0.075452 -0.751652 1
1.385870 0.211754 -0.824572 1
1.407489 0.084682 -0.827367 1
1.292461 0.082230 -0.744106 1
1.266835 0.039559 -0.876211 1
1.413728 0.096246 -0.774978 1
1.372567 0.208614 -0.795994 1
1.396967 0.098869 -0.857030 1
1.286605 0.017024 -0.725270 1
1.382622 0.203531 -0.844241 1
1.389256 0.037543 -0.807181 1
1.242242 0.069605 -0.747978 1
1.339936 0.083388 -0.879218 1
1.410352 0.107040 -0.754074 1
1.381948 0.225872 -0.815873 1
1.417091 0.090712 -0.844744 1
1.292103 0.066493 -0.723966 1
1.228480 0.032197 -0.886152 1
1.391569 0.034904 -0.779861 1
1.172475 0.039121 -0.763942 1
1.380897 0.090175 -0.876211 1
1.313448 0.016289 -0.718111 1
1.382142 0.223789 -0.838030 1
1.431637 0.083849 -0.824028 1
1.276091 0.093803 -0.730647 1
1.248868 0.010795 -0.905078 1
1.426168 0.097959 -0.758170 1
1.374854 0.232112 -0.802620 1
1.405032 0.078261 -0.865276 1
1.266325 0.011061 -0.700213 1
1.195448 0.035683 -0.886507 1
1.392612 0.009793 -0.794982 1
1.144936 0.014999 -0.733639 1
1.370440 0.099196 -0.891207 1
1.411461 0.106868 -0.735250 1
1.381774 0.240599 -0.827064 1
1.434588 0.083138 -0.843368 1
1.266664 0.065676 -0.707075 1
1.208370 0.006337 -0.915035 1
1.404059 0.033507 -0.762935 1
1.103796 0.013990 -0.767108 1
1.371940 0.049064 -0.889747 1
1.303197 0.016867 -0.695600 1
1.152318 0.031968 -0.879080 1
1.429028 0.049240 -0.815858 1
1.227073 0.077443 -0.718968 1
1.263691 0.007564 -0.924178 1
1.432546 0.102211 -0.741321 1
1.373716 0.246646 -0.812505 1
1.436447 0.091579 -0.863285 1
1.238852 0.006189 -0.679366 1
1.173834 0.013841 -0.915222 1
1.406322 0.007172 -0.779190 1
1.102225 0.012903 -0.734771 1
1.375075 0.079420 -0.903526 1
1.377577 0.069887 -0.709020 1
1.375603 0.244503 -0.840621 1
1.459587 0.091991 -0.836018 1
1.261054 0.088642 -0.701144 1
1.217257 -0.000251 -0.937176 1
1.425903 0.057432 -0.747471 1
1.052659 0.002584 -0.779834 1
1.381353 0.028024 -0.894598 1
1.274639 0.004934 -0.672156 1
1.130492 0.015670 -0.907699 1
1.415452 -0.000176 -0.802113 1
1.117691 0.014301 -0.703213 1
1.374150 0.110608 -0.912381 1
1.432583 0.105950 -0.724325 1
1.374521 0.258125 -0.824693 1
1.450577 0.082001 -0.859192 1
1.214265 0.011435 -0.664919 1
1.177657 0.006374 -0.939907 1
1.417528 0.009917 -0.761138 1
1.387858 0.137942 -0.828027 1
1.388284 0.149397 -0.835328 1
1.395169 0.123374 -0.827198 1
1.386659 0.157677 -0.816565 1
1.390965 0.136677 -0.848864 1
1.384655 0.113466 -0.808092 1
1.385844 0.172154 -0.833345 1
1.399285 0.112961 -0.842035 1
1.368247 0.130477 -0.799156 1
1.388122 0.157207 -0.855935 1
1.396649 0.099433 -0.814505 1
1.384770 0.181908 -0.816758 1
1.386787 0.108744 -0.862020 1
1.367032 0.099093 -0.788989 1
1.388418 0.185269 -0.847735 1
1.405915 0.094671 -0.834941 1
1.366578 0.153862 -0.795037 1
1.306134 0.049347 -0.884032 1
1.399197 0.099748 -0.796264 1
1.383319 0.197289 -0.828089 1
1.399815 0.094977 -0.861161 1
1.335214 0.086617 -0.774881 1
1.244742 0.032759 -0.884859 1
1.409821 0.083764 -0.818161 1
1.376698 0.188534 -0.802172 1
1.375611 0.099634 -0.883147 1
1.391483 0.104426 -0.778171 1
1.387563 0.207786 -0.844919 1
1.418694 0.091724 -0.849085 1
1.289939 0.072067 -0.768573 1
1.252450 0.015311 -0.906679 1
1.394770 0.061842 -0.795504 1
1.379393 0.209309 -0.816539 1
1.378689 0.066223 -0.883814 1
1.298437 0.022456 -0.753127 1
1.213196 0.034796 -0.888557 1
1.428810 0.086280 -0.829522 1
1.234790 0.054667 -0.773562 1
1.316968 0.048202 -0.909654 1
1.413206 0.103447 -0.775842 1
1.383707 0.222149 -0.835933 1
1.409202 0.070493 -0.868861 1
1.290127 0.056650 -0.748656 1
1.214120 0.009021 -0.917882 1
1.390032 0.023372 -0.803400 1
1.372606 0.210835 -0.801236 1
1.372091 0.070179 -0.902590 1
1.395535 0.110825 -0.757870 1
1.178664 0.034915 -0.882548 1
1.439694 0.087022 -0.845530 1
1.277764 0.088102 -0.755725 1
1.265331 0.019579 -0.930488 1
1.416242 0.075798 -0.778187 1
1.381629 0.232743 -0.822556 1
1.373491 0.024196 -0.896039 1
1.276217 0.013871 -0.728796 1
1.191949 0.024005 -0.916717 1
1.431996 0.061487 -0.819019 1
1.151084 0.011852 -0.763828 1
1.378784 0.101031 -0.913579 1
1.419126 0.109971 -0.757959 1
1.376053 0.230700 -0.847526 1
1.440895 0.083402 -0.864972 1
1.291340 0.083201 -0.737120 1
1.219552 0.008656 -0.942815 1
1.395032 0.010334 -0.785231 1
1.374549 0.233229 -0.806067 1
1.378869 0.048708 -0.913629 1
1.318014 0.026670 -0.724539 1
1.162425 0.032573 -0.907930 1
1.458923 0.087922 -0.836672 1
1.208138 0.052374 -0.742639 1
1.292848 0.031229 -0.945315 1
1.421560 0.078601 -0.760194 1
1.381788 0.248299 -0.832015 1
1.393019 0.015856 -0.896257 1
1.254995 0.015242 -0.710397 1
1.183583 0.014335 -0.944013 1
1.412144 0.006573 -0.803257 1
1.122017 0.020755 -0.767081 1
1.383344 0.081015 -0.926293 1
1.414706 0.111606 -0.740659 1
1.124377 0.031896 -0.891574 1
1.462589 0.087317 -0.857321 1
1.279338 0.098804 -0.729921 1
1.236902 0.011050 -0.962410 1
1.405452 0.016520 -0.766292 1
1.372646 0.248302 -0.814390 1
1.379230 0.014129 -0.921449 1
1.289411 0.013883 -0.702551 1
1.148854 0.023242 -0.935734 1
1.459411 0.064309 -0.824936 1
1.143533 0.027748 -0.736936 1
1.380635 0.110167 -0.935058 1
1.434942 0.102121 -0.745607 1
1.374370 0.253291 -0.844427 1
1.416154 0.015547 -0.889805 1
1.271268 0.061419 -0.706474 1
1.187254 0.006707 -0.968883 1
1.418488 0.001596 -0.784508 1
1.386374 0.150325 -0.862543 1
1.278489 0.043817 -0.883156 1
1.384980 0.125767 -0.863048 1
1.386432 0.170826 -0.850296 1
1.302179 0.050479 -0.897997 1
1.390203 0.134564 -0.843496 1
1.240963 0.038142 -0.883523 1
1.376449 0.099777 -0.880457 1
1.389344 0.167178 -0.834192 1
1.239510 0.012881 -0.916897 1
1.395792 0.113469 -0.850405 1
1.385729 0.195619 -0.849462 1
1.370387 0.104241 -0.900708 1
1.390932 0.141563 -0.826020 1
1.209727 0.022121 -0.908437 1
1.385650 0.083591 -0.873234 1
1.381993 0.182702 -0.829571 1
1.258503 0.013652 -0.935025 1
1.397579 0.112726 -0.832341 1
1.376537 0.203478 -0.860842 1
1.377394 0.081718 -0.901383 1
1.379956 0.150590 -0.814915 1
1.210997 0.016635 -0.934406 1
1.415670 0.107438 -0.853666 1
1.384329 0.208170 -0.834861 1
1.417239 0.164388 -0.908116 1
1.390131 0.117469 -0.814533 1
1.179013 0.028389 -0.907217 1
1.369374 0.039830 -0.893399 1
1.375986 0.174734 -0.812342 1
1.230555 0.010508 -0.955234 1
1.407049 0.094823 -0.832955 1
1.382159 0.223910 -0.848159 1
1.385134 0.090881 -0.919158 1
1.374359 0.126132 -0.801076 1
1.178907 0.020541 -0.938942 1
1.410068 0.075314 -0.867160 1
1.377164 0.203986 -0.818899 1
1.278234 0.021364 -0.960836 1
1.397916 0.098355 -0.811113 1
1.160218 0.039726 -0.893680 1
1.371742 0.034610 -0.914105 1
1.364152 0.149870 -0.796181 1
1.195706 0.009604 -0.967033 1
1.423541 0.089537 -0.840997 1
1.382827 0.231652 -0.833102 1
1.383492 0.100814 -0.936077 1
1.380540 0.106881 -0.792981 1
1.146408 0.024585 -0.932862 1
1.390970 0.030780 -0.889296 1
1.377544 0.198031 -0.802599 1
1.248263 0.019609 -0.978212 1
1.408190 0.080511 -0.814865 1
1.372126 0.236495 -0.854037 1
1.376304 0.045663 -0.934004 1
1.329198 0.089157 -0.779191 1
1.157038 0.010586 -0.969857 1
1.440228 0.090855 -0.854454 1
1.377355 0.226727 -0.816436 1
1.311393 0.036598 -0.972869 1
1.402136 0.102341 -0.792168 1
1.107328 0.020443 -0.918373 1
1.383958 0.014074 -0.913999 1
1.299914 0.106115 -0.778879 1
1.213799 0.021927 -0.988807 1
1.433560 0.086603 -0.825279 1
1.378636 0.248014 -0.836989 1
1.391440 0.082422 -0.946861 1
1.362222 0.095707 -0.773543 1
1.124674 0.018848 -0.961298 1
1.402570 0.015000 -0.880160 1
1.380464 0.222113 -0.799366 1
1.268127 0.021783 -0.995460 1
1.399879 0.063778 -0.795383 1
1.079545 0.020087 -0.893811 1
1.380558 0.015281 -0.938781 1
1.298037 0.076882 -0.761948 1
1.155149 0.007439 -0.997532 1
1.455006 0.093666 -0.840278 1
1.376640 0.246135 -0.818951 1
1.389557 0.105049 -0.960232 1
1.402470 0.110309 -0.775210 1
1.098183 0.029451 -0.942521 1
1.406726 0.013830 -0.904697 1
1.239031 0.074742 -0.765753 1
1.219607 0.012382 -1.012352 1
1.359339 -0.035968 -0.803685 1
1.372788 0.259700 -0.844789 1
1.380982 0.034537 -0.959772 1
1.288316 0.028912 -0.747110 1
1.122751 0.020355 -0.988430 1
1.464753 0.090354 -0.859470 1
1.377098 0.239610 -0.800253 1
1.301197 0.032915 -1.003148 1
1.418272 0.093913 -0.779363 1
1.044986 0.013888 -0.919622 1
1.396052 0.001637 -0.934094 1
1.283902 0.088620 -0.751547 1
1.175825 0.015674 -1.018171 1
1.448617 0.070215 -0.824382 1
1.241734 0.019412 -0.925898 1
1.230589 0.022610 -0.937081 1
1.280480 0.032296 -0.920328 1
1.226902 0.031855 -0.909832 1
1.247928 0.020287 -0.954260 1
1.299583 0.056818 -0.892967 1
1.200561 0.027828 -0.936931 1
1.265879 -0.003871 -0.945252 1
1.233398 0.028749 -0.886626 1
1.216390 0.019788 -0.969270 1
1.368876 0.106482 -0.892340 1
1.192321 0.034895 -0.911971 1
1.278683 0.025668 -0.965431 1
1.281310 0.043703 -0.872617 1
1.180166 0.024382 -0.962343 1
1.375331 0.097678 -0.914336 1
1.199938 0.028136 -0.881446 1
1.237895 0.022455 -0.986850 1
1.381074 0.118021 -0.872104 1
1.163447 0.033955 -0.931883 1
1.375256 0.106338 -0.940743 1
1.388060 0.182254 -0.851692 1
1.182275 0.019975 -0.989530 1
1.379925 0.087054 -0.897217 1
1.173553 0.038240 -0.890543 1
1.270422 0.022275 -0.992465 1
1.390213 0.142393 -0.852939 1
1.148117 0.031345 -0.961797 1
1.383187 0.087050 -0.930405 1
1.387229 0.207714 -0.848145 1
1.215379 0.026426 -1.006742 1
1.392962 0.102907 -0.873008 1
1.138372 0.035797 -0.914863 1
1.324256 0.043167 -0.978673 1
1.387898 0.165134 -0.839677 1
1.147902 0.023871 -0.995421 1
1.373469 0.052915 -0.913704 1
1.384949 0.231897 -0.853224 1
1.250451 0.021738 -1.015597 1
1.396788 0.122852 -0.850298 1
1.122738 0.038215 -0.948838 1
1.392835 0.092201 -0.947692 1
1.384480 0.193233 -0.834306 1
1.173686 0.020598 -1.022098 1
1.379896 0.056163 -0.885312 1
1.127741 0.038066 -0.890253 1
1.258653 -0.021518 -1.023534 1
1.388032 0.140719 -0.832783 1
1.127605 0.039932 -0.986478 1
1.377795 0.042000 -0.933496 1
1.391392 0.231596 -0.837799 1
1.219507 0.021288 -1.034857 1
1.408937 0.108639 -0.854318 1
1.105237 0.043813 -0.926702 1
1.395711 0.100356 -0.966221 1
1.383828 0.172693 -0.823265 1
1.130548 0.019554 -1.027305 1
1.383194 0.035075 -0.902674 1
1.383476 0.251843 -0.849918 1
1.263062 0.011643 -1.036153 1
1.398639 0.123566 -0.831541 1
1.118714 0.060716 -0.966342 1
1.385387 0.046832 -0.954534 1
1.385028 0.211947 -0.823759 1
1.170164 0.012040 -1.052250 1
1.402821 0.069755 -0.866479 1
1.066173 0.022978 -0.901376 1
1.394562 0.113969 -0.983259 1
1.379993 0.141253 -0.815862 1
1.092773 0.024982 -1.020320 1
1.388485 0.024707 -0.924776 1
1.390990 0.250974 -0.833604 1
1.234847 0.017550 -1.054811 1
1.408695 0.103624 -0.836428 1
1.145684 0.101161 -0.934027 1
1.393301 0.063969 -0.974325 1
1.376783 0.182463 -0.811280 1
1.124113 0.013042 -1.058067 1
1.392356 0.025739 -0.886754 1
1.063208 0.019473 -0.868271 1
1.255886 -0.028956 -1.060904 1
1.389971 0.119886 -0.814091 1
1.082118 0.048886 -0.996775 1
1.394115 0.025603 -0.949315 1
1.381801 0.228764 -0.818056 1
1.190654 0.016203 -1.071746 1
1.430812 0.101766 -0.847049 1
1.017067 0.016516 -0.919818 1
1.394179 0.082328 -0.993473 1
1.367808 0.143788 -0.801526 1
1.077001 0.016069 -1.053444 1
1.402751 0.019776 -0.909728 1
1.383921 0.264263 -0.833757 1
1.259198 0.016508 -1.066784 1
1.408971 0.107771 -0.818705 1
1.161100 0.130385 -0.948908 1
1.392618 0.027977 -0.976325 1
1.382059 0.207644 -0.804255 1
1.141430 0.017614 -1.080625 1
1.444638 0.092812 -0.863145 1
1.218919 0.022505 -0.960338 1
1.205801 0.024347 -0.972507 1
1.247501 0.022408 -0.956124 1
1.200221 0.031960 -0.944450 1
1.231078 0.029360 -0.987855 1
1.247025 0.024963 -0.929971 1
1.176952 0.032270 -0.972393 1
1.269890 0.028109 -0.972828 1
1.213768 0.035371 -0.919215 1
1.197386 0.028012 -1.004446 1
1.280699 0.027650 -0.935411 1
1.170336 0.041135 -0.946261 1
1.250054 0.020548 -1.002702 1
1.245238 0.030728 -0.905806 1
1.152310 0.026024 -1.000255 1
1.276102 0.002003 -0.965851 1
1.184859 0.040289 -0.913959 1
1.215995 0.026891 -1.023230 1
1.298786 0.044899 -0.909513 1
1.139389 0.039722 -0.967732 1
1.251214 -0.016654 -1.007622 1
1.222691 0.035204 -0.891315 1
1.157843 0.024706 -1.027596 1
1.379325 0.110527 -0.921796 1
1.159492 0.052054 -0.923338 1
1.246016 0.022285 -1.029696 1
1.269697 0.028143 -0.889707 1
1.122939 0.037014 -0.999249 1
1.385058 0.113576 -0.953681 1
1.196505 0.048022 -0.887518 1
1.188308 0.027112 -1.046026 1
1.377045 0.106685 -0.899880 1
1.210583 0.121795 -0.933280 1
1.290033 0.028429 -1.018407 1
1.252911 0.043099 -0.872404 1
1.112679 0.021080 -1.037506 1
1.381084 0.088568 -0.936679 1
1.142839 0.040912 -0.899555 1
1.227704 0.024713 -1.053371 1
1.333966 0.069840 -0.880881 1
1.109231 0.054309 -0.983375 1
1.391168 0.114025 -0.971666 1
1.388854 0.217377 -0.857037 1
1.150901 0.027428 -1.060932 1
1.376036 0.076683 -0.911409 1
1.120391 0.058521 -0.923087 1
1.271572 0.021445 -1.046421 1
1.391508 0.166648 -0.856813 1
1.085571 0.033334 -1.029896 1
1.385011 0.077910 -0.955974 1
1.175024 0.059001 -0.872328 1
1.190766 0.020099 -1.076345 1
1.388512 0.105843 -0.880790 1
1.163768 0.115407 -0.947487 1
1.391314 0.118367 -0.991112 1
1.388215 0.197843 -0.846873 1
1.102535 0.023949 -1.068765 1
1.382019 0.060058 -0.928338 1
1.092133 0.034723 -0.897649 1
1.249789 0.024143 -1.070429 1
1.395527 0.142659 -0.856114 1
1.064114 0.045892 -1.011296 1
1.392612 0.082624 -0.975961 1
1.388888 0.234663 -0.846353 1
1.149497 0.021023 -1.091558 1
1.378383 0.061370 -0.895120 1
1.152072 0.114990 -0.922603 1
1.313951 0.038210 -1.045500 1
1.387269 0.171179 -0.840587 1
1.057284 0.025424 -1.064246 1
1.387144 0.049840 -0.950261 1
1.379912 0.259677 -0.855490 1
1.203301 0.012477 -1.098834 1
1.401654 0.118351 -0.861458 1
1.117255 0.105461 -0.969619 1
1.394086 0.090087 -0.997551 1
1.393239 0.218798 -0.835337 1
1.100791 0.021787 -1.099185 1
1.383650 0.040341 -0.914243 1
1.044340 0.032469 -0.904065 1
1.278256 0.025322 -1.077967 1
1.390794 0.143827 -0.839217 1
1.008789 0.022767 -1.050045 1
1.387339 0.042572 -0.976516 1
1.387738 0.252452 -0.840458 1
1.162976 0.017839 -1.114904 1
1.392926 0.072779 -0.874809 1
0.969685 0.011174 -0.962079 1
1.397042 0.110308 -1.015116 1
1.387951 0.186805 -0.827500 1
1.050884 0.024650 -1.095920 1
1.393898 0.033942 -0.937288 1
1.034715 0.011481 -0.870470 1
1.237564 0.020211 -1.106385 1
1.403561 0.124548 -0.843681 1
0.982822 0.030708 -1.020378 1
1.394002 0.056630 -0.999888 1
1.386389 0.230873 -0.827643 1
1.115544 0.023606 -1.123579 1
1.391095 0.037297 -0.895152 1
1.229853 0.029562 -0.970086 1
1.223481 0.037836 -0.980587 1
1.263843 0.035955 -0.964000 1
1.204368 0.032212 -0.956092 1
1.240493 0.034522 -0.997669 1
1.263415 0.038923 -0.938371 1
1.184836 0.035603 -0.983576 1
1.282723 0.037926 -0.980968 1
1.213952 0.032073 -0.931220 1
1.205242 0.031011 -1.015318 1
1.286470 0.030096 -0.945441 1
1.169430 0.036703 -0.959392 1
1.264061 0.030838 -1.010522 1
1.250696 0.033112 -0.916424 1
1.161344 0.029839 -1.011511 1
1.309420 0.037338 -0.967953 1
1.188865 0.040850 -0.925730 1
1.224751 0.030665 -1.033496 1
1.296185 0.038087 -0.920721 1
1.143811 0.039800 -0.980326 1
1.306978 0.043951 -1.000063 1
1.233459 0.043107 -0.901662 1
1.162928 0.024526 -1.040113 1
1.383476 0.112044 -0.930578 1
1.163552 0.052513 -0.935506 1
1.259700 0.031666 -1.037442 1
1.283774 0.040784 -0.898882 1
1.119944 0.030297 -1.014340 1
1.390457 0.116104 -0.962125 1
1.209833 0.057865 -0.898061 1
1.196776 0.030032 -1.056903 1
1.383763 0.111836 -0.908148 1
1.144255 0.064006 -0.958448 1
1.302061 0.036930 -1.026001 1
1.258790 0.046542 -0.882895 1
1.125751 0.027583 -1.048065 1
1.387675 0.092917 -0.944817 1
1.156599 0.050063 -0.910775 1
1.237253 0.028955 -1.063138 1
1.372955 0.114225 -0.886104 1
1.116600 0.056564 -0.995756 1
1.396501 0.116152 -0.980119 1
1.229935 0.060518 -0.876406 1
1.152246 0.023376 -1.075310 1
1.383289 0.082383 -0.919553 1
1.192633 0.114350 -0.925444 1
1.280768 0.025861 -1.055568 1
1.278923 0.036822 -0.873046 1
1.088556 0.031317 -1.044128 1
1.385133 0.072985 -0.966340 1
1.184673 0.065201 -0.883738 1
1.198083 0.021436 -1.087821 1
1.386860 0.100589 -0.890119 1
1.098391 0.062018 -0.973947 1
1.395216 0.118294 -1.000341 1
1.387615 0.196037 -0.855598 1
1.105907 0.021673 -1.083062 1
1.385134 0.059675 -0.937444 1
1.095333 0.034522 -0.910870 1
1.259830 0.028871 -1.079584 1
1.393371 0.137899 -0.864952 1
1.051764 0.032456 -1.029839 1
1.392056 0.076294 -0.986943 1
1.387435 0.232573 -0.855086 1
1.152983 0.018440 -1.105495 1
1.378603 0.057667 -0.904549 1
1.191460 0.142520 -0.929219 1
1.319631 0.038714 -1.055647 1
1.388511 0.171146 -0.849230 1
1.058414 0.021475 -1.079880 1
1.389026 0.047040 -0.959936 1
1.131800 0.052028 -0.879483 1
1.219897 0.023083 -1.105557 1
1.399516 0.112886 -0.870309 1
1.023978 0.034100 -1.004754 1
1.393842 0.083868 -1.008892 1
1.390875 0.215684 -0.843873 1
1.103101 0.018198 -1.114336 1
1.387945 0.041821 -0.922961 1
1.036316 0.023517 -0.919257 1
1.295669 0.038909 -1.082575 1
1.393257 0.145024 -0.847785 1
1.004650 0.015170 -1.067736 1
1.388228 0.037580 -0.987020 1
1.389104 0.253190 -0.849081 1
1.175821 0.023755 -1.124304 1
1.381193 0.052540 -0.885200 1
1.005098 0.032919 -0.971734 1
1.401274 0.110103 -1.024410 1
1.388770 0.186671 -0.836067 1
1.052335 0.020584 -1.111966 1
1.397194 0.033326 -0.946286 1
1.063258 0.031131 -0.882981 1
1.253054 0.030168 -1.112793 1
1.404607 0.123704 -0.852106 1
0.981916 0.026017 -1.036966 1
1.387069 0.039668 -1.014659 1
1.389402 0.233174 -0.836277 1
1.125590 0.026386 -1.135221 1
1.391724 0.033643 -0.904356 1
1.248686 0.038876 -0.955330 1
1.230219 0.034034 -0.968782 1
1.270436 0.032791 -0.952160 1
1.218200 0.035923 -0.942908 1
1.250786 0.034283 -0.984664 1
1.271126 0.037633 -0.926478 1
1.193971 0.033666 -0.971224 1
1.288286 0.033344 -0.969367 1
1.236288 0.045286 -0.917144 1
1.223590 0.037907 -0.999747 1
1.295386 0.030360 -0.933017 1
1.184748 0.040915 -0.946122 1
1.283428 0.041048 -0.994160 1
1.272239 0.047346 -0.902765 1
1.184460 0.040006 -0.995052 1
1.381691 0.116020 -0.938312 1
1.212040 0.053794 -0.912055 1
1.243792 0.038499 -1.017024 1
1.310243 0.045264 -0.907871 1
1.162256 0.045681 -0.966199 1
1.334617 0.066045 -0.980931 1
1.244724 0.046022 -0.889791 1
1.187060 0.035183 -1.022301 1
1.387569 0.108087 -0.920793 1
1.187252 0.064454 -0.921828 1
1.280500 0.042656 -1.019786 1
1.310031 0.062198 -0.885365 1
1.142857 0.038821 -0.998246 1
1.394252 0.111051 -0.952561 1
1.220836 0.060074 -0.886639 1
1.211530 0.032113 -1.041736 1
1.387098 0.107457 -0.898451 1
1.159599 0.067353 -0.945887 1
1.315231 0.040695 -1.011266 1
1.388866 0.179211 -0.863978 1
1.140945 0.028733 -1.033356 1
1.388269 0.083698 -0.935577 1
1.188257 0.069465 -0.897104 1
1.257158 0.037504 -1.045307 1
1.388341 0.125304 -0.875267 1
1.129680 0.056689 -0.983049 1
1.391897 0.099547 -0.973797 1
1.386209 0.207974 -0.858617 1
1.178474 0.034805 -1.055663 1
1.377528 0.064929 -0.910989 1
1.164434 0.082807 -0.920297 1
1.300766 0.036579 -1.037227 1
1.390779 0.157421 -0.857100 1
1.102240 0.030527 -1.030234 1
1.390274 0.069236 -0.955452 1
1.387128 0.240329 -0.862037 1
1.222850 0.033111 -1.067547 1
1.383519 0.087674 -0.880834 1
1.128700 0.075921 -0.958427 1
1.394140 0.105930 -0.993059 1
1.391222 0.194051 -0.847648 1
1.134192 0.033025 -1.063020 1
1.385849 0.050151 -0.927366 1
1.132451 0.056362 -0.896705 1
1.280458 0.038752 -1.060577 1
1.398629 0.137272 -0.855623 1
1.086738 0.048033 -1.010815 1
1.382845 0.051640 -0.981747 1
1.391472 0.231241 -0.847960 1
1.178534 0.028709 -1.084953 1
1.378709 0.048132 -0.894118 1
1.108320 0.070283 -0.932841 1
1.391964 0.117576 -1.011258 1
1.391034 0.167913 -0.840700 1
1.087086 0.031523 -1.060463 1
1.393225 0.041856 -0.948797 1
1.115464 0.030302 -0.869473 1
1.243989 0.034552 -1.084590 1
1.408193 0.116637 -0.860211 1
1.056020 0.046910 -0.987781 1
1.381874 0.055041 -1.006073 1
1.386903 0.206557 -0.836225 1
1.131139 0.028615 -1.093235 1
1.392215 0.037603 -0.911609 1
1.060250 0.032813 -0.906022 1
1.301680 0.032485 -1.070673 1
1.398782 0.145173 -0.838676 1
1.041975 0.030497 -1.046681 1
1.395309 0.035999 -0.974643 1
1.390068 0.249381 -0.842430 1
1.199480 0.032500 -1.103720 1
1.385755 0.049776 -0.873997 1
1.032231 0.042307 -0.956929 1
1.395128 0.089900 -1.020065 1
1.386980 0.179279 -0.827658 1
1.082809 0.031157 -1.090829 1
1.403596 0.031812 -0.934212 1
1.062855 0.022568 -0.871897 1
1.275078 0.040503 -1.092117 1
1.407909 0.120843 -0.842480 1
1.008399 0.032964 -1.020404 1
1.393215 0.035976 -1.002613 1
1.393397 0.232273 -0.829186 1
1.151757 0.035258 -1.113997 1
1.395527 0.029088 -0.892853 1
1.285976 0.054197 -0.925269 1
1.266343 0.046493 -0.938138 1
1.310824 0.053821 -0.921420 1
1.256799 0.050783 -0.913304 1
1.285017 0.045700 -0.953545 1
1.328434 0.078842 -0.895280 1
1.230335 0.043832 -0.940508 1
1.384688 0.123845 -0.924015 1
1.269855 0.056524 -0.889822 1
1.259823 0.049023 -0.967597 1
1.380418 0.109900 -0.896321 1
1.225486 0.055238 -0.916219 1
1.379019 0.127455 -0.944611 1
1.324547 0.082808 -0.874711 1
1.222458 0.050287 -0.962996 1
1.377997 0.087955 -0.919944 1
1.240743 0.058548 -0.885633 1
1.278520 0.048944 -0.984263 1
1.390371 0.120394 -0.876257 1
1.197614 0.052714 -0.936338 1
1.389521 0.109782 -0.944091 1
1.385425 0.174115 -0.858208 1
1.224799 0.044774 -0.988726 1
1.373293 0.065650 -0.903443 1
1.219548 0.070844 -0.894945 1
1.306677 0.045623 -0.989578 1
1.394171 0.140152 -0.857777 1
1.186044 0.051147 -0.965001 1
1.381056 0.068931 -0.937364 1
1.384045 0.200429 -0.855428 1
1.247784 0.041422 -1.007303 1
1.380018 0.075280 -0.878736 1
1.195454 0.074651 -0.917557 1
1.382398 0.098619 -0.966540 1
1.389062 0.161329 -0.845159 1
1.187222 0.043199 -0.996922 1
1.383759 0.052221 -0.916314 1
1.217792 0.073954 -0.871573 1
1.293431 0.049952 -1.010267 1
1.404594 0.125111 -0.854083 1
1.153838 0.051473 -0.955028 1
1.379409 0.056878 -0.959311 1
1.382647 0.187677 -0.840717 1
1.219718 0.046328 -1.019191 1
1.383841 0.048726 -0.888411 1
1.187700 0.079800 -0.894917 1
1.393913 0.124128 -0.978982 1
1.397373 0.146338 -0.837357 1
1.146748 0.040752 -0.994867 1
1.392478 0.045966 -0.934730 1
1.386520 0.224376 -0.845412 1
1.260061 0.043496 -1.031245 1
1.419348 0.113951 -0.857149 1
1.177194 0.091344 -0.927811 1
1.388996 0.073256 -0.977161 1
1.387895 0.173479 -0.828880 1
1.168590 0.035130 -1.028861 1
1.394694 0.036730 -0.904084 1
1.198524 0.089926 -0.868512 1
1.313452 0.048772 -1.025713 1
1.402974 0.122759 -0.835156 1
1.120315 0.048199 -0.979622 1
1.396541 0.044042 -0.956994 1
1.384690 0.209280 -0.830523 1
1.212622 0.032548 -1.049436 1
1.392424 0.042670 -0.870119 1
1.142657 0.073901 -0.905270 1
1.385001 0.082836 -0.997175 1
1.388833 0.147362 -0.820741 1
1.125786 0.034942 -1.025318 1
1.405689 0.033327 -0.924479 1
1.390022 0.248388 -0.841699 1
1.281920 0.046843 -1.046669 1
1.415165 0.104749 -0.839134 1
1.171262 0.110379 -0.942604 1
1.391380 0.040624 -0.982837 1
1.381327 0.184766 -0.817370 1
1.167629 0.031704 -1.056872 1
1.402627 0.026678 -0.887662 1
1.110490 0.048635 -0.877076 1
1.393407 0.118441 -1.006370 1
1.403560 0.132000 -0.818262 1
1.091144 0.040303 -1.009609 1
1.411562 0.032771 -0.948709 1
1.391547 0.236314 -0.825774 1
1.239828 0.043433 -1.064344 1
1.441869 0.108838 -0.848953 1
1.139383 0.097886 -0.917855 1
1.385757 0.049236 -1.006812 1
1.373746 0.147492 -0.806681 1
1.122217 0.034062 -1.054042 1
1.421278 0.032266 -0.908601 1
1.383656 0.262770 -0.842520 1
1.300491 0.040295 -1.059485 1
1.411481 0.104910 -0.821196 1
1.057305 0.041230 -0.985167 1
1.409018 0.031232 -0.976321 1
1.380891 0.205318 -0.810508 1
1.179609 0.030675 -1.080302 1
1.428988 0.055605 -0.866611 1
1.384104 0.109781 -0.902562 1
1.386090 0.123970 -0.909649 1
1.381737 0.080229 -0.903505 1
1.350315 0.094915 -0.893869 1
1.386634 0.105742 -0.925501 1
1.384516 0.088727 -0.881844 1
1.288799 0.043472 -0.924802 1
1.383918 0.063560 -0.921031 1
1.361544 0.101212 -0.873661 1
1.324888 0.059275 -0.948116 1
1.382422 0.052236 -0.890395 1
1.275360 0.045510 -0.903273 1
1.378784 0.068196 -0.943113 1
1.402097 0.119811 -0.861304 1
1.271518 0.038262 -0.948422 1
1.393030 0.045267 -0.912800 1
1.327476 0.091840 -0.870887 1
1.390761 0.119441 -0.948187 1
1.407938 0.086034 -0.867599 1
1.255185 0.047903 -0.921532 1
1.390626 0.049066 -0.942288 1
1.398555 0.139632 -0.850172 1
1.290144 0.050334 -0.968455 1
1.397578 0.034627 -0.893843 1
1.263441 0.055003 -0.883673 1
1.388058 0.083924 -0.961365 1
1.414762 0.112311 -0.848837 1
1.239753 0.040591 -0.949745 1
1.404587 0.036424 -0.928569 1
1.390662 0.161126 -0.847980 1
1.315300 0.052169 -0.984373 1
1.423960 0.075381 -0.867040 1
1.238479 0.055598 -0.905977 1
1.389918 0.045147 -0.964105 1
1.406069 0.130827 -0.836445 1
1.253645 0.045162 -0.976644 1
1.412733 0.027309 -0.905839 1
1.383797 0.183776 -0.855062 1
1.395412 0.110967 -0.972196 1
1.430976 0.104657 -0.844647 1
1.216853 0.047105 -0.938782 1
1.411067 0.035229 -0.948207 1
1.394168 0.152978 -0.832383 1
1.285061 0.050547 -0.996970 1
1.416687 0.030435 -0.877281 1
1.233802 0.063720 -0.883758 1
1.382234 0.046566 -0.985432 1
1.409440 0.108285 -0.827975 1
1.218170 0.043049 -0.974244 1
1.424065 0.024749 -0.923597 1
1.388192 0.182630 -0.837968 1
1.381077 0.119386 -0.984319 1
1.451168 0.101734 -0.847287 1
1.198518 0.051030 -0.919560 1
1.407893 0.033162 -0.971041 1
1.400107 0.138595 -0.819829 1
1.248377 0.047986 -1.002491 1
1.430488 0.022801 -0.892164 1
1.384679 0.209393 -0.852469 1
1.383872 0.072895 -0.997557 1
1.418176 0.086489 -0.825255 1
1.184043 0.040571 -0.962337 1
1.430986 0.027130 -0.944832 1
1.390976 0.171160 -0.822081 1
1.287631 0.046182 -1.021501 1
1.474247 0.106268 -0.855674 1
1.213567 0.076221 -0.891463 1
1.398313 0.034879 -0.994212 1
1.406796 0.117451 -0.811223 1
1.199392 0.036383 -1.002417 1
1.443146 0.022420 -0.911768 1
1.389271 0.207012 -0.834504 1
1.395079 0.118483 -0.998254 1
1.443583 0.086806 -0.829301 1
1.187822 0.066418 -0.935612 1
1.429843 0.029147 -0.968799 1
1.384987 0.141329 -0.807517 1
1.238944 0.035286 -1.031372 1
1.446227 0.026887 -0.874824 1
1.384201 0.230433 -0.855150 1
1.386705 0.046098 -1.013722 1
1.396382 0.065762 -0.805944 1
1.175362 0.047468 -0.985818 1
1.449673 0.022895 -0.935271 1
1.389809 0.192909 -0.817237 1
1.300197 0.043568 -1.040667 1
1.473932 0.098704 -0.839057 1
1.197614 0.087998 -0.905038 1
1.416556 0.024762 -0.996045 1
1.399697 0.127416 -0.797876 1
1.195135 0.033847 -1.029479 1
1.453915 0.014118 -0.897061 1
1.394480 0.233556 -0.835757 1
1.396963 0.096040 -1.015400 1
1.407228 0.037073 -0.808630 1
1.145116 0.047844 -0.963387 1
1.451844 0.028783 -0.960366 1
1.372382 0.151262 -0.799549 1
1.254414 0.038928 -1.051213 1
1.494857 0.101500 -0.853449 1
1.408011 0.030472 -0.928963 1
1.402845 0.037286 -0.938159 1
1.424173 0.023278 -0.926318 1
1.394817 0.042317 -0.916034 1
1.413098 0.028552 -0.953568 1
1.418816 0.021328 -0.904889 1
1.389977 0.055386 -0.936413 1
1.437752 0.021853 -0.941728 1
1.396785 0.037571 -0.896171 1
1.395623 0.035583 -0.965320 1
1.440066 0.016077 -0.910100 1
1.382918 0.063254 -0.916265 1
1.432032 0.025129 -0.964468 1
1.414535 0.025967 -0.884618 1
1.383631 0.060251 -0.955599 1
1.455452 0.016792 -0.931168 1
1.385425 0.055920 -0.891169 1
1.404879 0.026085 -0.982901 1
1.440111 0.014892 -0.889547 1
1.392182 0.097475 -0.926420 1
1.455880 0.024817 -0.959395 1
1.406079 0.044721 -0.872093 1
1.388430 0.057749 -0.976711 1
1.464377 0.013939 -0.911424 1
1.393336 0.098242 -0.895672 1
1.427817 0.021621 -0.988311 1
1.458426 0.066862 -0.867423 1
1.391449 0.103801 -0.946889 1
1.475457 0.023417 -0.943713 1
1.394093 0.067163 -0.869626 1
1.391047 0.032674 -0.999456 1
1.460264 0.008726 -0.888232 1
1.390236 0.117423 -0.911440 1
1.455719 0.020429 -0.981081 1
1.489206 0.148513 -0.852649 1
1.399698 0.104931 -0.969104 1
1.483345 0.014884 -0.921742 1
1.391364 0.101154 -0.876824 1
1.415147 0.022731 -1.008227 1
1.496680 0.097932 -0.860929 1
1.324974 0.051820 -0.951134 1
1.481212 0.020963 -0.962945 1
1.430618 0.102785 -0.850768 1
1.389735 0.064789 -1.000369 1
1.480302 0.006319 -0.895284 1
1.374197 0.110202 -0.895508 1
1.445815 0.016419 -1.003798 1
1.477746 0.102651 -0.845711 1
1.383229 0.114499 -0.964051 1
1.496538 0.017053 -0.937907 1
1.409103 0.116815 -0.856971 1
1.398830 0.030932 -1.022081 1
1.515647 0.096296 -0.862904 1
1.287830 0.031343 -0.938597 1
1.478935 0.018904 -0.985166 1
1.446461 0.101178 -0.837865 1
1.398539 0.110429 -0.988885 1
1.499375 0.009809 -0.908380 1
1.367521 0.104119 -0.875616 1
1.431837 0.020450 -1.023224 1
1.497568 0.100364 -0.843035 1
1.294010 0.040446 -0.974122 1
1.503859 0.020994 -0.957819 1
1.415677 0.108448 -0.840009 1
1.397729 0.067847 -1.019838 1
1.533485 0.094929 -0.870647 1
1.292223 0.048564 -0.912525 1
1.468828 0.017413 -1.008669 1
1.460694 0.089724 -0.829504 1
1.310913 0.040457 -1.009338 1
1.512301 0.011227 -0.926894 1
1.399693 0.133474 -0.853193 1
1.411103 0.025751 -1.039413 1
1.517302 0.096702 -0.846060 1
1.268311 0.035916 -0.955874 1
1.501924 0.020316 -0.981493 1
1.424775 0.093994 -0.825701 1
1.399815 0.108899 -1.008877 1
1.516500 0.021320 -0.890474 1
1.320464 0.080940 -0.882956 1
1.453941 0.021844 -1.029886 1
1.471413 0.066133 -0.826084 1
1.273865 0.032917 -0.999680 1
1.522159 0.019462 -0.947984 1
1.408993 0.127427 -0.834555 1
1.393363 0.044180 -1.045724 1
1.536777 0.094561 -0.854504 1
1.257258 0.038791 -0.929280 1
1.490526 0.015612 -1.008027 1
1.426104 0.058993 -0.814434 1
1.307287 0.037351 -1.034193 1
1.527404 0.014544 -0.911051 1
1.392841 0.152168 -0.854418 1
1.429790 0.023279 -1.050064 1
1.501458 0.073737 -0.829328 1
1.245228 0.030267 -0.979735 1
1.523071 0.022553 -0.972553 1
1.410596 0.102557 -0.817819 1
1.399695 0.097256 -1.030764 1
1.553280 0.091386 -0.867995 1
1.437381 0.020744 -0.969701 1
1.425568 0.016975 -0.981538 1
1.454908 0.016271 -0.966299 1
1.418138 0.023398 -0.958533 1
1.440844 0.015894 -0.995320 1
1.451217 0.017114 -0.944581 1
1.403835 0.023113 -0.982496 1
1.468827 0.015845 -0.981212 1
1.422050 0.021561 -0.937910 1
1.421618 0.019958 -1.008333 1
1.474881 0.017467 -0.948296 1
1.397532 0.033049 -0.960762 1
1.462433 0.017439 -1.004587 1
1.443843 0.016709 -0.925173 1
1.396814 0.027525 -1.002861 1
1.490022 0.018591 -0.968535 1
1.405476 0.033083 -0.933555 1
1.436769 0.019501 -1.023462 1
1.472575 0.012166 -0.928799 1
1.386308 0.042384 -0.976365 1
1.485528 0.016824 -0.998964 1
1.423799 0.017707 -0.914432 1
1.402981 0.026564 -1.024654 1
1.498574 0.016038 -0.948876 1
1.389379 0.045832 -0.941892 1
1.457816 0.012387 -1.029534 1
1.460678 0.014019 -0.910134 1
1.384682 0.048532 -0.998990 1
1.503461 0.013070 -0.983273 1
1.404393 0.031130 -0.912500 1
1.419457 0.020221 -1.042416 1
1.494564 0.010945 -0.926423 1
1.383758 0.064678 -0.958772 1
1.487631 0.016076 -1.019952 1
1.437088 0.014858 -0.897743 1
1.394022 0.050574 -1.023202 1
1.516756 0.016705 -0.958541 1
1.388318 0.050540 -0.921012 1
1.446229 0.014703 -1.049595 1
1.481388 0.011715 -0.904221 1
1.399483 0.096445 -0.977077 1
1.511064 0.014036 -1.001784 1
1.410532 0.023814 -0.894029 1
1.401545 0.030207 -1.050876 1
1.515397 0.011862 -0.932323 1
1.390785 0.086536 -0.936176 1
1.479528 0.014272 -1.042501 1
1.456393 0.011697 -0.887391 1
1.405806 0.099082 -1.003886 1
1.527766 0.014507 -0.975171 1
1.392127 0.048167 -0.900278 1
1.427967 0.019540 -1.065092 1
1.503661 0.010903 -0.905778 1
1.394320 0.109524 -0.959324 1
1.510568 0.014921 -1.023480 1
1.431807 0.027838 -0.878346 1
1.394507 0.059255 -1.043996 1
1.532993 0.013647 -0.944746 1
1.391921 0.089658 -0.914804 1
1.466689 0.019539 -1.061697 1
1.483152 0.016685 -0.883021 1
1.396042 0.113673 -0.989611 1
1.533464 0.014621 -0.995857 1
1.397954 0.036395 -0.881557 1
1.404493 0.025746 -1.074879 1
1.526359 0.014222 -0.913612 1
1.386340 0.110717 -0.939798 1
1.501921 0.015251 -1.046878 1
1.493422 0.093597 -0.865328 1
1.401653 0.103792 -1.023133 1
1.545769 0.015326 -0.962515 1
1.382534 0.068613 -0.895333 1
1.443589 0.019761 -1.080457 1
1.571421 0.153249 -0.875042 1
1.378474 0.113123 -0.973984 1
1.532231 0.014600 -1.019733 1
1.480128 0.128799 -0.861451 1
1.399271 0.062103 -1.064318 1
1.542446 0.009056 -0.928608 1
1.386620 0.112491 -0.916948 1
1.484775 0.014302 -1.070745 1
1.519240 0.099092 -0.861634 1
1.309486 0.025044 -1.043434 1
1.553060 0.017533 -0.984320 1
1.387012 0.054042 -0.874924 1
1.415802 0.023062 -1.093604 1
1.530743 0.015962 -0.894577 1
1.296495 0.033746 -0.972505 1
1.523540 0.014328 -1.045511 1
1.490345 0.110541 -0.852550 1
1.400894 0.103860 -1.043742 1
1.557173 0.011137 -0.947746 1
1.390149 0.108454 -0.893866 1
1.461478 0.016274 -1.091573 1
1.540142 0.094382 -0.863794 1
1.288847 0.029505 -1.021746 1
1.550359 0.010397 -1.012068 1
1.440919 0.098544 -0.855438 1
1.406081 0.058366 -1.084806 1
1.550007 0.012781 -0.909661 1
1.447419 0.013666 -0.998564 1
1.438196 0.014085 -1.009648 1
1.466548 0.011914 -0.994214 1
1.425968 0.012861 -0.988324 1
1.452500 0.011424 -1.023933 1
1.464761 0.016254 -0.971456 1
1.415028 0.017924 -1.011459 1
1.479376 0.009382 -1.009780 1
1.435381 0.019859 -0.965273 1
1.431530 0.012695 -1.038325 1
1.487735 0.015745 -0.975005 1
1.404060 0.021117 -0.991035 1
1.471885 0.008914 -1.034412 1
1.458192 0.017138 -0.951876 1
1.406784 0.020670 -1.032726 1
1.499690 0.010384 -0.996938 1
1.412568 0.021828 -0.962879 1
1.446275 0.011431 -1.053937 1
1.488104 0.015615 -0.954575 1
1.392659 0.030773 -1.006888 1
1.497137 0.012351 -1.026963 1
1.436380 0.014696 -0.942060 1
1.414889 0.022695 -1.053787 1
1.511862 0.015589 -0.974954 1
1.393087 0.030417 -0.972295 1
1.473832 0.015863 -1.055552 1
1.471786 0.008829 -0.937599 1
1.399687 0.049297 -1.025621 1
1.515301 0.009060 -1.010698 1
1.414426 0.024201 -0.940707 1
1.430722 0.015213 -1.072349 1
1.510144 0.015368 -0.951704 1
1.389034 0.052417 -0.988432 1
1.500227 0.013458 -1.047665 1
1.447173 0.007705 -0.925779 1
1.399426 0.038124 -1.055220 1
1.527430 0.010439 -0.985862 1
1.394805 0.039116 -0.949878 1
1.459518 0.013023 -1.078063 1
1.493071 0.007828 -0.931154 1
1.401764 0.081547 -1.007134 1
1.523216 0.010568 -1.029207 1
1.420054 0.015865 -0.922326 1
1.410839 0.022590 -1.082133 1
1.531021 0.017275 -0.956992 1
1.393959 0.072182 -0.965024 1
1.493572 0.014333 -1.069688 1
1.468662 0.008626 -0.914590 1
1.408168 0.084477 -1.034786 1
1.539051 0.009289 -1.002401 1
1.401169 0.040146 -0.928215 1
1.439662 0.015222 -1.095175 1
1.515751 0.008166 -0.932184 1
1.403279 0.103517 -0.985705 1
1.523508 0.013041 -1.050694 1
1.436834 0.012659 -0.906770 1
1.401575 0.049630 -1.075319 1
1.545978 0.013124 -0.970347 1
1.393733 0.073499 -0.943277 1
1.478852 0.015965 -1.090863 1
1.491807 0.006984 -0.910334 1
1.401901 0.104210 -1.017758 1
1.545170 0.010091 -1.023179 1
1.407971 0.029418 -0.909451 1
1.420423 0.028172 -1.102017 1
1.537215 0.008849 -0.940013 1
1.396104 0.105488 -0.965760 1
1.516093 0.015832 -1.073587 1
1.458500 0.008708 -0.896437 1
1.405040 0.090991 -1.054038 1
1.558133 0.013111 -0.988429 1
1.390178 0.059203 -0.922957 1
1.455810 0.016312 -1.110314 1
1.516898 0.007849 -0.912430 1
1.391996 0.112629 -0.998832 1
1.545099 0.012620 -1.046628 1
1.420783 0.016306 -0.893674 1
1.407687 0.054542 -1.095205 1
1.556260 0.011032 -0.953635 1
1.394851 0.105242 -0.943051 1
1.499105 0.014812 -1.098129 1
1.482130 0.002503 -0.892319 1
1.390762 0.103879 -1.038518 1
1.563122 0.008635 -1.012377 1
1.393941 0.043089 -0.902841 1
1.424748 0.014549 -1.126707 1
1.540724 0.008790 -0.920902 1
1.360036 0.087915 -0.984907 1
1.537875 0.015513 -1.071690 1
1.442382 0.007844 -0.882067 1
1.404595 0.091643 -1.075261 1
1.570067 0.010634 -0.973055 1
1.395929 0.097899 -0.920297 1
1.475429 0.015834 -1.120060 1
1.516163 0.016316 -0.893035 1
1.300506 0.024448 -1.052760 1
1.563685 0.009611 -1.038277 1
1.406431 0.028052 -0.884797 1
1.413757 0.049627 -1.117045 1
1.560606 0.006699 -0.935772 1
1.433814 0.008424 -1.006741 1
1.427065 0.013322 -1.016711 1
1.454681 0.008843 -1.001613 1
1.416205 0.014495 -0.994483 1
1.442452 0.012149 -1.030645 1
1.453623 0.014399 -0.978158 1
1.406227 0.021332 -1.017302 1
1.469021 0.008719 -1.016664 1
1.421955 0.015260 -0.972594 1
1.422119 0.015038 -1.044704 1
1.474172 0.008440 -0.983033 1
1.397681 0.028073 -0.995766 1
1.460760 0.007215 -1.042033 1
1.446428 0.014318 -0.958501 1
1.403503 0.032359 -1.035750 1
1.486670 0.003588 -1.005330 1
1.403923 0.025198 -0.968408 1
1.435880 0.011904 -1.061136 1
1.477381 0.013618 -0.960993 1
1.394234 0.048680 -1.008115 1
1.484456 0.006532 -1.035769 1
1.428668 0.019123 -0.947257 1
1.409181 0.030881 -1.057995 1
1.498855 0.008002 -0.982971 1
1.391338 0.043578 -0.975457 1
1.460302 0.009798 -1.065253 1
1.463005 0.010903 -0.943142 1
1.407572 0.075285 -1.023174 1
1.504508 0.006216 -1.018131 1
1.408517 0.031442 -0.945378 1
1.421665 0.018294 -1.078732 1
1.498386 0.010368 -0.958627 1
1.408119 0.092188 -0.983360 1
1.486968 0.006421 -1.057412 1
1.438768 0.010848 -0.931148 1
1.399527 0.054129 -1.056099 1
1.518022 0.010055 -0.992192 1
1.393940 0.053123 -0.953067 1
1.449101 0.013193 -1.085640 1
1.481315 0.003548 -0.937633 1
1.404282 0.098971 -1.007748 1
1.511238 0.004835 -1.037919 1
1.416063 0.026076 -0.926653 1
1.408052 0.035244 -1.084288 1
1.519938 0.012730 -0.963855 1
1.399973 0.094003 -0.965642 1
1.480331 0.007827 -1.079824 1
1.456442 0.004416 -0.920815 1
1.406587 0.096813 -1.036821 1
1.528492 0.005878 -1.009773 1
1.399652 0.053179 -0.931877 1
1.429857 0.017031 -1.102322 1
1.503743 0.002280 -0.938888 1
1.395989 0.108103 -0.990611 1
1.511294 0.006869 -1.060067 1
1.427931 0.014993 -0.912139 1
1.409778 0.076383 -1.070622 1
1.535335 0.008975 -0.977328 1
1.398765 0.093890 -0.944895 1
1.465371 0.009918 -1.101426 1
1.480018 0.002589 -0.916469 1
1.327996 0.028496 -1.054629 1
1.533502 0.003768 -1.031860 1
1.403265 0.038158 -0.913992 1
1.419251 0.043262 -1.102642 1
1.526033 0.003743 -0.946681 1
1.391791 0.113575 -0.969616 1
1.503240 0.008828 -1.083924 1
1.449059 0.009672 -0.901866 1
1.394163 0.091569 -1.061278 1
1.546681 0.006321 -0.996404 1
1.401397 0.088006 -0.924016 1
1.444281 0.014844 -1.119202 1
1.504402 0.000742 -0.918889 1
1.301777 0.021722 -1.038086 1
1.533678 0.007005 -1.055587 1
1.414668 0.023097 -0.898563 1
1.408864 0.071815 -1.094471 1
1.547072 0.010043 -0.959660 1
1.389200 0.111626 -0.947378 1
1.487079 0.010567 -1.107885 1
1.472708 0.002990 -0.897759 1
1.321360 0.036135 -1.075894 1
1.552644 0.004271 -1.020124 1
1.399556 0.065440 -0.905784 1
1.424498 0.031726 -1.126061 1
1.528563 0.001050 -0.927584 1
1.288846 0.021580 -1.011965 1
1.526209 0.009847 -1.081281 1
1.435741 0.013762 -0.887076 1
1.387846 0.085004 -1.086561 1
1.561543 0.011067 -0.978910 1
1.394443 0.109279 -0.923843 1
1.463793 0.013490 -1.129460 1
1.498731 -0.001396 -0.899986 1
1.278823 0.015587 -1.064415 1
1.552497 0.003426 -1.047171 1
1.402480 0.037773 -0.889428 1
1.417864 0.071439 -1.113431 1
1.550312 0.002615 -0.942140 1
1.428933 0.009679 -0.991299 1
1.421786 0.013888 -1.001408 1
1.450464 0.011255 -0.986114 1
1.412829 0.018046 -0.978501 1
1.436004 0.010730 -1.015982 1
1.449537 0.016935 -0.962922 1
1.402430 0.024076 -1.001302 1
1.463369 0.008569 -1.001875 1
1.421062 0.022750 -0.956093 1
1.416951 0.015755 -1.029114 1
1.472691 0.016057 -0.966717 1
1.396812 0.034944 -0.978963 1
1.455395 0.007671 -1.026771 1
1.439895 0.012663 -0.944096 1
1.401587 0.037632 -1.018832 1
1.484861 0.011043 -0.988684 1
1.404295 0.034083 -0.951671 1
1.430781 0.012768 -1.045404 1
1.470841 0.011556 -0.946956 1
1.391315 0.052276 -0.992292 1
1.479201 0.007196 -1.020696 1
1.422579 0.018373 -0.932607 1
1.402982 0.029907 -1.043064 1
1.494575 0.010441 -0.968040 1
1.396227 0.057982 -0.957480 1
1.454886 0.010173 -1.049841 1
1.456615 0.009285 -0.928813 1
1.409630 0.085191 -1.005512 1
1.499450 0.007243 -1.003280 1
1.405861 0.035871 -0.929925 1
1.417206 0.020058 -1.062418 1
1.490296 0.004821 -0.945358 1
1.403012 0.092518 -0.969519 1
1.481659 0.007064 -1.042161 1
1.435137 0.014135 -0.915927 1
1.402188 0.065168 -1.036791 1
1.513012 0.011002 -0.977752 1
1.395019 0.062217 -0.936896 1
1.443033 0.012419 -1.070448 1
1.476587 0.004945 -0.922928 1
1.399996 0.100213 -0.993550 1
1.505717 0.004997 -1.023203 1
1.410467 0.026193 -0.911880 1
1.402198 0.034695 -1.069034 1
1.512038 0.007004 -0.950919 1
1.397453 0.097689 -0.951060 1
1.476646 0.011642 -1.063017 1
1.454470 0.010781 -0.905398 1
1.404415 0.100651 -1.021308 1
1.524555 0.009542 -0.994489 1
1.398222 0.058998 -0.916628 1
1.425855 0.019576 -1.085371 1
1.499360 0.004376 -0.924282 1
1.390293 0.107655 -0.977129 1
1.505752 0.007089 -1.045166 1
1.424828 0.019068 -0.896918 1
1.412422 0.086953 -1.051283 1
1.531522 0.012711 -0.962534 1
1.394779 0.095820 -0.930830 1
1.460186 0.010792 -1.085432 1
1.476102 0.005510 -0.901648 1
1.317623 0.022952 -1.040642 1
1.528382 0.004881 -1.017081 1
1.401429 0.043711 -0.898757 1
1.406433 0.032282 -1.092392 1
1.521325 0.005147 -0.932384 1
1.386424 0.113625 -0.956132 1
1.496386 0.006371 -1.069832 1
1.445089 0.012383 -0.886933 1
1.392698 0.096177 -1.044820 1
1.542853 0.010409 -0.981361 1
1.396078 0.088354 -0.910182 1
1.440216 0.017460 -1.102021 1
1.500845 0.004523 -0.904182 1
1.294198 0.019859 -1.022437 1
1.527903 0.006692 -1.041120 1
1.413507 0.030004 -0.883240 1
1.412263 0.083455 -1.073776 1
1.540510 0.006777 -0.946459 1
1.386922 0.115437 -0.933143 1
1.481815 0.011422 -1.092004 1
1.472633 0.013134 -0.882495 1
1.303273 0.021648 -1.065778 1
1.548966 0.009155 -1.004543 1
1.395612 0.067794 -0.891336 1
1.420795 0.034430 -1.108767 1
1.524619 0.004148 -0.913142 1
1.304075 0.045351 -0.989029 1
1.519374 0.007234 -1.067487 1
1.462299 0.066679 -0.869895 1
1.349064 0.043224 -1.091971 1
1.556278 0.011227 -0.965162 1
1.393001 0.114244 -0.909669 1
1.458772 0.014650 -1.112962 1
1.495581 0.003144 -0.885256 1
1.273925 0.016741 -1.047222 1
1.548200 0.006986 -1.031567 1
1.400297 0.042890 -0.874420 1
1.411151 0.069282 -1.099383 1
1.546318 0.005850 -0.927817 1
1.411880 0.026503 -0.960280 1
1.403685 0.029057 -0.970498 1
1.428452 0.019742 -0.957511 1
1.402456 0.043927 -0.945804 1
1.411769 0.016632 -0.987458 1
1.423815 0.018701 -0.935808 1
1.396064 0.055171 -0.966286 1
1.439010 0.013194 -0.974253 1
1.403456 0.037490 -0.926347 1
1.396188 0.027341 -0.998580 1
1.445666 0.014521 -0.940730 1
1.389464 0.063409 -0.945713 1
1.431041 0.013134 -0.998587 1
1.418825 0.022077 -0.915443 1
1.386238 0.055622 -0.986878 1
1.461545 0.016384 -0.961486 1
1.396658 0.062098 -0.919833 1
1.407273 0.020355 -1.016053 1
1.446388 0.014350 -0.919934 1
1.398101 0.097507 -0.954503 1
1.455975 0.013870 -0.992679 1
1.405766 0.034162 -0.903017 1
1.391848 0.054450 -1.008054 1
1.469542 0.011663 -0.941887 1
1.396182 0.093874 -0.924324 1
1.429665 0.014557 -1.021871 1
1.434893 0.017016 -0.900736 1
1.394557 0.100704 -0.975866 1
1.477960 0.016332 -0.975258 1
1.391913 0.054853 -0.900076 1
1.401501 0.039270 -1.028571 1
1.468911 0.012828 -0.917876 1
1.393006 0.113595 -0.939536 1
1.456859 0.011343 -1.014693 1
1.415344 0.025110 -0.887188 1
1.401437 0.100457 -0.998860 1
1.487264 0.010145 -0.952481 1
1.389379 0.090413 -0.906058 1
1.418839 0.019092 -1.041292 1
1.453851 0.010287 -0.895470 1
1.384552 0.114519 -0.964705 1
1.482691 0.011665 -0.995620 1
1.395309 0.043776 -0.882366 1
1.395324 0.064957 -1.030680 1
1.488862 0.010826 -0.924605 1
1.388644 0.119728 -0.921502 1
1.449147 0.011520 -1.036975 1
1.442673 0.034604 -0.876316 1
1.495006 0.242006 -0.948358 1
1.501370 0.014217 -0.968211 1
1.391118 0.085435 -0.886789 1
1.403666 0.029556 -1.054563 1
1.475900 0.007474 -0.897608 1
1.291188 0.026767 -0.972053 1
1.479199 0.007235 -1.019461 1
1.421949 0.055162 -0.866968 1
1.399517 0.105475 -1.019219 1
1.504725 0.007877 -0.938341 1
1.382002 0.113156 -0.902454 1
1.434811 0.015469 -1.057088 1
1.453478 0.010521 -0.874147 1
1.292526 0.031259 -1.009303 1
1.506269 0.012908 -0.989650 1
1.384561 0.058024 -0.869872 1
1.402292 0.066962 -1.050789 1
1.498148 0.008081 -0.906333 1
1.282290 0.029110 -0.947888 1
1.472372 0.012540 -1.041617 1
1.472298 0.098667 -0.856471 1
1.308273 0.030355 -1.045827 1
1.519603 0.013840 -0.955852 1
1.386949 0.110306 -0.881634 1
1.414647 0.022350 -1.073238 1
