ply
format ascii 1.0
element vertex 1551
property float x
property float y
property float z
property uchar label
end_header
-0.909618 0.031043 -0.316816 0
-1.594548 0.458361 -0.233288 0
-1.021787 0.414631 -0.757926 0
-1.187719 0.035789 -0.009387 0
-0.866680 0.045131 -0.570857 0
-1.515135 0.311291 -0.033111 0
-1.264423 0.452702 -0.849401 0
-0.945826 0.034022 -0.154671 0
-2.125090 0.098252 -0.459311 0
-0.945778 0.177335 -0.795372 0
-1.370835 0.038973 0.080160 0
-1.901489 0.113685 -1.022644 0
-0.818254 0.035382 -0.399317 0
-1.517138 0.534726 -0.117568 0
-1.101195 0.416076 -0.870193 0
-1.052734 0.029446 -0.003131 0
-0.837970 0.047529 -0.700096 0
-1.521285 0.176251 0.087437 0
-1.391927 0.481787 -0.900841 0
-0.833930 0.034310 -0.215790 0
-2.181355 0.101687 -0.289574 0
-0.919490 0.425203 -0.793304 0
-1.229407 0.028071 0.120247 0
-0.758028 0.028447 -0.515130 0
-1.510677 0.483598 -0.004671 0
-1.231974 0.405862 -0.983605 0
-0.917918 0.035571 -0.039139 0
-0.842004 0.093162 -0.829540 0
-1.475874 0.028357 0.194568 0
-1.492806 0.562570 -0.876773 0
-0.741876 0.041467 -0.309184 0
-1.516665 0.673531 -0.124793 0
-0.998898 0.435659 -0.906924 0
-1.076330 0.026389 0.117015 0
-0.727320 0.044601 -0.649745 0
-1.518971 0.355632 0.116750 0
-1.379551 0.436237 -1.048000 0
-0.798864 0.032389 -0.109304 0
-0.875983 0.186947 -0.936221 0
-1.305272 0.029125 0.231961 0
-0.676804 0.031107 -0.432264 0
-1.512208 0.624304 -0.010503 0
-1.140711 0.403933 -1.050222 0
-0.927081 0.031797 0.074762 0
-0.735455 0.037063 -0.812499 0
-1.496943 0.189915 0.236817 0
-1.438758 0.591723 -0.968563 0
-0.698640 0.029065 -0.209762 0
-1.495321 0.800495 -0.155193 0
-0.904751 0.411991 -0.937456 0
-1.133206 0.024601 0.229271 0
-0.638952 0.043816 -0.574529 0
-1.516039 0.517722 0.111672 0
-1.234375 0.526343 -1.049575 0
-0.794324 0.027518 0.000895 0
-1.365201 0.097279 -0.493223 0
-1.409881 0.095430 -0.575594 0
-1.253177 0.079363 -0.443671 0
-1.503574 0.128820 -0.446521 0
-1.294745 0.073007 -0.644458 0
-1.329885 0.053035 -0.317599 0
-1.541757 0.152215 -0.611776 0
-1.151791 0.053584 -0.522898 0
-1.517145 0.112142 -0.309142 0
-1.395892 0.102738 -0.757425 0
-1.172939 0.057937 -0.315293 0
-1.691341 0.124862 -0.512956 0
-1.153010 0.061569 -0.678009 0
-1.404863 0.063649 -0.200367 0
-1.610244 0.101723 -0.789076 0
-1.056179 0.043611 -0.426632 0
-1.697810 0.106868 -0.322135 0
-1.207144 0.228324 -0.766344 0
-1.213374 0.036537 -0.189899 0
-1.829799 0.084811 -0.678666 0
-1.027269 0.045363 -0.613708 0
-1.489764 0.172243 -0.152064 0
-1.326372 0.390884 -0.764010 0
-1.034968 0.033257 -0.294041 0
-1.873838 0.106179 -0.429391 0
-1.069573 0.206092 -0.758364 0
-1.327053 0.035214 -0.085839 0
-1.820776 0.096183 -0.862389 0
-0.942509 0.037289 -0.489131 0
-1.489679 0.404072 -0.173635 0
-1.165322 0.438429 -0.784190 0
-1.084080 0.028321 -0.154071 0
-2.008029 0.097563 -0.619272 0
-0.972414 0.067157 -0.727523 0
-1.487397 0.069654 -0.029000 0
-1.462357 0.400751 -0.839954 0
-0.916395 0.032758 -0.334516 0
-1.914117 0.144880 -0.286397 0
-1.016214 0.431341 -0.768814 0
-1.201302 0.031253 -0.029914 0
-0.870881 0.043833 -0.589511 0
-1.514928 0.327187 -0.057611 0
-1.267141 0.453114 -0.874518 0
-0.955431 0.032347 -0.172670 0
-2.155120 0.086217 -0.498017 0
-0.940328 0.200732 -0.804265 0
-1.387744 0.032622 0.057982 0
-1.903052 0.122448 -1.056131 0
-0.823485 0.039007 -0.415544 0
-1.520001 0.543626 -0.139611 0
-1.100614 0.419229 -0.891001 0
-1.065346 0.025320 -0.021985 0
-0.839183 0.053056 -0.716594 0
-1.512748 0.207272 0.058330 0
-1.388960 0.490903 -0.922405 0
-0.841855 0.035410 -0.232320 0
-2.194122 0.106553 -0.324129 0
-0.916440 0.434792 -0.806472 0
-1.240581 0.032511 0.098062 0
-0.761667 0.033269 -0.530413 0
-1.518476 0.488460 -0.026955 0
-1.233639 0.405387 -1.010718 0
-0.929533 0.030651 -0.056275 0
-0.843172 0.089588 -0.850650 0
-1.484042 0.039482 0.167704 0
-1.478751 0.583522 -0.890185 0
-0.749109 0.037250 -0.325120 0
-1.498717 0.699486 -0.146108 0
-1.002820 0.424519 -0.936420 0
-1.089115 0.025966 0.097550 0
-0.729205 0.049171 -0.664776 0
-1.529203 0.359580 0.093436 0
-1.354144 0.473729 -1.046514 0
-0.808913 0.028079 -0.125195 0
-0.874237 0.190213 -0.954760 0
-1.317228 0.034348 0.208315 0
-0.681605 0.034543 -0.446564 0
-1.512304 0.635567 -0.032720 0
-1.123461 0.436746 -1.049244 0
-0.938877 0.031736 0.057143 0
-0.735131 0.043537 -0.827388 0
-1.506166 0.197866 0.211191 0
-1.436449 0.599482 -0.992075 0
-0.706204 0.033277 -0.224353 0
-1.494373 0.810072 -0.174884 0
-0.902123 0.415194 -0.955480 0
-1.143657 0.033769 0.206671 0
-0.642080 0.042400 -0.589829 0
-1.524662 0.522340 0.089394 0
-1.214933 0.556520 -1.049543 0
-0.804449 0.031248 -0.015418 0
-1.367757 0.094277 -0.513565 0
-1.413284 0.089928 -0.597821 0
-1.254075 0.079673 -0.461542 0
-1.503527 0.131723 -0.467145 0
-1.294021 0.072293 -0.663964 0
-1.335346 0.047875 -0.336985 0
-1.545740 0.147117 -0.635946 0
-1.155812 0.043112 -0.542454 0
-1.525740 0.104554 -0.331139 0
-1.379702 0.127142 -0.767923 0
-1.176082 0.055990 -0.332112 0
-1.695411 0.122463 -0.537781 0
-1.150186 0.063645 -0.694646 0
-1.405991 0.069107 -0.219660 0
-1.590422 0.127091 -0.801837 0
-1.056310 0.045449 -0.441565 0
-1.703674 0.104660 -0.346053 0
-1.198850 0.239050 -0.779261 0
-1.218140 0.034636 -0.206977 0
-1.835161 0.080148 -0.707516 0
-1.025111 0.047146 -0.628555 0
-1.496649 0.169423 -0.172203 0
-1.319187 0.397981 -0.779570 0
-1.037681 0.032004 -0.308930 0
-1.869966 0.114575 -0.454098 0
-1.054637 0.236290 -0.760343 0
-1.335016 0.030244 -0.104074 0
-2.089911 -0.209584 -1.047362 0
-0.942358 0.036784 -0.503121 0
-1.491048 0.407830 -0.192729 0
-1.162549 0.437056 -0.802123 0
-1.086396 0.033438 -0.169320 0
-2.017617 0.091044 -0.650794 0
-0.969888 0.064730 -0.743473 0
-1.489798 0.075891 -0.049841 0
-1.451547 0.411325 -0.855332 0
-0.917235 0.035980 -0.347319 0
-1.946174 0.117974 -0.315696 0
-1.009032 0.438920 -0.779277 0
-1.209247 0.026214 -0.046262 0
-0.869686 0.041327 -0.603380 0
-1.505312 0.346457 -0.078630 0
-1.267144 0.447104 -0.897917 0
-0.958544 0.034446 -0.186180 0
-2.159080 0.087156 -0.528560 0
-0.929864 0.222138 -0.808019 0
-1.392855 0.036290 0.038331 0
-0.825008 0.032580 -0.428744 0
-1.494430 0.574606 -0.158665 0
-1.104499 0.400601 -0.920563 0
-1.067515 0.035689 -0.037824 0
-0.837431 0.044001 -0.733167 0
-1.513596 0.215965 0.036973 0
-1.389456 0.485811 -0.947774 0
-0.843747 0.040101 -0.244108 0
-2.203436 0.104398 -0.354901 0
-0.911821 0.433692 -0.820674 0
-1.252337 0.022836 0.082410 0
-0.760799 0.031100 -0.542423 0
-1.514947 0.498700 -0.047056 0
-1.226490 0.407924 -1.028564 0
-0.933771 0.034055 -0.069642 0
-0.840969 0.073890 -0.871938 0
-1.487649 0.047394 0.145676 0
-1.468610 0.591545 -0.906326 0
-0.751077 0.033222 -0.336474 0
-1.491560 0.709940 -0.164102 0
-1.009474 0.392000 -0.975682 0
-1.094726 0.030240 0.081551 0
-0.726951 0.042371 -0.678473 0
-1.519404 0.380057 0.069706 0
-1.347360 0.475944 -1.066613 0
-0.812295 0.032519 -0.136844 0
-0.875615 0.155017 -0.990486 0
-1.320288 0.045373 0.187424 0
-0.681531 0.033157 -0.456988 0
-1.502031 0.650519 -0.052825 0
-1.112437 0.445147 -1.060614 0
-0.945175 0.032472 0.043743 0
-0.729885 0.045142 -0.838660 0
-1.499364 0.219528 0.185407 0
-1.456042 0.574920 -1.037909 0
-0.709342 0.029179 -0.234769 0
-1.502048 0.807847 -0.192582 0
-0.888023 0.439704 -0.951781 0
-1.153570 0.030075 0.191501 0
-0.639731 0.046756 -0.598414 0
-1.516745 0.537823 0.067007 0
-1.202959 0.565364 -1.061105 0
-0.810283 0.029191 -0.026737 0
-1.367489 0.088343 -0.532062 0
-1.411641 0.085272 -0.616973 0
-1.250660 0.080237 -0.477008 0
-1.498562 0.134594 -0.484859 0
-1.290262 0.069453 -0.681444 0
-1.329380 0.055744 -0.352501 0
-1.541492 0.146651 -0.655264 0
-1.151236 0.044401 -0.556781 0
-1.522070 0.107399 -0.349355 0
-1.348517 0.170452 -0.766128 0
-1.174651 0.054973 -0.346849 0
-1.691801 0.122519 -0.558568 0
-1.138306 0.079332 -0.703612 0
-1.398382 0.081072 -0.236301 0
-1.533945 0.195938 -0.789402 0
-1.055639 0.038203 -0.456331 0
-1.695829 0.112138 -0.365691 0
-1.161182 0.303139 -0.762779 0
-1.215622 0.039117 -0.221934 0
-1.833079 0.076841 -0.731785 0
-1.019505 0.048811 -0.641287 0
-1.487655 0.182142 -0.189921 0
-1.301530 0.415524 -0.785837 0
-1.035438 0.033900 -0.321764 0
-1.868147 0.113601 -0.477084 0
-1.044262 0.246994 -0.768648 0
-1.333948 0.033229 -0.120710 0
-1.608351 0.330089 -0.790140 0
-0.938284 0.037883 -0.514956 0
-1.497776 0.399281 -0.210137 0
-1.156781 0.435859 -0.817172 0
-1.086593 0.032450 -0.182903 0
-2.012829 0.091525 -0.675577 0
-0.953505 0.101415 -0.741342 0
-1.492360 0.073369 -0.067926 0
-1.410825 0.454544 -0.845592 0
-0.914985 0.036641 -0.358852 0
-1.951983 0.110536 -0.340148 0
-1.000854 0.443146 -0.789222 0
-1.209440 0.028338 -0.061508 0
-0.865516 0.037353 -0.615991 0
-1.511531 0.339492 -0.095697 0
-1.265030 0.439359 -0.919320 0
-0.957955 0.035473 -0.198206 0
-2.152521 0.090184 -0.554134 0
-0.912579 0.259412 -0.801233 0
-1.393386 0.038679 0.020717 0
-1.874636 0.141891 -1.098493 0
-0.822757 0.027943 -0.440222 0
-1.490867 0.578138 -0.175136 0
-1.101962 0.389531 -0.942450 0
-1.068674 0.035984 -0.051236 0
-0.830962 0.044054 -0.744454 0
-1.512097 0.220386 0.018220 0
-1.414592 0.444860 -0.997249 0
-0.842766 0.040213 -0.254778 0
-0.905162 0.432250 -0.833001 0
-1.253963 0.024539 0.066402 0
-0.755933 0.034965 -0.551436 0
-1.504748 0.510575 -0.065308 0
-1.217826 0.408099 -1.044636 0
-0.934665 0.034343 -0.081446 0
-0.833979 0.068364 -0.886379 0
-1.491740 0.045400 0.127528 0
-1.454267 0.599745 -0.917739 0
-0.749003 0.033625 -0.346074 0
-1.497208 0.704897 -0.180202 0
-0.983502 0.437181 -0.955887 0
-1.098505 0.026684 0.068260 0
-0.720984 0.042364 -0.688341 0
-1.506633 0.397586 0.048679 0
-1.315940 0.506916 -1.056969 0
-0.812422 0.033258 -0.147178 0
-0.877628 0.103663 -1.034494 0
-1.329311 0.034448 0.173282 0
-0.678123 0.032635 -0.466042 0
-1.508596 0.645150 -0.068632 0
-1.097285 0.457206 -1.065337 0
-0.948391 0.028519 0.032247 0
-0.722891 0.037333 -0.852634 0
-1.506107 0.214496 0.168510 0
-1.443713 0.579954 -1.051951 0
-0.708376 0.030254 -0.243829 0
-1.371206 0.906750 -0.202196 0
-0.889762 0.404007 -0.990067 0
-1.160346 0.022117 0.178617 0
-0.634818 0.041991 -0.608493 0
-1.508711 0.547956 0.047662 0
-1.185591 0.578615 -1.064346 0
-0.811656 0.029922 -0.037165 0
-1.365065 0.080071 -0.545670 0
-1.407480 0.078890 -0.630842 0
-1.244985 0.078883 -0.487645 0
-1.492235 0.133889 -0.497675 0
-1.283105 0.067116 -0.692947 0
-1.322910 0.057989 -0.363422 0
-1.549803 0.122899 -0.676901 0
-1.142241 0.049559 -0.564771 0
-1.517242 0.106205 -0.362569 0
-1.341563 0.166768 -0.778830 0
-1.169455 0.055464 -0.356493 0
-1.682920 0.123697 -0.572686 0
-1.124372 0.093704 -0.707334 0
-1.392958 0.082964 -0.248181 0
-1.514414 0.209637 -0.795501 0
-1.049785 0.038046 -0.464872 0
-1.694793 0.105655 -0.381409 0
-1.132511 0.344783 -0.751031 0
-1.211122 0.040508 -0.232110 0
-1.827812 0.071556 -0.749664 0
-1.011898 0.048715 -0.649432 0
-1.491556 0.170586 -0.203040 0
-1.287637 0.423126 -0.791664 0
-1.030632 0.034587 -0.330068 0
-1.863617 0.110156 -0.494151 0
-1.033822 0.252013 -0.774306 0
-1.333763 0.027434 -0.132122 0
-1.590678 0.339291 -0.798342 0
-0.932197 0.036786 -0.522577 0
-1.482385 0.412825 -0.222027 0
-1.151052 0.429931 -0.829633 0
-1.083327 0.032275 -0.191899 0
-2.006418 0.088069 -0.694317 0
-0.943256 0.108082 -0.746021 0
-1.491909 0.069377 -0.080861 0
-1.397870 0.458809 -0.853919 0
-0.910273 0.036185 -0.366085 0
-1.945147 0.110604 -0.357419 0
-0.992915 0.441844 -0.797382 0
-1.208361 0.025323 -0.071681 0
-0.857923 0.038885 -0.622175 0
-1.502738 0.346506 -0.109034 0
-1.260828 0.430250 -0.935619 0
-0.954944 0.034362 -0.205924 0
-2.145857 0.087792 -0.573758 0
-0.898720 0.278415 -0.798363 0
-1.391331 0.038832 0.008357 0
-2.420538 -0.451612 -1.524343 0
-0.816676 0.031090 -0.445886 0
-1.485668 0.579528 -0.187432 0
-1.096432 0.379732 -0.957754 0
-1.068447 0.030628 -0.059788 0
-0.821953 0.046857 -0.749693 0
-1.507731 0.223380 0.004473 0
-1.420503 0.423215 -1.025472 0
-0.839291 0.038830 -0.261364 0
-2.192102 0.105719 -0.400998 0
-0.898397 0.425491 -0.843770 0
-1.254318 0.021037 0.055926 0
-2.056159 0.178030 -1.079115 0
-0.749239 0.035690 -0.556845 0
-1.509767 0.502062 -0.077349 0
-1.205127 0.410776 -1.052022 0
-0.932577 0.034127 -0.088983 0
-0.822671 0.076429 -0.888751 0
-1.491163 0.044378 0.114192 0
-1.443879 0.599910 -0.928808 0
-0.744760 0.030860 -0.351964 0
-1.496615 0.701917 -0.192506 0
-0.975761 0.431066 -0.967764 0
-1.097269 0.027504 0.058738 0
-0.712605 0.046836 -0.692031 0
-1.508470 0.393166 0.036298 0
-1.300470 0.512653 -1.062075 0
-0.809739 0.033422 -0.153443 0
-0.870039 0.086141 -1.052261 0
-1.328580 0.035088 0.161201 0
-2.032856 0.247254 -1.225053 0
-0.672284 0.034156 -0.470570 0
-1.508423 0.642505 -0.081045 0
-1.090838 0.447619 -1.081993 0
-0.945665 0.035046 0.023600 0
-0.713038 0.040127 -0.856734 0
-1.509699 0.208394 0.156411 0
-1.426876 0.585833 -1.057504 0
-0.704899 0.029584 -0.249043 0
-2.194057 0.277785 -0.261092 0
-0.904898 0.312922 -1.064785 0
-1.159992 0.022989 0.168218 0
-0.627668 0.042470 -0.612788 0
-1.507921 0.546775 0.034842 0
-1.166800 0.590565 -1.061769 0
-0.809780 0.031749 -0.043658 0
-1.349565 0.083041 -0.550718 0
-1.394236 0.076032 -0.637569 0
-1.231343 0.081005 -0.492388 0
-1.475231 0.138100 -0.503529 0
-1.264658 0.074955 -0.694849 0
-1.307792 0.063809 -0.368825 0
-1.522730 0.138510 -0.677565 0
-1.130802 0.045788 -0.570088 0
-1.501538 0.109758 -0.369716 0
-1.311520 0.192759 -0.771644 0
-1.155255 0.062758 -0.360608 0
-1.652463 0.141358 -0.575259 0
-1.103504 0.112190 -0.703982 0
-1.384637 0.077300 -0.255694 0
-1.487313 0.224124 -0.794008 0
-1.037732 0.039200 -0.468552 0
-1.679777 0.105677 -0.390287 0
-1.148338 0.283153 -0.785375 0
-1.197638 0.047507 -0.237544 0
-1.805507 0.074874 -0.756161 0
-1.000242 0.044063 -0.654165 0
-1.487231 0.159825 -0.211546 0
-1.264061 0.437282 -0.787440 0
-1.022138 0.028025 -0.334910 0
-1.846606 0.109503 -0.503787 0
-1.033332 0.216395 -0.794383 0
-1.321263 0.031617 -0.139271 0
-1.555016 0.360691 -0.792417 0
-0.921618 0.031932 -0.526710 0
-1.575461 0.285591 -0.237318 0
-1.138177 0.428315 -0.833677 0
-1.075094 0.028352 -0.196824 0
-1.976742 0.096921 -0.700233 0
-0.935365 0.087092 -0.757202 0
-1.485049 0.063054 -0.089125 0
-1.377111 0.465180 -0.853809 0
-0.900084 0.035383 -0.369312 0
-1.921953 0.116687 -0.367408 0
-0.979603 0.444048 -0.798445 0
-1.195556 0.033875 -0.078395 0
-2.024958 0.065524 -0.952131 0
-0.844586 0.044252 -0.622765 0
-1.512839 0.320368 -0.116694 0
-1.251060 0.421214 -0.945136 0
-0.946857 0.030041 -0.209829 0
-2.116433 0.095071 -0.582549 0
-0.875202 0.320194 -0.778985 0
-1.383850 0.035161 0.000733 0
-1.489838 0.518396 -0.858615 0
-0.806563 0.026823 -0.448979 0
-1.480751 0.573274 -0.195954 0
-1.086392 0.369605 -0.967203 0
-1.060699 0.028625 -0.064688 0
-0.809338 0.043001 -0.753008 0
-1.504462 0.214206 -0.003603 0
-1.413367 0.409598 -1.039537 0
-0.830467 0.036222 -0.264298 0
-2.174123 0.103419 -0.413792 0
-0.865513 0.495383 -0.801987 0
-1.243484 0.026475 0.048177 0
-2.035449 0.174177 -1.088434 0
-0.737934 0.033624 -0.559029 0
-1.519566 0.480258 -0.084732 0
-1.185561 0.417049 -1.049335 0
-0.924528 0.033726 -0.092786 0
-0.808970 0.073123 -0.891917 0
-1.483485 0.041821 0.105343 0
-1.430744 0.595888 -0.935432 0
-0.735078 0.029230 -0.354066 0
-1.487473 0.699951 -0.201008 0
-0.962427 0.429661 -0.970511 0
-1.089988 0.026719 0.053290 0
-0.700666 0.040249 -0.695590 0
-1.522617 0.364890 0.031604 0
-1.277047 0.522122 -1.055901 0
-0.801919 0.030075 -0.156107 0
-0.856632 0.074716 -1.060742 0
-1.316957 0.042514 0.151619 0
-2.000347 0.252919 -1.225468 0
-0.661775 0.031036 -0.472428 0
-1.514036 0.627492 -0.088954 0
-1.068049 0.463154 -1.070328 0
-0.937990 0.036758 0.019238 0
-0.699550 0.035203 -0.859990 0
-1.507772 0.199012 0.148780 0
-1.411119 0.583553 -1.062102 0
-0.695799 0.031288 -0.250664 0
-0.888390 0.319107 -1.061439 0
-1.150742 0.028876 0.160517 0
-0.616123 0.035328 -0.615703 0
-1.520285 0.524264 0.029507 0
-1.153893 0.586685 -1.067087 0
-0.801779 0.035252 -0.046790 0
-1.340464 0.066656 -0.556314 0
-1.371514 0.082575 -0.636302 0
-1.218435 0.073369 -0.495022 0
-1.462187 0.129626 -0.507815 0
-1.247515 0.072456 -0.695682 0
-1.290657 0.065945 -0.370492 0
-1.524611 0.105520 -0.691000 0
-1.112389 0.051129 -0.568561 0
-1.488402 0.102686 -0.373952 0
-1.297200 0.184453 -0.775046 0
-1.139025 0.066318 -0.361204 0
-1.626580 0.147321 -0.576068 0
-1.085130 0.116105 -0.701663 0
-1.377554 0.061785 -0.259739 0
-1.464036 0.227474 -0.792441 0
-1.020753 0.045413 -0.467168 0
-1.660591 0.104592 -0.394588 0
-1.102500 0.345904 -0.752825 0
-1.181424 0.052256 -0.239157 0
-1.760618 0.098436 -0.748280 0
-0.984496 0.042256 -0.653657 0
-1.493103 0.126967 -0.216870 0
-1.243696 0.441524 -0.784067 0
-1.004921 0.038878 -0.333972 0
-1.806525 0.128249 -0.503422 0
-1.011059 0.232897 -0.784861 0
-1.307289 0.030679 -0.142351 0
-1.537881 0.355282 -0.795414 0
-0.906976 0.030657 -0.526021 0
-1.583697 0.254294 -0.244052 0
-1.126266 0.418877 -0.837806 0
-1.061520 0.029445 -0.197918 0
-1.962843 0.083420 -0.708335 0
-0.917446 0.093183 -0.752874 0
-1.486731 0.035685 -0.092332 0
-1.361799 0.459435 -0.856256 0
-0.887245 0.031810 -0.369216 0
-1.890873 0.124983 -0.371960 0
-0.964523 0.444422 -0.796376 0
-1.181593 0.036204 -0.080954 0
-1.983376 0.077114 -0.946534 0
-0.830651 0.036975 -0.623284 0
-1.508779 0.306199 -0.121470 0
-1.229567 0.425442 -0.939841 0
-0.934129 0.030418 -0.210006 0
-2.100808 0.083270 -0.590856 0
-0.873458 0.267110 -0.804041 0
-1.368337 0.038340 -0.003818 0
-1.480613 0.504991 -0.866605 0
-0.791728 0.033006 -0.446428 0
-1.482947 0.555071 -0.201681 0
-1.054172 0.402982 -0.941271 0
-1.047833 0.031029 -0.066286 0
-0.793735 0.039947 -0.751844 0
-1.494436 0.208202 -0.008522 0
-1.395744 0.403969 -1.041086 0
-0.817985 0.035919 -0.263586 0
-2.162973 0.088648 -0.423250 0
-0.881070 0.390158 -0.865068 0
-1.231439 0.025807 0.045044 0
-2.013487 0.164885 -1.093590 0
-0.723842 0.030328 -0.557823 0
-1.511089 0.473369 -0.090251 0
-1.170173 0.410327 -1.051407 0
-0.913214 0.032448 -0.093061 0
-0.793628 0.063094 -0.894019 0
-1.478489 0.027520 0.102461 0
-1.420639 0.583764 -0.942870 0
-0.721582 0.034459 -0.351847 0
-1.411995 0.753707 -0.203857 0
-0.945669 0.431133 -0.966369 0
-1.078416 0.027421 0.051194 0
-0.686022 0.032252 -0.695784 0
-1.508903 0.364742 0.025130 0
-1.262490 0.514327 -1.059126 0
-0.789811 0.032992 -0.155428 0
-0.846189 0.032496 -1.083263 0
-1.309028 0.034494 0.149083 0
-1.960972 0.258707 -1.217186 0
-0.648280 0.028668 -0.470643 0
-1.510695 0.616589 -0.094449 0
-1.051020 0.461408 -1.068043 0
-0.926985 0.037643 0.018422 0
-0.682950 0.036236 -0.856289 0
-1.502907 0.187417 0.145079 0
-1.392721 0.579424 -1.061927 0
-0.683927 0.028639 -0.249192 0
-0.886083 0.261221 -1.100935 0
-1.139735 0.029369 0.157606 0
-0.601551 0.037027 -0.612354 0
-1.509420 0.521287 0.023042 0
-1.142247 0.575739 -1.073419 0
-0.791363 0.032611 -0.046074 0
-1.314977 0.072730 -0.547701 0
-1.354574 0.071265 -0.632213 0
-1.195402 0.079225 -0.487157 0
-1.438035 0.130801 -0.501245 0
-1.228563 0.065992 -0.689719 0
-1.270162 0.065638 -0.364987 0
-1.498338 0.106411 -0.682365 0
-1.095313 0.043269 -0.563390 0
-1.464992 0.103225 -0.368801 0
-1.280460 0.173924 -0.770826 0
-1.122679 0.059430 -0.356329 0
-1.606431 0.138891 -0.571631 0
-1.064827 0.117519 -0.692982 0
-1.359811 0.055672 -0.255536 0
-1.443923 0.220375 -0.786443 0
-1.003433 0.040986 -0.461358 0
-1.638184 0.099911 -0.390339 0
-1.089927 0.332221 -0.751335 0
-1.164116 0.048456 -0.234327 0
-1.744280 0.081387 -0.745953 0
-0.964216 0.046114 -0.644450 0
-1.501986 0.079694 -0.214751 0
-1.229464 0.431419 -0.780868 0
-0.987779 0.036085 -0.328276 0
-1.785345 0.118798 -0.499684 0
-0.995996 0.222439 -0.781262 0
-1.287876 0.029927 -0.138170 0
-1.522827 0.341680 -0.793000 0
-0.887885 0.034828 -0.517829 0
-1.489014 0.344759 -0.235893 0
-1.105047 0.423328 -0.825837 0
-1.040958 0.038027 -0.192537 0
-1.926716 0.085312 -0.698840 0
-0.902546 0.076957 -0.750955 0
-1.466387 0.033623 -0.089032 0
-1.340862 0.456599 -0.847739 0
-0.869036 0.035892 -0.362252 0
-1.875214 0.109460 -0.369906 0
-0.950675 0.436970 -0.792351 0
-1.167355 0.026526 -0.076073 0
-1.931732 0.092659 -0.925758 0
-0.813043 0.034333 -0.616303 0
-1.505705 0.282936 -0.118658 0
-1.205806 0.429734 -0.925812 0
-0.915989 0.035354 -0.204217 0
-2.056467 0.090717 -0.581599 0
-0.868233 0.216308 -0.821179 0
-1.349192 0.037492 -0.000601 0
-1.470947 0.486893 -0.867856 0
-0.775206 0.028448 -0.440340 0
-1.480254 0.535964 -0.200846 0
-1.025899 0.425695 -0.915327 0
-1.028292 0.038988 -0.062107 0
-0.775910 0.036489 -0.744641 0
-1.497749 0.174369 -0.002707 0
-1.377292 0.394932 -1.034863 0
-0.801191 0.037593 -0.257331 0
-2.117270 0.096950 -0.417166 0
-0.888381 0.301049 -0.910796 0
-1.215254 0.021608 0.049243 0
-0.705970 0.036372 -0.548768 0
-1.515653 0.445444 -0.087490 0
-1.157079 0.395432 -1.050815 0
-0.896800 0.032874 -0.087732 0
-0.776078 0.055368 -0.888350 0
-1.457717 0.028275 0.104427 0
-1.407361 0.570590 -0.941003 0
-0.705378 0.031438 -0.345535 0
-1.437836 0.712127 -0.204942 0
-0.931233 0.422792 -0.962193 0
-1.058562 0.036816 0.054039 0
-0.667944 0.038871 -0.685278 0
-1.504203 0.346199 0.028575 0
-1.250309 0.499236 -1.058925 0
-0.773934 0.032090 -0.149469 0
-0.826019 0.032986 -1.071713 0
-1.292359 0.031567 0.152454 0
-1.548688 0.603457 -0.915486 0
-0.631327 0.033861 -0.462396 0
-1.515570 0.592115 -0.092597 0
-1.040019 0.443419 -1.071049 0
-0.911258 0.037107 0.023488 0
-0.664630 0.038866 -0.845964 0
-1.499681 0.164008 0.151358 0
-1.380265 0.564505 -1.061183 0
-0.668006 0.026754 -0.242780 0
-0.887211 0.179490 -1.149663 0
-1.122681 0.030531 0.161001 0
-0.584496 0.042852 -0.602873 0
-1.504958 0.505336 0.025379 0
-1.128390 0.565313 -1.069949 0
-0.775151 0.037090 -0.040740 0
-1.285835 0.095836 -0.531388 0
-1.336051 0.072005 -0.620734 0
-1.178479 0.081520 -0.476970 0
-1.424883 0.122228 -0.493254 0
-1.211368 0.066621 -0.678027 0
-1.247289 0.079270 -0.354227 0
-1.485406 0.095452 -0.674264 0
-1.079027 0.045673 -0.552534 0
-1.439688 0.114295 -0.358287 0
-1.272644 0.155792 -0.766699 0
-1.106661 0.061941 -0.347165 0
-1.560867 0.171821 -0.551262 0
-1.052146 0.110788 -0.684595 0
-1.340961 0.059164 -0.246944 0
-1.422174 0.223841 -0.772026 0
-0.989143 0.040149 -0.452096 0
-1.601942 0.120641 -0.377846 0
-1.073661 0.336885 -0.738197 0
-1.146003 0.055819 -0.225754 0
-1.669840 0.143628 -0.707921 0
-0.950535 0.042789 -0.635001 0
-1.487359 0.073960 -0.206870 0
-1.217162 0.425584 -0.772442 0
-0.971433 0.043822 -0.318753 0
-1.727600 0.158533 -0.479953 0
-0.983848 0.216878 -0.772759 0
-1.263348 0.047690 -0.130729 0
-1.504861 0.338279 -0.781682 0
-0.873430 0.037404 -0.507643 0
-1.515575 0.288137 -0.232071 0
-1.083270 0.438908 -0.804911 0
-1.023496 0.048247 -0.184272 0
-1.865118 0.122110 -0.672085 0
-0.891846 0.061989 -0.745912 0
-1.431496 0.062523 -0.083214 0
-1.319912 0.460953 -0.831854 0
-0.853402 0.046348 -0.352151 0
-1.808783 0.155273 -0.354289 0
-0.941522 0.427953 -0.786928 0
-1.146561 0.041350 -0.069341 0
-1.865920 0.132130 -0.888503 0
-0.798239 0.041834 -0.604067 0
-1.527146 0.231450 -0.110088 0
-1.180669 0.445584 -0.901369 0
-0.900761 0.042527 -0.195861 0
-1.998541 0.118840 -0.561473 0
-0.870171 0.149606 -0.843199 0
-1.325186 0.052618 0.004802 0
-1.460677 0.475221 -0.861480 0
-0.760773 0.037129 -0.429733 0
-1.505440 0.490192 -0.196723 0
-1.010701 0.429821 -0.900108 0
-1.014824 0.037516 -0.054255 0
-0.761653 0.041916 -0.731835 0
-1.491684 0.158392 0.005520 0
-1.353133 0.401813 -1.013490 0
-0.788532 0.034446 -0.249130 0
-2.042057 0.139718 -0.399766 0
-0.900165 0.205277 -0.956802 0
-1.194058 0.036188 0.054346 0
-0.692939 0.036418 -0.539335 0
-1.516834 0.424754 -0.080913 0
-1.149321 0.379884 -1.047861 0
-0.882118 0.039104 -0.080178 0
-0.763564 0.047748 -0.880330 0
-1.425480 0.054374 0.106186 0
-1.422582 0.530613 -0.957759 0
-0.691972 0.037191 -0.336255 0
-1.485652 0.652054 -0.202858 0
-0.919472 0.420460 -0.951362 0
-1.043666 0.040003 0.060980 0
-0.654997 0.038998 -0.675191 0
-1.512094 0.315572 0.038712 0
-1.240962 0.487413 -1.053012 0
-0.760667 0.034396 -0.141382 0
-0.811025 0.037461 -1.055399 0
-1.270279 0.045874 0.156116 0
-1.520205 0.608680 -0.895258 0
-0.618613 0.033181 -0.453585 0
-1.513422 0.577481 -0.087355 0
-1.031129 0.431490 -1.066264 0
-0.897803 0.038219 0.031030 0
-0.652158 0.029448 -0.839167 0
-1.515133 0.117235 0.168222 0
-1.379484 0.541893 -1.064610 0
-0.655106 0.028727 -0.234330 0
-2.204643 0.177948 -0.281425 0
-0.893647 0.091427 -1.198999 0
-1.108227 0.031687 0.167922 0
-0.571933 0.039741 -0.594375 0
-1.510536 0.481727 0.033698 0
-1.126459 0.542656 -1.075385 0
-0.762665 0.034588 -0.032578 0
-1.265614 0.100735 -0.514209 0
-1.310851 0.083947 -0.599905 0
-1.168450 0.066240 -0.464716 0
-1.402182 0.127867 -0.476354 0
-1.194670 0.064355 -0.661212 0
-1.229428 0.081953 -0.339427 0
-1.457078 0.106493 -0.652333 0
-1.059732 0.055638 -0.533894 0
-1.419857 0.116093 -0.343663 0
-1.271645 0.121367 -0.763050 0
-1.094503 0.053141 -0.333699 0
-1.558817 0.144975 -0.542342 0
-1.046225 0.081761 -0.678016 0
-1.328892 0.049345 -0.233425 0
-1.411917 0.207804 -0.760624 0
-0.972743 0.045673 -0.435866 0
-1.563222 0.144704 -0.359793 0
-1.081348 0.283023 -0.747212 0
-1.133594 0.048434 -0.212155 0
-1.633924 0.157908 -0.683586 0
-0.936351 0.039488 -0.619391 0
-1.470760 0.070794 -0.193363 0
-1.210629 0.407720 -0.764937 0
-0.957862 0.040906 -0.304678 0
-1.716099 0.143791 -0.467403 0
-0.985446 0.164922 -0.779241 0
-1.244330 0.054270 -0.117567 0
-1.505138 0.309468 -0.777496 0
-0.859984 0.033744 -0.492986 0
-1.512243 0.268296 -0.221055 0
-1.066346 0.443037 -0.785466 0
-1.009332 0.047856 -0.170582 0
-1.806859 0.155031 -0.641577 0
-0.879030 0.053500 -0.731785 0
-1.425819 0.042735 -0.068919 0
-1.307123 0.451805 -0.818813 0
-0.840411 0.042689 -0.338165 0
-1.796665 0.141697 -0.341618 0
-0.950899 0.361234 -0.807920 0
-1.133187 0.037673 -0.055770 0
-1.892673 0.070645 -0.896901 0
-0.784938 0.038385 -0.589054 0
-1.508183 0.232873 -0.098767 0
-1.172410 0.429960 -0.892586 0
-0.887348 0.041504 -0.182075 0
-1.948087 0.139281 -0.538294 0
-0.867059 0.098305 -0.850062 0
-1.314843 0.041862 0.018944 0
-1.449659 0.461747 -0.850252 0
-0.747923 0.032812 -0.415656 0
-1.486456 0.491432 -0.187007 0
-0.976829 0.478830 -0.849412 0
-0.998438 0.045848 -0.041598 0
-2.017970 0.128757 -0.796272 0
-0.747963 0.041425 -0.715016 0
-1.500245 0.120468 0.022267 0
-1.320931 0.418022 -0.978940 0
-0.775011 0.036191 -0.235015 0
-1.990439 0.160871 -0.381134 0
-0.899558 0.149604 -0.970332 0
-1.180398 0.033735 0.067704 0
-0.679902 0.034657 -0.524408 0
-1.522197 0.398673 -0.069238 0
-1.128192 0.387447 -1.020190 0
-0.868950 0.038337 -0.066593 0
-0.750404 0.041692 -0.864706 0
-1.403152 0.064923 0.116374 0
-1.404803 0.525001 -0.940111 0
-0.679281 0.033420 -0.322362 0
-1.491432 0.629613 -0.195192 0
-0.916309 0.388147 -0.955322 0
-1.029957 0.039988 0.074125 0
-0.641978 0.038127 -0.659256 0
-1.515633 0.290026 0.053085 0
-1.249004 0.445222 -1.065712 0
-0.747792 0.033227 -0.127594 0
-0.794348 0.050306 -1.026916 0
-1.255227 0.046582 0.168527 0
-1.504549 0.599530 -0.880925 0
-0.605773 0.033606 -0.438747 0
-1.515404 0.558392 -0.077672 0
-1.023197 0.413844 -1.059023 0
-0.884265 0.039986 0.044166 0
-0.638956 0.028812 -0.821693 0
-1.520048 0.085467 0.187499 0
-1.385182 0.507526 -1.071146 0
-0.642178 0.030150 -0.220263 0
-2.162189 0.186809 -0.267186 0
-0.884739 0.061658 -1.196797 0
-1.092571 0.036986 0.179714 0
-0.559279 0.037495 -0.579574 0
-1.512773 0.461583 0.045812 0
-1.124920 0.515349 -1.077561 0
-0.749423 0.037526 -0.019259 0
-1.259324 0.081601 -0.496659 0
-1.302487 0.068303 -0.581051 0
-1.153141 0.067888 -0.443142 0
-1.392725 0.114949 -0.456967 0
-1.184430 0.052917 -0.641420 0
-1.218098 0.073810 -0.319908 0
-1.447811 0.091695 -0.632429 0
-1.049544 0.045130 -0.514992 0
-1.407464 0.108420 -0.323552 0
-1.269834 0.092803 -0.749831 0
-1.081519 0.050340 -0.313971 0
-1.539270 0.144885 -0.518772 0
-1.037503 0.067581 -0.660265 0
-1.311412 0.052207 -0.212896 0
-1.431748 0.148437 -0.761148 0
-0.961531 0.038924 -0.416817 0
-1.554599 0.130391 -0.340062 0
-1.109689 0.182663 -0.770603 0
-1.120385 0.045621 -0.192662 0
-1.625580 0.140926 -0.663731 0
-0.921282 0.049604 -0.594805 0
-1.462466 0.056185 -0.172879 0
-1.238618 0.333589 -0.780801 0
-0.942455 0.049962 -0.284623 0
-1.693544 0.144670 -0.443690 0
-0.985468 0.124513 -0.774138 0
-1.229772 0.053231 -0.098044 0
-1.561820 0.209840 -0.800191 0
-0.847350 0.035849 -0.472423 0
-1.500877 0.260332 -0.202564 0
-1.061595 0.426873 -0.772650 0
-0.994630 0.052162 -0.151749 0
-1.771252 0.167338 -0.611014 0
-0.866999 0.054265 -0.709169 0
-1.399371 0.059798 -0.050303 0
-1.297103 0.442434 -0.799869 0
-0.828312 0.041469 -0.319342 0
-1.768512 0.148125 -0.318439 0
-0.951642 0.325754 -0.805348 0
-1.114927 0.048265 -0.037632 0
-1.862533 0.073518 -0.863354 0
-0.774055 0.033954 -0.569833 0
-1.524143 0.187741 -0.077400 0
-1.152441 0.440529 -0.860816 0
-0.873913 0.044447 -0.163561 0
-1.913901 0.146955 -0.510490 0
-0.859762 0.078842 -0.835786 0
-1.295975 0.048677 0.037389 0
-1.446383 0.442009 -0.836231 0
-0.736151 0.033052 -0.396596 0
-1.513736 0.442225 -0.171261 0
-0.966564 0.477586 -0.828062 0
-0.986421 0.040816 -0.022546 0
-2.012014 0.105516 -0.775469 0
-0.736358 0.047225 -0.691577 0
-1.498754 0.097489 0.044731 0
-1.276587 0.457962 -0.922032 0
-0.763003 0.034195 -0.216781 0
-2.011478 0.115298 -0.363812 0
-0.895577 0.119250 -0.962610 0
-1.161890 0.043531 0.085078 0
-1.616990 0.434004 -0.830997 0
-0.668595 0.037810 -0.504353 0
-1.512133 0.391130 -0.052311 0
-1.107834 0.401127 -0.982809 0
-0.855385 0.041506 -0.048598 0
-0.739524 0.044263 -0.840423 0
-1.400153 0.042438 0.140314 0
-1.403760 0.502983 -0.928622 0
-0.667673 0.031958 -0.304273 0
-1.512995 0.592496 -0.181270 0
-0.900870 0.405373 -0.919634 0
-1.017123 0.037160 0.093258 0
-0.631325 0.043151 -0.637494 0
-1.506175 0.281459 0.071621 0
-1.239506 0.434647 -1.044733 0
-0.735137 0.034869 -0.109683 0
-0.787046 0.028530 -1.013693 0
-1.241803 0.043663 0.188313 0
-1.520300 0.561971 -0.881503 0
-0.594772 0.030542 -0.420865 0
-1.524012 0.533070 -0.060596 0
-1.007939 0.422289 -1.025223 0
-0.871434 0.038464 0.062651 0
-0.628761 0.034735 -0.797300 0
-1.488117 0.108892 0.200398 0
-1.389773 0.477394 -1.066014 0
-0.630307 0.028277 -0.202529 0
-1.056710 1.093016 -0.192677 0
-0.876154 0.049301 -1.176024 0
-1.077917 0.038853 0.198129 0
-0.548974 0.038396 -0.560339 0
-1.524161 0.431385 0.067190 0
-1.128966 0.483084 -1.077408 0
-0.737004 0.035016 -0.001102 0
-1.243218 0.089819 -0.467679 0
-1.272805 0.102014 -0.543339 0
-1.139446 0.074092 -0.416001 0
-1.378727 0.115717 -0.429352 0
-1.173602 0.051558 -0.613234 0
-1.208641 0.068469 -0.294875 0
-1.432529 0.092865 -0.601757 0
-1.035332 0.057267 -0.486130 0
-1.401463 0.095721 -0.298295 0
-1.263965 0.079673 -0.724514 0
-1.071446 0.047972 -0.289365 0
-1.527351 0.139750 -0.490995 0
-1.030937 0.057589 -0.636079 0
-1.303095 0.043478 -0.187225 0
-1.446891 0.101067 -0.749176 0
-0.949196 0.048299 -0.390622 0
-1.542964 0.125361 -0.313245 0
-1.099688 0.182594 -0.742156 0
-1.111889 0.037887 -0.168135 0
-1.607367 0.142086 -0.631523 0
-0.913641 0.044009 -0.570454 0
-1.447932 0.057094 -0.146382 0
-1.270185 0.256924 -0.790424 0
-0.933327 0.046150 -0.261191 0
-1.686380 0.132054 -0.416687 0
-0.987818 0.087182 -0.761873 0
-1.222060 0.043416 -0.072601 0
-1.557630 0.192970 -0.774981 0
-0.838225 0.036846 -0.447886 0
-1.511802 0.226753 -0.178652 0
-1.059139 0.412584 -0.754230 0
-0.985280 0.047401 -0.128123 0
-1.782597 0.132438 -0.589769 0
-0.860018 0.048784 -0.684435 0
-1.388070 0.056358 -0.024360 0
-1.294148 0.427757 -0.779277 0
-0.818633 0.042991 -0.296053 0
-1.735922 0.164916 -0.288481 0
-0.953548 0.296205 -0.794325 0
-1.103820 0.047060 -0.013432 0
-1.816243 0.100555 -0.812852 0
-0.765551 0.037244 -0.544373 0
-1.522827 0.170166 -0.051206 0
-1.152383 0.421424 -0.843967 0
-0.864609 0.040013 -0.140619 0
-1.895406 0.144003 -0.479307 0
-0.853398 0.073543 -0.810075 0
-1.283406 0.048703 0.062420 0
-1.444259 0.425055 -0.815121 0
-0.726883 0.038450 -0.372826 0
-1.512017 0.428509 -0.149409 0
-0.967750 0.455255 -0.815929 0
-0.974380 0.044219 0.000480 0
-1.985304 0.107368 -0.737197 0
-0.729266 0.046825 -0.666314 0
-1.511063 0.057680 0.076926 0
-1.254881 0.471257 -0.881353 0
-0.753783 0.030798 -0.194435 0
-1.943025 0.160748 -0.327337 0
-0.887066 0.124930 -0.929303 0
-1.149212 0.045369 0.109126 0
-1.599225 0.432208 -0.799109 0
-0.661146 0.033097 -0.482193 0
-1.525559 0.359348 -0.026751 0
-1.107417 0.381992 -0.965130 0
-0.844936 0.040712 -0.025874 0
-0.733548 0.040098 -0.814906 0
-1.382770 0.050033 0.164275 0
-1.394809 0.494606 -0.901717 0
-0.658882 0.030178 -0.282333 0
-1.511278 0.580487 -0.161520 0
-0.936563 0.264344 -0.985048 0
-1.002692 0.046947 0.115088 0
-0.624658 0.041144 -0.614143 0
-1.536743 0.224082 0.106798 0
-1.236518 0.419604 -1.022290 0
-0.725249 0.032961 -0.087544 0
-0.776895 0.055827 -0.967936 0
-1.227062 0.048970 0.211912 0
-1.528789 0.534390 -0.868454 0
-0.586850 0.027089 -0.399277 0
-1.526533 0.516857 -0.038744 0
-1.004119 0.412191 -1.001794 0
-0.859691 0.041777 0.084958 0
-0.623001 0.032604 -0.772330 0
-1.502743 0.066169 0.237729 0
-1.400650 0.443339 -1.057891 0
-0.621052 0.023843 -0.180994 0
-1.503969 0.704026 -0.196310 0
-0.869860 0.048298 -1.142140 0
-1.065387 0.040793 0.221903 0
-0.542046 0.032522 -0.539183 0
-1.529574 0.410911 0.092876 0
-1.132694 0.457310 -1.065582 0
-0.726290 0.035726 0.020884 0
-1.235428 0.090227 -0.439091 0
-1.278633 0.075157 -0.520582 0
-1.130476 0.078948 -0.388100 0
-1.375080 0.106686 -0.401522 0
-1.163595 0.060197 -0.581151 0
-1.204528 0.059447 -0.268345 0
-1.422686 0.094214 -0.569389 0
-1.033916 0.043015 -0.462263 0
-1.396287 0.088478 -0.269967 0
-1.259287 0.075236 -0.694444 0
-1.061535 0.055429 -0.262900 0
-1.519822 0.135847 -0.460537 0
-1.025980 0.057285 -0.608026 0
-1.293759 0.043769 -0.159265 0
-1.437549 0.101791 -0.714869 0
-0.944086 0.044638 -0.365892 0
-1.523884 0.137486 -0.282147 0
-1.114523 0.133258 -0.733572 0
-1.100848 0.045461 -0.142214 0
-1.582458 0.160316 -0.591882 0
-0.909962 0.040010 -0.545198 0
-1.442796 0.048689 -0.117009 0
-1.305749 0.181300 -0.795224 0
-0.926504 0.045993 -0.236767 0
-1.676014 0.130002 -0.384632 0
-0.990612 0.064678 -0.742025 0
-1.212910 0.043273 -0.045728 0
-1.595907 0.127740 -0.768605 0
-0.833441 0.035228 -0.423624 0
-1.507734 0.218223 -0.150899 0
-1.081440 0.353369 -0.757926 0
-0.977374 0.047266 -0.103549 0
-1.776805 0.123804 -0.556804 0
-0.857608 0.043887 -0.659297 0
-1.381916 0.049234 0.004709 0
-1.320700 0.376992 -0.776726 0
-0.813079 0.039491 -0.272888 0
-1.411204 0.526026 -0.232576 0
-0.963086 0.257249 -0.786681 0
-1.095704 0.044561 0.012502 0
-1.783698 0.121579 -0.764289 0
-0.761623 0.037476 -0.519846 0
-1.512050 0.170435 -0.023181 0
-1.143377 0.428589 -0.810074 0
-0.857384 0.038598 -0.117088 0
-1.905171 0.118692 -0.449294 0
-0.854364 0.057045 -0.789162 0
-1.275712 0.043975 0.090581 0
-1.464920 0.387193 -0.804065 0
-0.721977 0.036028 -0.350263 0
-1.522541 0.404720 -0.123609 0
-0.968474 0.446191 -0.794838 0
-0.966049 0.042658 0.025118 0
-1.988478 0.087742 -0.704501 0
-0.727005 0.043734 -0.642227 0
-1.503477 0.052385 0.107253 0
-1.239825 0.483705 -0.841615 0
-0.746325 0.036065 -0.171828 0
-1.955717 0.133495 -0.295967 0
-0.888426 0.112002 -0.906402 0
-1.141263 0.040674 0.136295 0
-1.621948 0.395171 -0.785521 0
-0.657383 0.030493 -0.459831 0
-1.511526 0.363923 -0.001921 0
-1.086785 0.416723 -0.909614 0
-0.837480 0.035977 -0.002118 0
-0.732550 0.036691 -0.789394 0
-1.377108 0.040976 0.194888 0
-1.392579 0.485728 -0.874174 0
-0.653259 0.027443 -0.260646 0
-1.523309 0.558406 -0.137915 0
-0.871979 0.476549 -0.819437 0
-0.993375 0.046213 0.140089 0
-0.622293 0.038595 -0.591444 0
-1.519774 0.232546 0.132155 0
-1.214397 0.445834 -0.967716 0
-0.717783 0.030983 -0.065257 0
-0.777977 0.045371 -0.943943 0
-1.216705 0.048815 0.239096 0
-0.582360 0.030767 -0.377110 0
-1.516541 0.516737 -0.015335 0
-0.987924 0.447013 -0.945023 0
-0.850164 0.043533 0.108147 0
-0.622034 0.032267 -0.747285 0
-1.495170 0.060523 0.268859 0
-1.414030 0.414324 -1.043487 0
-0.614270 0.026727 -0.159699 0
-1.494656 0.702759 -0.174806 0
-0.872434 0.035406 -1.116606 0
-1.054888 0.041456 0.247573 0
-0.539152 0.029708 -0.517881 0
-1.516744 0.414105 0.116783 0
-1.151146 0.415024 -1.066283 0
-0.718106 0.031607 0.043684 0
-1.231140 0.085652 -0.411574 0
-1.263026 0.093688 -0.486662 0
-1.128209 0.069468 -0.362498 0
-1.371371 0.099833 -0.373154 0
-1.157968 0.061145 -0.551793 0
-1.197663 0.058934 -0.241075 0
-1.396116 0.125723 -0.529413 0
-1.027629 0.047007 -0.434738 0
-1.390134 0.084913 -0.241164 0
-1.254873 0.072874 -0.663934 0
-1.059947 0.041200 -0.237823 0
-1.506523 0.142388 -0.428098 0
-1.023891 0.051200 -0.581979 0
-1.284808 0.045488 -0.131267 0
-1.441669 0.083150 -0.688281 0
-0.938926 0.044608 -0.340755 0
-1.516277 0.135351 -0.252461 0
-1.114550 0.123378 -0.707944 0
-1.092684 0.047827 -0.116323 0
-1.571173 0.162943 -0.558073 0
-0.904691 0.046880 -0.517465 0
-1.428180 0.058033 -0.088103 0
-1.330013 0.127328 -0.787385 0
-0.921465 0.041934 -0.212526 0
-1.681966 0.109616 -0.355113 0
-0.990756 0.054525 -0.717103 0
-1.207045 0.037802 -0.018162 0
-1.581613 0.134540 -0.729866 0
-0.827899 0.042641 -0.398074 0
-1.525903 0.180717 -0.121698 0
-1.107909 0.286484 -0.763376 0
-0.971474 0.042812 -0.078672 0
-1.763302 0.126080 -0.520959 0
-0.854456 0.047487 -0.631653 0
-1.371435 0.051702 0.032985 0
-1.370134 0.293108 -0.789450 0
-0.808227 0.036367 -0.249707 0
-1.662736 0.223092 -0.222947 0
-0.982550 0.189678 -0.791714 0
-1.087959 0.043284 0.038513 0
-1.819006 0.067672 -0.748041 0
-0.758805 0.035769 -0.496045 0
-1.525276 0.138329 0.009253 0
-1.149017 0.410698 -0.791672 0
-0.849884 0.042411 -0.093769 0
-1.886664 0.124537 -0.412648 0
-0.853492 0.054605 -0.762359 0
-1.265541 0.046245 0.117839 0
-1.505487 0.325815 -0.804554 0
-0.717800 0.033942 -0.327769 0
-1.505676 0.413838 -0.098555 0
-0.978028 0.416357 -0.785878 0
-0.957060 0.046270 0.049172 0
-1.978523 0.083283 -0.666024 0
-0.726277 0.034444 -0.620341 0
-1.496529 0.047778 0.138028 0
-1.242668 0.471193 -0.819303 0
-0.740702 0.032242 -0.149342 0
-1.790155 0.285032 -0.250630 0
-0.882353 0.135688 -0.864858 0
-1.132047 0.041192 0.162727 0
-1.882830 0.107095 -0.903805 0
-0.654074 0.033402 -0.436624 0
-1.529553 0.331154 0.029262 0
-1.092511 0.399014 -0.891321 0
-0.829084 0.040039 0.020723 0
-0.733169 0.026985 -0.766834 0
-1.366027 0.043370 0.223208 0
-1.399687 0.467180 -0.853569 0
-0.648315 0.025052 -0.239007 0
-1.508159 0.564461 -0.114568 0
-0.866786 0.492756 -0.784404 0
-0.986179 0.040490 0.166459 0
-0.620757 0.035384 -0.569190 0
-1.525098 0.212768 0.164858 0
-1.223540 0.423395 -0.951269 0
-0.710436 0.034355 -0.043375 0
-0.777916 0.049529 -0.912678 0
-1.205797 0.051747 0.265752 0
-0.578681 0.027225 -0.356194 0
-1.526650 0.497002 0.011909 0
-0.987541 0.445029 -0.917159 0
-0.843213 0.035073 0.133493 0
-0.621888 0.032861 -0.722321 0
-1.481737 0.065603 0.297297 0
-1.416578 0.401115 -1.016309 0
-0.608284 0.025717 -0.138511 0
-1.498705 0.691228 -0.152924 0
-0.870180 0.050870 -1.073623 0
-1.042601 0.049705 0.271255 0
-0.536993 0.025982 -0.497004 0
-1.527142 0.391934 0.148223 0
-1.156914 0.398486 -1.045128 0
-0.709759 0.034967 0.065466 0
-1.234474 0.082027 -0.383932 0
-1.260230 0.103920 -0.455496 0
-1.131017 0.065928 -0.336350 0
-1.377268 0.090960 -0.344245 0
-1.163823 0.055209 -0.525160 0
-1.194157 0.066820 -0.213400 0
-1.401136 0.120869 -0.499571 0
-1.031484 0.042922 -0.409857 0
-1.404747 0.058966 -0.211977 0
-1.263836 0.062876 -0.636875 0
-1.060801 0.039103 -0.212435 0
-1.512968 0.134174 -0.397551 0
-1.031166 0.041908 -0.558147 0
-1.286721 0.038879 -0.102257 0
-1.443222 0.086048 -0.653899 0
-0.942509 0.037051 -0.317717 0
-1.497378 0.161642 -0.219826 0
-1.123836 0.113325 -0.683595 0
-1.096028 0.034913 -0.089925 0
-1.568413 0.168526 -0.522981 0
-0.910495 0.039187 -0.495086 0
-1.431246 0.049702 -0.056700 0
-1.344515 0.109922 -0.762668 0
-0.921672 0.041317 -0.189261 0
-1.663983 0.131664 -0.317942 0
-0.999673 0.045044 -0.693668 0
-1.206924 0.032413 0.010142 0
-1.599717 0.113863 -0.702436 0
-0.831998 0.034766 -0.376856 0
-1.521721 0.184153 -0.090906 0
-1.119457 0.273259 -0.742364 0
-0.970624 0.039811 -0.054495 0
-1.742970 0.149884 -0.478738 0
-0.862011 0.038205 -0.610364 0
-1.369027 0.050656 0.063267 0
-1.382153 0.281098 -0.763774 0
-0.809756 0.031443 -0.228266 0
-1.487783 0.425963 -0.185785 0
-0.982713 0.210691 -0.755652 0
-1.086573 0.038464 0.065144 0
-1.748674 0.149990 -0.676752 0
-0.764041 0.028217 -0.475792 0
-1.521658 0.139606 0.040568 0
-1.161827 0.396653 -0.772059 0
-0.849597 0.036513 -0.071312 0
-1.853672 0.158206 -0.369523 0
-0.863280 0.042868 -0.741836 0
-1.262989 0.043485 0.147203 0
-1.538493 0.288288 -0.790344 0
-0.720301 0.028854 -0.307770 0
-1.517236 0.398302 -0.069089 0
-0.984276 0.417014 -0.760915 0
-0.956057 0.037718 0.074425 0
-1.924170 0.138072 -0.606656 0
-0.732002 0.037793 -0.597159 0
-1.493614 0.046246 0.170738 0
-1.252890 0.462508 -0.795749 0
-0.740459 0.029289 -0.128741 0
-1.493966 0.578371 -0.203453 0
-0.875696 0.199945 -0.806904 0
-1.129425 0.036331 0.190849 0
-1.876614 0.115662 -0.857177 0
-0.657972 0.030331 -0.417198 0
-1.505743 0.356900 0.053934 0
-1.097517 0.402608 -0.861036 0
-0.827163 0.034181 0.043461 0
-2.030332 0.159964 -0.470498 0
-0.740829 0.030989 -0.741650 0
-1.362939 0.040211 0.254872 0
-1.413462 0.454312 -0.829939 0
-0.649344 0.020990 -0.219864 0
-1.524315 0.546580 -0.086580 0
-0.903321 0.396035 -0.819645 0
-0.985064 0.027786 0.194281 0
-0.626900 0.026321 -0.551400 0
-1.511060 0.226573 0.192191 0
-1.225507 0.429985 -0.915745 0
-0.708738 0.030329 -0.022927 0
-0.789157 0.040549 -0.891492 0
-1.204722 0.041625 0.297394 0
-1.593921 0.445742 -0.823607 0
-0.581398 0.024733 -0.337967 0
-1.512592 0.509200 0.037145 0
-0.996661 0.441767 -0.892874 0
-0.839455 0.031239 0.156816 0
-0.630136 0.028298 -0.702580 0
-1.487313 0.048516 0.335862 0
-1.415149 0.409079 -0.975267 0
-0.607722 0.022357 -0.119850 0
-1.520892 0.670409 -0.126946 0
-0.876935 0.072236 -1.031420 0
-1.040767 0.037180 0.301237 0
-0.541908 0.022624 -0.479188 0
-1.512633 0.404862 0.173544 0
-1.165871 0.396056 -1.015437 0
-0.706332 0.032635 0.086102 0
-1.243736 0.075383 -0.357024 0
-1.273091 0.091834 -0.429566 0
-1.137743 0.063236 -0.310382 0
-1.384549 0.088137 -0.314676 0
-1.170001 0.059209 -0.496685 0
-1.199996 0.063192 -0.186382 0
-1.405327 0.125615 -0.468063 0
-1.037636 0.044553 -0.384476 0
-1.411107 0.055632 -0.181515 0
-1.272630 0.063018 -0.607190 0
-1.066156 0.035739 -0.187239 0
-1.529387 0.119268 -0.368109 0
-1.035395 0.055271 -0.528949 0
-1.287837 0.043019 -0.073590 0
-1.447805 0.092429 -0.619530 0
-0.948143 0.036860 -0.294191 0
-1.496136 0.169850 -0.188753 0
-1.147625 0.078465 -0.668725 0
-1.097677 0.037958 -0.064207 0
-1.596688 0.140342 -0.497300 0
-0.919994 0.032821 -0.472820 0
-1.435745 0.047119 -0.025257 0
-1.370641 0.080981 -0.743190 0
-0.925847 0.040102 -0.166250 0
-1.675163 0.124579 -0.284663 0
-1.007712 0.052584 -0.664891 0
-1.207847 0.034353 0.037821 0
-1.584776 0.145211 -0.656200 0
-0.838233 0.036235 -0.354677 0
-1.509881 0.205157 -0.061338 0
-1.165902 0.192906 -0.752423 0
-0.973284 0.037919 -0.030416 0
-1.751959 0.147168 -0.443928 0
-0.873548 0.029128 -0.589493 0
-1.372473 0.047332 0.094409 0
-1.459223 0.180098 -0.780809 0
-0.814312 0.030730 -0.206921 0
-1.492654 0.424868 -0.157818 0
-1.003385 0.180387 -0.744124 0
-1.088570 0.035194 0.091819 0
-1.783077 0.119889 -0.650941 0
-0.772357 0.026210 -0.454827 0
-1.517482 0.148850 0.071020 0
-1.187783 0.366400 -0.761813 0
-0.851487 0.038322 -0.049472 0
-1.861585 0.156169 -0.333075 0
-0.872983 0.051219 -0.714180 0
-1.267954 0.033880 0.178707 0
-1.572620 0.256691 -0.772890 0
-0.725919 0.029202 -0.287633 0
-1.518805 0.400204 -0.040369 0
-1.031867 0.321411 -0.788540 0
-0.957360 0.034404 0.099050 0
-1.959788 0.109801 -0.576220 0
-0.742134 0.035598 -0.576346 0
-1.494942 0.045735 0.204009 0
-1.267949 0.453344 -0.773663 0
-0.743514 0.028884 -0.108469 0
-1.498516 0.577761 -0.177019 0
-0.891090 0.185615 -0.789854 0
-1.129687 0.034191 0.218802 0
-1.924200 0.075012 -0.836245 0
-0.665519 0.027908 -0.398145 0
-1.507400 0.357651 0.083422 0
-1.101879 0.415505 -0.826734 0
-0.827942 0.033199 0.065499 0
-2.035353 0.161402 -0.430487 0
-0.751102 0.044580 -0.713782 0
-1.356764 0.050906 0.283173 0
-1.447171 0.423394 -0.818528 0
-0.653743 0.021053 -0.200936 0
-1.517145 0.557092 -0.060244 0
-0.916405 0.390446 -0.799868 0
-0.982538 0.033008 0.218074 0
-0.636224 0.030869 -0.530607 0
-1.502161 0.240037 0.219947 0
-1.225257 0.447023 -0.875334 0
-0.710163 0.030282 -0.003065 0
-0.753726 1.339344 -0.172139 0
-0.801749 0.048571 -0.862845 0
-1.204926 0.037680 0.327966 0
-0.587709 0.024455 -0.319957 0
-1.515308 0.509093 0.065332 0
-1.008080 0.441914 -0.867714 0
-0.837811 0.034988 0.178493 0
-0.641472 0.038589 -0.678219 0
-1.482852 0.054694 0.367750 0
-1.389299 0.454628 -0.909978 0
-0.610570 0.022981 -0.101660 0
-1.521094 0.673400 -0.101157 0
-0.886054 0.099350 -0.987928 0
-1.036979 0.042030 0.326238 0
-0.550533 0.021536 -0.461427 0
-1.524712 0.392640 0.207662 0
-1.163724 0.421552 -0.966744 0
-0.706183 0.031917 0.106315 0
-1.255630 0.075455 -0.333512 0
-1.288574 0.087047 -0.406499 0
-1.149250 0.061837 -0.288787 0
-1.400380 0.081207 -0.289380 0
-1.173871 0.082894 -0.469092 0
-1.215755 0.048450 -0.163478 0
-1.416985 0.129331 -0.441309 0
-1.050732 0.041142 -0.364872 0
-1.426403 0.046748 -0.154642 0
-1.279342 0.081297 -0.577506 0
-1.075730 0.033793 -0.166544 0
-1.541927 0.120093 -0.339767 0
-1.053322 0.044166 -0.511486 0
-1.295611 0.043314 -0.048664 0
-1.454635 0.107492 -0.587830 0
-0.956273 0.045392 -0.274979 0
-1.496475 0.184061 -0.161063 0
-1.172407 0.058583 -0.653333 0
-1.105482 0.035828 -0.042556 0
-1.616183 0.134673 -0.469418 0
-0.931353 0.040820 -0.452978 0
-1.444801 0.045290 0.002777 0
-1.391623 0.075796 -0.719140 0
-0.935319 0.035038 -0.148062 0
-1.656453 0.163404 -0.251030 0
-1.023047 0.056109 -0.643652 0
-1.209239 0.044595 0.060145 0
-1.604924 0.141356 -0.628502 0
-0.848749 0.040263 -0.337562 0
-1.511531 0.214659 -0.034127 0
-1.205102 0.146068 -0.750842 0
-0.979031 0.039155 -0.011288 0
-1.767542 0.146872 -0.412140 0
-0.886386 0.040474 -0.568577 0
-1.379753 0.044750 0.122039 0
-1.498492 0.149608 -0.767566 0
-0.822576 0.033668 -0.190684 0
-1.505539 0.420909 -0.131637 0
-1.030136 0.152072 -0.736775 0
-1.095513 0.028383 0.114875 0
-1.791335 0.131026 -0.614722 0
-0.784613 0.031497 -0.438133 0
-1.516518 0.160029 0.098094 0
-1.227377 0.325258 -0.761495 0
-0.858362 0.034431 -0.032187 0
-1.895859 0.136016 -0.301278 0
-0.891108 0.047361 -0.697608 0
-1.269974 0.038069 0.203276 0
-1.712512 0.108474 -0.814553 0
-0.736293 0.026827 -0.273199 0
-1.519108 0.409261 -0.014320 0
-1.051892 0.314270 -0.772860 0
-0.961280 0.034411 0.118377 0
-1.970754 0.117131 -0.538658 0
-0.757223 0.035670 -0.560900 0
-1.497706 0.049316 0.233113 0
-1.299890 0.430690 -0.764243 0
-0.750683 0.027480 -0.093461 0
-1.496946 0.588804 -0.151937 0
-0.915634 0.159684 -0.784088 0
-1.131079 0.037568 0.241004 0
-1.936510 0.084411 -0.796657 0
-0.677239 0.032712 -0.383695 0
-1.539832 0.326232 0.118804 0
-1.106620 0.440269 -0.791731 0
-0.832589 0.030265 0.082766 0
-2.091227 0.126485 -0.399951 0
-0.770228 0.032010 -0.702409 0
-1.366757 0.037963 0.315188 0
-1.489946 0.393231 -0.810903 0
-0.662210 0.023245 -0.187556 0
-1.515920 0.566625 -0.035292 0
-0.943690 0.358978 -0.800327 0
-0.985416 0.030083 0.239139 0
-0.650508 0.033592 -0.516425 0
-1.520954 0.221032 0.255448 0
-1.234853 0.460016 -0.844569 0
-0.715314 0.029851 0.011434 0
-1.553408 0.652740 -0.197106 0
-0.821295 0.050544 -0.844344 0
-1.202419 0.046595 0.350018 0
-0.598460 0.023605 -0.307807 0
-1.515393 0.516139 0.090781 0
-1.025344 0.443040 -0.848120 0
-0.841568 0.026582 0.197835 0
-0.658375 0.040415 -0.663478 0
-1.491070 0.045839 0.402034 0
-1.390251 0.476678 -0.869813 0
-0.617361 0.023527 -0.089135 0
-1.520054 0.682133 -0.076653 0
-0.902360 0.121396 -0.955772 0
-1.038379 0.039199 0.349044 0
-0.563892 0.023203 -0.449195 0
-1.500295 0.426671 0.224543 0
-1.174899 0.435879 -0.934316 0
-0.709491 0.030470 0.121182 0
-1.279600 0.061873 -0.312265 0
