ply
format ascii 1.0
element vertex 1595
property float x
property float y
property float z
property uchar label
end_header
0.304627 0.485996 -0.199541 1
0.657966 0.558665 -0.409050 1
0.383582 0.509895 -0.147151 1
0.308943 0.515570 -0.250931 1
0.528621 0.534799 -0.389127 1
0.458867 0.534095 -0.164729 1
0.290867 0.494320 -0.216326 1
0.373345 0.518528 -0.305860 1
0.543843 0.565225 -0.214965 1
0.633740 0.555932 -0.429105 1
0.408131 0.518226 -0.143410 1
0.288296 0.506865 -0.236484 1
0.492507 0.522966 -0.388216 1
0.492976 0.548828 -0.173576 1
0.304101 0.476461 -0.213056 1
0.392075 0.493482 -0.142765 1
0.303646 0.521534 -0.262653 1
0.604303 0.545466 -0.444326 1
0.444552 0.528512 -0.146186 1
0.282608 0.493858 -0.226752 1
0.417670 0.518056 -0.351808 1
0.567383 0.561539 -0.201166 1
0.663899 0.578785 -0.440999 1
0.403922 0.506721 -0.133439 1
0.283368 0.510656 -0.248460 1
0.553577 0.531697 -0.439810 1
0.302889 0.470441 -0.228192 1
0.437766 0.511231 -0.248086 1
0.442822 0.517193 -0.240679 1
0.388298 0.510432 -0.227634 1
0.452125 0.523467 -0.265553 1
0.422351 0.511180 -0.218982 1
0.377242 0.516097 -0.240613 1
0.478110 0.528205 -0.255392 1
0.361286 0.509612 -0.202288 1
0.443759 0.521534 -0.281791 1
0.461711 0.516970 -0.224293 1
0.348701 0.508909 -0.222323 1
0.498108 0.534628 -0.284504 1
0.401156 0.502802 -0.200812 1
0.387527 0.517705 -0.263720 1
0.489222 0.533142 -0.240307 1
0.319286 0.510459 -0.191238 1
0.479620 0.532537 -0.303526 1
0.445886 0.509781 -0.203949 1
0.326484 0.515253 -0.226851 1
0.521325 0.544154 -0.277463 1
0.347421 0.504217 -0.181742 1
0.417442 0.524754 -0.290771 1
0.471933 0.531372 -0.213571 1
0.311654 0.505791 -0.202596 1
0.534586 0.542789 -0.321033 1
0.402508 0.504422 -0.182841 1
0.335940 0.520020 -0.247381 1
0.523507 0.547717 -0.253752 1
0.319416 0.500653 -0.181089 1
0.489804 0.530600 -0.332994 1
0.450307 0.521539 -0.190984 1
0.305791 0.507684 -0.217502 1
0.595751 0.549813 -0.327135 1
0.355477 0.500710 -0.169529 1
0.383973 0.522242 -0.287473 1
0.501071 0.544584 -0.220252 1
0.306117 0.496728 -0.192216 1
0.547077 0.545591 -0.351811 1
0.411931 0.510994 -0.171185 1
0.317224 0.511259 -0.241982 1
0.558045 0.561394 -0.277804 1
0.327734 0.493815 -0.170816 1
0.449913 0.530366 -0.330566 1
0.470409 0.534103 -0.189988 1
0.293677 0.499442 -0.206280 1
0.621248 0.557418 -0.363610 1
0.364986 0.503141 -0.157738 1
0.327952 0.523787 -0.262009 1
0.536841 0.558818 -0.237769 1
0.316570 0.485295 -0.184914 1
0.567603 0.538128 -0.391446 1
0.433934 0.519578 -0.167109 1
0.293161 0.505309 -0.226661 1
0.596793 0.572427 -0.313470 1
0.350607 0.486766 -0.163891 1
0.423620 0.521567 -0.331673 1
0.504245 0.547622 -0.199845 1
0.298851 0.486708 -0.199484 1
0.636509 0.558748 -0.402071 1
0.388025 0.506686 -0.151522 1
0.297893 0.517734 -0.246792 1
0.537939 0.530755 -0.400134 1
0.449782 0.534150 -0.165352 1
0.287462 0.493945 -0.217372 1
0.352231 0.522853 -0.294788 1
0.547390 0.562705 -0.220040 1
0.640994 0.552561 -0.438906 1
0.408719 0.516235 -0.146645 1
0.281941 0.507628 -0.235427 1
0.455210 0.529052 -0.366576 1
0.503145 0.545106 -0.180104 1
0.305192 0.473915 -0.216849 1
0.391839 0.491677 -0.145713 1
0.304111 0.519521 -0.266476 1
0.608866 0.542344 -0.452750 1
0.447292 0.525996 -0.150143 1
0.279979 0.493144 -0.228216 1
0.382734 0.525418 -0.330195 1
0.577549 0.558088 -0.208188 1
0.660843 0.576623 -0.444556 1
0.397654 0.506793 -0.134797 1
0.282954 0.508951 -0.251518 1
0.542904 0.531287 -0.437343 1
0.472192 0.543409 -0.154652 1
0.296936 0.471365 -0.227744 1
0.431762 0.197573 -0.446360 1
0.431673 0.204699 -0.438146 1
0.431558 0.184233 -0.449838 1
0.430295 0.209764 -0.453200 1
0.431078 0.197307 -0.427754 1
0.435988 0.180676 -0.470971 1
0.435531 0.217475 -0.439187 1
0.434544 0.175261 -0.440256 1
0.432510 0.202860 -0.471834 1
0.439814 0.206524 -0.423986 1
0.443456 0.159402 -0.474421 1
0.434350 0.223615 -0.452528 1
0.437947 0.181583 -0.424558 1
0.441982 0.178512 -0.492882 1
0.441518 0.221782 -0.428200 1
0.439986 0.155137 -0.453989 1
0.427323 0.220142 -0.468511 1
0.447531 0.194862 -0.417619 1
0.451723 0.148805 -0.500565 1
0.439859 0.232169 -0.443222 1
0.441057 0.162858 -0.430180 1
0.485985 0.164548 -0.539818 1
0.447528 0.216884 -0.417100 1
0.445467 0.138781 -0.476661 1
0.430973 0.233571 -0.462046 1
0.457459 0.173763 -0.419456 1
0.518768 0.108068 -0.578747 1
0.448814 0.232987 -0.431881 1
0.439755 0.145995 -0.442426 1
0.501205 0.177528 -0.550754 1
0.747788 0.044038 -0.571773 1
0.484200 0.103815 -0.532957 1
0.440320 0.241582 -0.452543 1
0.454286 0.155705 -0.422190 1
0.576533 0.090389 -0.645096 1
0.454937 0.227680 -0.418045 1
0.439422 0.131220 -0.463334 1
0.430135 0.234933 -0.477313 1
0.682242 0.050523 -0.526031 1
0.542659 0.065741 -0.612047 1
0.450795 0.243671 -0.439231 1
0.446470 0.139599 -0.431152 1
0.602974 0.107334 -0.668687 1
0.834145 0.029045 -0.605588 1
0.462004 0.104131 -0.508916 1
0.434443 0.248615 -0.462086 1
0.599700 0.067398 -0.485461 1
0.606948 0.042305 -0.694759 1
0.457792 0.239883 -0.422426 1
0.441108 0.124068 -0.449956 1
0.521948 0.184285 -0.578058 1
0.725307 0.051194 -0.531122 1
0.534121 0.046817 -0.605622 1
0.447681 0.253062 -0.448555 1
0.458979 0.135695 -0.421074 1
0.601045 0.084587 -0.694180 1
0.853046 0.053271 -0.613154 1
0.432341 0.117924 -0.472208 1
0.490429 0.224224 -0.526010 1
0.676146 0.038956 -0.504257 1
0.594642 0.018892 -0.694912 1
0.458923 0.250974 -0.431153 1
0.444885 0.121762 -0.434205 1
0.599199 0.128846 -0.678343 1
0.788995 0.048680 -0.552331 1
0.446241 0.102161 -0.516441 1
0.436905 0.261391 -0.456385 1
0.490871 0.124275 -0.420562 1
0.591288 0.059980 -0.706780 1
0.429161 0.115488 -0.452817 1
0.514227 0.206876 -0.571512 1
0.701748 0.051663 -0.499451 1
0.568240 0.008091 -0.669885 1
0.455152 0.261128 -0.441562 1
0.453502 0.121900 -0.419591 1
0.587807 0.109716 -0.697041 1
0.863988 0.048254 -0.587155 1
0.431006 0.103160 -0.489078 1
0.432983 0.262708 -0.472183 1
0.571881 0.087508 -0.443041 1
0.589582 0.025348 -0.719819 1
0.868509 0.107652 -0.649904 1
0.432439 0.113686 -0.434846 1
0.601548 0.150345 -0.684283 1
0.761480 0.051996 -0.516053 1
0.433622 0.103352 -0.526789 1
0.442099 0.270841 -0.449398 1
0.474619 0.118459 -0.411290 1
0.578195 0.083054 -0.712847 1
0.415223 0.111626 -0.457194 1
0.555258 0.209204 -0.601644 1
0.611733 0.087933 -0.445308 1
0.573511 0.001233 -0.706891 1
0.463820 0.265873 -0.433211 1
0.443035 0.111864 -0.419621 1
0.583241 0.133732 -0.699890 1
0.428583 0.092653 -0.507783 1
0.428590 0.196585 -0.444826 1
0.431883 0.201665 -0.439072 1
0.434438 0.179412 -0.452698 1
0.430200 0.206871 -0.453867 1
0.432725 0.193421 -0.429645 1
0.439442 0.175395 -0.474420 1
0.435861 0.214354 -0.440203 1
0.436636 0.170922 -0.442480 1
0.429279 0.201773 -0.469917 1
0.439096 0.204015 -0.424370 1
0.446116 0.154460 -0.477222 1
0.433972 0.220829 -0.453001 1
0.439433 0.177723 -0.426316 1
0.484620 0.147524 -0.529881 1
0.439973 0.219622 -0.428047 1
0.440854 0.151523 -0.455366 1
0.428372 0.216590 -0.470050 1
0.447700 0.191838 -0.418575 1
0.445429 0.150250 -0.495884 1
0.439567 0.229316 -0.443812 1
0.443178 0.158439 -0.432348 1
0.509400 0.146811 -0.561065 1
0.444168 0.215677 -0.415991 1
0.442975 0.137655 -0.475400 1
0.430662 0.230720 -0.462522 1
0.456957 0.171117 -0.420017 1
0.505706 0.113668 -0.567567 1
0.448765 0.230003 -0.432693 1
0.441592 0.141639 -0.444457 1
0.490156 0.180115 -0.541767 1
0.712267 0.058961 -0.552936 1
0.503769 0.084889 -0.550543 1
0.440245 0.238582 -0.453257 1
0.453799 0.153087 -0.422731 1
0.600311 0.070687 -0.668071 1
0.453825 0.225211 -0.418291 1
0.439376 0.128251 -0.464020 1
0.427012 0.233409 -0.475380 1
0.668019 0.054881 -0.519218 1
0.584987 0.029102 -0.652308 1
0.450175 0.240884 -0.439656 1
0.447574 0.135795 -0.432649 1
0.605989 0.101350 -0.672164 1
0.814608 0.033902 -0.595975 1
0.443724 0.116350 -0.494075 1
0.433450 0.246000 -0.462049 1
0.572107 0.082187 -0.471285 1
0.609156 0.036330 -0.697603 1
0.457410 0.237014 -0.423092 1
0.440197 0.121846 -0.450053 1
0.509681 0.186803 -0.567694 1
0.710589 0.055022 -0.524509 1
0.569023 0.013667 -0.639082 1
0.447321 0.250129 -0.449106 1
0.454903 0.135784 -0.419531 1
0.601289 0.080126 -0.695065 1
0.432523 0.114756 -0.473049 1
0.431723 0.246248 -0.478033 1
0.649864 0.051387 -0.491902 1
0.591305 0.017135 -0.692218 1
0.458151 0.248198 -0.431554 1
0.443288 0.120131 -0.433942 1
0.601326 0.123474 -0.681025 1
0.771719 0.052786 -0.544725 1
0.443598 0.101327 -0.514663 1
0.437020 0.258281 -0.457224 1
0.487517 0.123554 -0.419645 1
0.594960 0.053061 -0.711259 1
0.463537 0.239922 -0.411847 1
0.428404 0.113226 -0.452971 1
0.554018 0.185244 -0.607872 1
0.685608 0.056807 -0.492700 1
0.560587 0.010438 -0.662800 1
0.454527 0.258249 -0.441994 1
0.451702 0.120395 -0.419348 1
0.589560 0.104429 -0.699458 1
0.841494 0.053502 -0.577066 1
0.430104 0.100947 -0.488957 1
0.437601 0.257836 -0.476604 1
0.551760 0.097430 -0.434237 1
0.591481 0.019437 -0.722528 1
0.459605 0.254093 -0.418351 1
0.429222 0.113661 -0.433413 1
0.600251 0.146744 -0.683636 1
0.788199 0.033556 -0.528916 1
0.434371 0.099484 -0.528144 1
0.444024 0.267083 -0.451551 1
0.467742 0.120717 -0.408529 1
0.579695 0.077776 -0.715089 1
0.411171 0.112633 -0.454626 1
0.568888 0.199855 -0.614309 1
0.592272 0.096142 -0.437535 1
0.567245 0.002289 -0.700752 1
0.460016 0.264031 -0.431777 1
0.440589 0.111071 -0.418931 1
0.585718 0.128158 -0.703068 1
0.872499 0.030983 -0.563667 1
0.426482 0.091607 -0.506438 1
0.431494 0.187578 -0.445858 1
0.433230 0.193730 -0.438966 1
0.438768 0.169073 -0.454722 1
0.431005 0.199178 -0.453451 1
0.437173 0.183526 -0.431484 1
0.444382 0.164361 -0.477166 1
0.434819 0.207833 -0.438505 1
0.439822 0.161301 -0.443494 1
0.432019 0.192709 -0.471075 1
0.440061 0.196427 -0.423937 1
0.443727 0.148308 -0.474103 1
0.433706 0.213799 -0.451840 1
0.442028 0.168772 -0.426782 1
0.463743 0.152876 -0.510830 1
0.438844 0.213227 -0.426372 1
0.435375 0.147978 -0.450140 1
0.432733 0.206837 -0.472578 1
0.450770 0.182869 -0.419262 1
0.452917 0.136520 -0.500965 1
0.438053 0.222970 -0.441842 1
0.446044 0.148917 -0.432919 1
0.497668 0.145017 -0.549382 1
0.444695 0.208468 -0.415319 1
0.440608 0.131536 -0.472239 1
0.430039 0.223841 -0.461105 1
0.456572 0.164040 -0.418553 1
0.500001 0.108349 -0.560929 1
0.443787 0.225320 -0.428628 1
0.444854 0.131389 -0.445365 1
0.511712 0.159155 -0.559223 1
0.725195 0.040447 -0.557665 1
0.479651 0.094959 -0.528229 1
0.439150 0.231930 -0.451571 1
0.455582 0.144339 -0.422449 1
0.610739 0.052198 -0.675982 1
0.450301 0.219936 -0.415322 1
0.438066 0.121382 -0.461686 1
0.423434 0.227936 -0.471474 1
0.675094 0.039889 -0.520656 1
0.526621 0.063994 -0.596077 1
0.446970 0.235192 -0.436688 1
0.449029 0.126980 -0.432181 1
0.574841 0.108850 -0.641363 1
0.757142 0.051135 -0.562949 1
0.436931 0.113862 -0.486989 1
0.432813 0.239125 -0.460682 1
0.547494 0.089884 -0.456095 1
0.609777 0.023829 -0.696303 1
0.453585 0.231688 -0.419971 1
0.437931 0.115882 -0.447056 1
0.520637 0.172033 -0.576173 1
0.711152 0.043740 -0.522377 1
0.511254 0.051943 -0.583193 1
0.445868 0.243587 -0.447255 1
0.457311 0.126333 -0.419485 1
0.610540 0.062446 -0.702440 1
0.824231 0.048904 -0.596165 1
0.426151 0.112387 -0.466573 1
0.427927 0.240662 -0.473995 1
0.614506 0.064012 -0.472079 1
0.588654 0.007226 -0.687673 1
0.454036 0.242797 -0.428206 1
0.439584 0.115500 -0.430107 1
0.599998 0.113026 -0.678038 1
0.771128 0.041487 -0.541891 1
0.435920 0.099660 -0.506295 1
0.436939 0.251200 -0.456340 1
0.483061 0.118922 -0.415736 1
0.602795 0.035443 -0.717608 1
0.460008 0.234468 -0.409081 1
0.422146 0.111053 -0.446922 1
0.520935 0.191038 -0.576870 1
0.688213 0.044787 -0.491515 1
0.553760 0.004801 -0.654103 1
0.452788 0.251789 -0.440058 1
0.447786 0.115936 -0.415573 1
0.592892 0.090973 -0.701166 1
0.838741 0.042362 -0.573075 1
0.426199 0.096279 -0.484220 1
0.456463 0.242927 -0.490899 1
0.533586 0.101207 -0.423738 1
0.583063 0.013914 -0.711663 1
0.458092 0.247733 -0.416702 1
0.426143 0.108710 -0.429905 1
0.596117 0.137771 -0.677971 1
0.751682 0.041514 -0.509916 1
0.430580 0.094286 -0.523100 1
0.441741 0.260809 -0.449164 1
0.458681 0.120157 -0.402265 1
0.581807 0.064649 -0.715667 1
0.410046 0.105851 -0.452412 1
0.582010 0.184393 -0.624421 1
0.568089 0.102319 -0.424944 1
0.549911 0.005614 -0.680195 1
0.457204 0.257971 -0.429309 1
0.438309 0.105366 -0.416046 1
0.583277 0.118297 -0.698849 1
0.846173 0.030979 -0.549149 1
0.425949 0.083467 -0.504614 1
0.433638 0.178341 -0.443304 1
0.430771 0.187474 -0.433302 1
0.435527 0.163258 -0.448158 1
0.429377 0.192305 -0.448185 1
0.437768 0.175326 -0.427854 1
0.440480 0.158760 -0.469696 1
0.431848 0.201764 -0.432574 1
0.439039 0.153826 -0.438757 1
0.434317 0.183221 -0.468654 1
0.441387 0.187891 -0.420839 1
0.441920 0.141292 -0.468242 1
0.431948 0.206916 -0.446568 1
0.448256 0.156577 -0.426539 1
0.450537 0.153192 -0.495005 1
0.440019 0.204883 -0.423274 1
0.440002 0.136267 -0.449141 1
0.427552 0.201815 -0.464254 1
0.455059 0.172318 -0.417724 1
0.454432 0.126599 -0.497499 1
0.435318 0.216564 -0.436096 1
0.445593 0.141155 -0.428395 1
0.488821 0.141187 -0.536521 1
0.451559 0.196998 -0.415454 1
0.438012 0.125233 -0.465727 1
0.431031 0.215439 -0.457829 1
0.456810 0.155859 -0.414549 1
0.489614 0.106277 -0.546270 1
0.441203 0.218840 -0.423225 1
0.443761 0.123980 -0.440247 1
0.504063 0.153857 -0.547364 1
0.703511 0.040436 -0.539149 1
0.442555 0.116509 -0.491660 1
0.437658 0.224745 -0.446578 1
0.458411 0.134094 -0.419810 1
0.585393 0.057611 -0.645790 1
0.450357 0.212177 -0.411593 1
0.434614 0.115953 -0.454646 1
0.424411 0.219538 -0.468171 1
0.649399 0.044415 -0.500857 1
0.508677 0.067961 -0.573715 1
0.446106 0.227722 -0.432315 1
0.446125 0.121063 -0.426012 1
0.619618 0.069507 -0.676251 1
0.753545 0.040105 -0.554078 1
0.430362 0.111103 -0.476886 1
0.433687 0.230805 -0.457368 1
0.500243 0.113682 -0.426044 1
0.598525 0.019784 -0.678404 1
0.450969 0.225096 -0.414736 1
0.431731 0.112996 -0.438329 1
0.481121 0.183443 -0.535911 1
0.691380 0.043224 -0.506052 1
0.441448 0.103187 -0.513069 1
0.444195 0.236361 -0.442258 1
0.456386 0.118790 -0.414595 1
0.613869 0.047714 -0.698701 1
0.817709 0.038138 -0.585298 1
0.417334 0.112210 -0.455119 1
0.427408 0.232937 -0.469481 1
0.536756 0.105059 -0.428676 1
0.565017 0.014539 -0.657287 1
0.452495 0.235578 -0.423548 1
0.436646 0.109821 -0.423880 1
0.614920 0.092369 -0.685526 1
0.758898 0.035111 -0.529026 1
0.429831 0.096565 -0.496019 1
0.439145 0.242341 -0.454057 1
0.474184 0.117060 -0.406676 1
0.604919 0.021215 -0.712666 1
0.414538 0.110040 -0.436987 1
0.519638 0.181649 -0.570333 1
0.585775 0.095831 -0.438726 1
0.432866 0.103157 -0.526981 1
0.452299 0.244012 -0.435965 1
0.443584 0.111278 -0.408826 1
0.601982 0.073004 -0.703504 1
0.827921 0.033711 -0.560423 1
0.418297 0.095454 -0.472852 1
0.430462 0.245425 -0.465989 1
0.528945 0.095215 -0.416607 1
0.575424 0.007762 -0.696533 1
0.456540 0.240544 -0.412207 1
0.421695 0.104723 -0.422636 1
0.597705 0.125052 -0.672883 1
0.731097 0.040445 -0.494067 1
0.424768 0.091053 -0.512540 1
0.445196 0.251555 -0.447770 1
0.453989 0.115735 -0.395532 1
0.590236 0.046373 -0.717704 1
0.907897 0.032769 -0.607804 1
0.397108 0.110745 -0.437894 1
0.479429 0.218446 -0.529536 1
0.555276 0.100985 -0.414294 1
0.424789 0.108573 -0.539516 1
0.454461 0.251061 -0.424004 1
0.434676 0.100448 -0.409542 1
0.593689 0.100199 -0.702786 1
0.805714 0.037270 -0.524087 1
0.426556 0.073963 -0.500402 1
0.435335 0.171890 -0.442380 1
0.430723 0.182284 -0.431224 1
0.433872 0.159010 -0.444805 1
0.436647 0.182496 -0.451403 1
0.439006 0.169227 -0.426546 1
0.438991 0.154234 -0.466288 1
0.429729 0.197822 -0.429165 1
0.440175 0.147557 -0.437320 1
0.436087 0.176623 -0.467873 1
0.442131 0.182219 -0.419245 1
0.439699 0.137334 -0.464238 1
0.432700 0.201241 -0.445082 1
0.449741 0.150122 -0.425249 1
0.451800 0.146483 -0.493679 1
0.440521 0.199432 -0.421602 1
0.441885 0.129195 -0.448185 1
0.428424 0.195963 -0.462852 1
0.454554 0.167300 -0.415297 1
0.443963 0.128870 -0.486392 1
0.433970 0.212085 -0.433227 1
0.451297 0.131339 -0.429690 1
0.448524 0.161726 -0.499376 1
0.452257 0.191385 -0.413826 1
0.436838 0.120498 -0.462492 1
0.431213 0.210049 -0.455933 1
0.464587 0.145129 -0.416654 1
0.483356 0.104544 -0.538009 1
0.440910 0.213843 -0.421114 1
0.442203 0.119638 -0.436890 1
0.447551 0.181515 -0.496641 1
0.681100 0.045713 -0.523598 1
0.435667 0.116458 -0.483447 1
0.437797 0.219422 -0.444697 1
0.458193 0.128713 -0.417376 1
0.516108 0.099204 -0.578984 1
0.450612 0.206895 -0.409786 1
0.430547 0.113824 -0.449321 1
0.427507 0.212578 -0.468632 1
0.538038 0.109160 -0.440452 1
0.480607 0.084377 -0.545189 1
0.444581 0.223221 -0.429410 1
0.443166 0.117924 -0.421877 1
0.528036 0.119738 -0.589073 1
0.719614 0.050233 -0.532889 1
0.423879 0.111174 -0.469174 1
0.435034 0.224875 -0.456383 1
0.487348 0.117072 -0.416811 1
0.590014 0.018105 -0.666627 1
0.449452 0.220664 -0.411970 1
0.426946 0.111662 -0.432735 1
0.477662 0.179207 -0.530372 1
0.678034 0.043490 -0.496033 1
0.435343 0.102590 -0.504981 1
0.444219 0.231095 -0.440337 1
0.449188 0.118998 -0.408238 1
0.618948 0.035822 -0.699971 1
0.775032 0.050412 -0.559501 1
0.410480 0.113063 -0.447465 1
0.426898 0.227872 -0.467043 1
0.529946 0.103495 -0.422714 1
0.557362 0.013032 -0.646290 1
0.451022 0.231023 -0.420781 1
0.432930 0.107539 -0.419229 1
0.617267 0.082819 -0.684189 1
0.729477 0.042967 -0.511452 1
0.428000 0.092333 -0.491947 1
0.440333 0.236539 -0.452962 1
0.466453 0.117340 -0.400374 1
0.602962 0.014202 -0.706945 1
0.861395 0.039869 -0.612659 1
0.410591 0.108299 -0.431872 1
0.514351 0.177687 -0.562972 1
0.561765 0.104256 -0.425088 1
0.429479 0.100187 -0.521117 1
0.452444 0.238689 -0.434154 1
0.440692 0.108237 -0.404866 1
0.606256 0.061974 -0.704198 1
0.811184 0.033126 -0.548513 1
0.410889 0.097064 -0.464231 1
0.431952 0.239477 -0.465179 1
0.526342 0.090961 -0.412691 1
0.552589 0.018790 -0.668878 1
0.419535 0.101242 -0.418934 1
0.606592 0.112324 -0.677920 1
0.720036 0.038778 -0.485591 1
0.423082 0.086658 -0.508445 1
0.445978 0.245962 -0.446400 1
0.448348 0.114870 -0.390367 1
0.596025 0.033800 -0.720210 1
0.872068 0.039119 -0.586253 1
0.393308 0.109190 -0.432750 1
0.472418 0.215570 -0.521098 1
0.548202 0.099414 -0.408528 1
0.421745 0.105327 -0.533763 1
0.454528 0.245839 -0.422204 1
0.432913 0.096507 -0.406170 1
0.595800 0.090831 -0.701395 1
0.788908 0.037263 -0.512922 1
0.421355 0.073282 -0.493147 1
0.432402 0.164733 -0.437963 1
0.434214 0.171069 -0.431200 1
0.435463 0.148523 -0.443518 1
0.433442 0.175426 -0.446731 1
0.440342 0.159214 -0.424949 1
0.437982 0.145387 -0.463095 1
0.430950 0.188347 -0.427676 1
0.440927 0.137531 -0.435327 1
0.431736 0.170199 -0.462122 1
0.436656 0.176757 -0.413549 1
0.433731 0.132273 -0.457267 1
0.430455 0.193692 -0.441193 1
0.442445 0.145997 -0.418281 1
0.433607 0.149809 -0.476232 1
0.437643 0.192331 -0.417497 1
0.436199 0.124026 -0.441699 1
0.428963 0.186612 -0.460983 1
0.450733 0.160641 -0.410599 1
0.437203 0.124244 -0.478390 1
0.434609 0.203049 -0.431377 1
0.445223 0.126392 -0.423326 1
0.438493 0.158798 -0.488397 1
0.451119 0.183161 -0.410741 1
0.430292 0.116124 -0.455062 1
0.431443 0.201053 -0.453828 1
0.452597 0.144074 -0.407392 1
0.480509 0.095661 -0.532814 1
0.438280 0.206590 -0.417215 1
0.433195 0.117404 -0.428383 1
0.431555 0.181909 -0.480715 1
0.650248 0.051255 -0.503306 1
0.428528 0.112516 -0.475083 1
0.436459 0.211343 -0.441488 1
0.449888 0.125446 -0.409993 1
0.506647 0.094395 -0.567486 1
0.739615 0.043997 -0.566580 1
0.420021 0.113351 -0.439184 1
0.429135 0.202753 -0.467675 1
0.523736 0.107970 -0.430005 1
0.440366 0.107514 -0.506115 1
0.439322 0.217118 -0.423819 1
0.436709 0.113628 -0.415324 1
0.472906 0.144446 -0.536129 1
0.724509 0.033698 -0.531021 1
0.417548 0.106971 -0.461636 1
0.434973 0.216106 -0.454070 1
0.480642 0.111989 -0.410423 1
0.575319 0.015802 -0.649244 1
0.443087 0.215186 -0.406089 1
0.417618 0.110391 -0.423898 1
0.470160 0.173323 -0.521233 1
0.633443 0.058017 -0.470677 1
0.429627 0.097317 -0.497413 1
0.442128 0.223348 -0.436673 1
0.442815 0.114578 -0.402012 1
0.531674 0.084030 -0.612156 1
0.780868 0.032881 -0.557841 1
0.405202 0.108345 -0.441046 1
0.425055 0.220016 -0.463324 1
0.524679 0.096550 -0.416977 1
0.516941 0.034746 -0.603539 1
0.447603 0.223955 -0.416491 1
0.425828 0.104179 -0.412227 1
0.604649 0.076880 -0.668813 1
0.719430 0.034923 -0.502381 1
0.421491 0.088154 -0.483833 1
0.441087 0.227445 -0.451242 1
0.455200 0.116443 -0.391939 1
0.583609 0.014923 -0.683875 1
0.847088 0.030687 -0.600284 1
0.402463 0.106519 -0.423653 1
0.503007 0.172771 -0.550250 1
0.554499 0.098038 -0.418466 1
0.425265 0.093521 -0.514680 1
0.449316 0.231318 -0.429914 1
0.434696 0.103776 -0.398820 1
0.611111 0.044664 -0.705551 1
0.787356 0.030470 -0.532747 1
0.389728 0.108666 -0.444203 1
0.428877 0.232123 -0.460535 1
0.499995 0.099703 -0.397583 1
0.551230 0.006146 -0.664394 1
0.880251 0.044080 -0.637898 1
0.412624 0.098137 -0.411929 1
0.605082 0.099855 -0.672982 1
0.585226 0.104055 -0.424368 1
0.418797 0.080257 -0.502073 1
0.445158 0.237595 -0.443592 1
0.442607 0.110092 -0.384732 1
0.591801 0.022638 -0.712326 1
0.859070 0.029361 -0.575041 1
0.382894 0.110436 -0.422484 1
0.473097 0.205423 -0.519116 1
0.536009 0.096956 -0.400066 1
0.416914 0.099331 -0.526451 1
0.453182 0.237795 -0.419171 1
0.432973 0.086488 -0.403480 1
0.594758 0.077884 -0.696864 1
0.761658 0.037212 -0.496733 1
0.396922 0.088789 -0.468590 1
0.434295 0.153076 -0.437376 1
0.432132 0.162348 -0.427925 1
0.432108 0.140402 -0.439232 1
0.429851 0.167580 -0.442368 1
0.438583 0.150155 -0.421810 1
0.433230 0.138052 -0.457632 1
0.428504 0.180071 -0.424259 1
0.438641 0.128515 -0.431734 1
0.432715 0.159015 -0.461149 1
0.438734 0.165523 -0.412790 1
0.432145 0.122460 -0.454172 1
0.430289 0.183894 -0.439348 1
0.447351 0.131846 -0.419030 1
0.432358 0.139742 -0.473483 1
0.437810 0.182530 -0.415712 1
0.429820 0.118303 -0.435231 1
0.425916 0.178346 -0.456959 1
0.456910 0.146236 -0.411832 1
0.430152 0.118647 -0.470835 1
0.430623 0.195627 -0.426999 1
0.439099 0.120453 -0.417346 1
0.447469 0.141293 -0.494296 1
0.452426 0.172501 -0.409414 1
0.420946 0.113056 -0.446094 1
0.427550 0.193367 -0.449276 1
0.458646 0.129202 -0.408332 1
0.439887 0.116130 -0.495523 1
0.438015 0.197218 -0.415243 1
0.426399 0.112283 -0.421789 1
0.430067 0.172333 -0.477863 1
0.618679 0.056751 -0.483464 1
0.419531 0.109014 -0.465852 1
0.432859 0.203546 -0.437320 1
0.444157 0.119242 -0.404420 1
0.518197 0.071953 -0.575940 1
0.717492 0.039999 -0.550754 1
0.412458 0.109181 -0.431740 1
0.424265 0.195512 -0.462199 1
0.514397 0.102602 -0.422506 1
0.431145 0.103538 -0.496127 1
0.436711 0.208973 -0.420458 1
0.429976 0.108523 -0.408974 1
0.591803 0.050219 -0.641514 1
0.687589 0.039541 -0.508735 1
0.401130 0.111229 -0.446526 1
0.431515 0.208103 -0.449907 1
0.464478 0.113179 -0.399602 1
0.491976 0.069025 -0.567935 1
0.446299 0.204210 -0.406039 1
0.410953 0.105624 -0.417315 1
0.449419 0.174375 -0.501590 1
0.549428 0.098155 -0.427860 1
0.423904 0.090546 -0.490585 1
0.436981 0.216255 -0.431600 1
0.436906 0.108765 -0.396343 1
0.594933 0.022267 -0.670921 1
0.741125 0.037542 -0.534067 1
0.391427 0.110888 -0.428597 1
0.422593 0.211536 -0.459846 1
0.520644 0.087576 -0.412083 1
0.427190 0.101444 -0.514072 1
0.442648 0.216908 -0.411849 1
0.423223 0.095499 -0.408317 1
0.607906 0.058932 -0.669490 1
0.604179 0.087526 -0.446316 1
0.400557 0.097273 -0.463715 1
0.438503 0.218946 -0.447789 1
0.444453 0.114428 -0.384094 1
0.570563 0.008796 -0.668558 1
0.771876 0.049782 -0.557772 1
0.393710 0.104314 -0.415454 1
0.479530 0.173575 -0.528083 1
0.533137 0.100163 -0.406091 1
0.418323 0.087860 -0.506404 1
0.444614 0.223915 -0.425298 1
0.431046 0.096097 -0.394320 1
0.605850 0.031591 -0.698023 1
0.746830 0.035683 -0.510219 1
0.376610 0.111362 -0.431642 1
0.427433 0.223153 -0.457907 1
0.541596 0.056565 -0.412803 1
0.420013 0.108826 -0.525631 1
0.836934 0.045072 -0.610438 1
0.409493 0.090066 -0.407693 1
0.612686 0.079735 -0.677806 1
0.562036 0.105772 -0.411521 1
0.417670 0.068752 -0.499478 1
0.441945 0.229412 -0.439811 1
0.436952 0.104256 -0.379356 1
0.582274 0.013067 -0.700200 1
0.811281 0.034795 -0.548419 1
0.377208 0.105601 -0.416366 1
0.442613 0.209564 -0.491542 1
0.534519 0.086235 -0.396253 1
0.410110 0.093619 -0.518004 1
0.449064 0.230168 -0.415085 1
0.432716 0.075268 -0.400767 1
0.603437 0.056085 -0.703493 1
0.593983 0.113150 -0.423572 1
0.369602 0.107293 -0.442306 1
0.434203 0.140210 -0.435366 1
0.435425 0.147426 -0.428130 1
0.433467 0.126097 -0.438145 1
0.427978 0.156201 -0.439306 1
0.440613 0.135899 -0.420897 1
0.430375 0.126735 -0.453623 1
0.431571 0.165912 -0.424467 1
0.433482 0.119342 -0.426129 1
0.432828 0.145714 -0.459570 1
0.438868 0.153148 -0.410778 1
0.423048 0.116382 -0.445417 1
0.424754 0.175119 -0.433873 1
0.442620 0.122407 -0.413818 1
0.431620 0.126490 -0.471200 1
0.436076 0.171613 -0.412793 1
0.419370 0.113842 -0.425893 1
0.425562 0.165866 -0.455194 1
0.459695 0.131479 -0.410919 1
0.419722 0.113555 -0.460599 1
0.429282 0.184510 -0.424505 1
0.432394 0.112781 -0.410842 1
0.434494 0.136831 -0.481799 1
0.456561 0.157674 -0.409532 1
0.406790 0.112246 -0.433536 1
0.425418 0.182355 -0.446254 1
0.455437 0.118573 -0.403969 1
0.429596 0.110196 -0.484943 1
0.437900 0.185528 -0.413432 1
0.418153 0.106236 -0.414099 1
0.428572 0.160130 -0.475220 1
0.542782 0.090362 -0.441139 1
0.405265 0.108163 -0.452343 1
0.427558 0.194566 -0.432213 1
0.437658 0.111502 -0.398192 1
0.493770 0.074068 -0.551993 1
0.665941 0.050827 -0.518991 1
0.400816 0.106701 -0.421288 1
0.423481 0.183504 -0.460268 1
0.522698 0.082367 -0.423340 1
0.422572 0.096441 -0.486821 1
0.435025 0.198234 -0.417840 1
0.424873 0.099733 -0.403344 1
0.465222 0.122597 -0.525898 1
0.640650 0.050149 -0.481563 1
0.390609 0.107841 -0.436260 1
0.426363 0.198834 -0.444790 1
0.445841 0.114780 -0.387460 1
0.430642 0.105338 -0.508348 1
0.710184 0.050084 -0.548571 1
0.402969 0.099885 -0.409670 1
0.585929 0.073237 -0.617151 1
0.533997 0.093862 -0.417378 1
0.415260 0.083892 -0.481142 1
0.433149 0.206490 -0.427656 1
0.432043 0.099851 -0.390926 1
0.579157 0.013909 -0.653559 1
0.710630 0.035504 -0.514846 1
0.381856 0.107217 -0.419374 1
0.422815 0.199238 -0.458825 1
0.527413 0.068088 -0.411605 1
0.419979 0.092875 -0.505674 1
0.440166 0.206714 -0.408831 1
0.422994 0.081945 -0.405462 1
0.591794 0.049836 -0.652332 1
0.553464 0.103200 -0.420176 1
0.379830 0.104709 -0.443971 1
0.433496 0.209469 -0.442931 1
0.437358 0.107527 -0.377751 1
0.426817 0.112053 -0.522211 1
0.764330 0.033860 -0.549755 1
0.385390 0.099506 -0.407423 1
0.601793 0.087276 -0.631592 1
0.534225 0.085282 -0.403047 1
0.414611 0.076019 -0.501354 1
0.439036 0.214971 -0.420413 1
0.432966 0.080738 -0.392373 1
0.595083 0.018527 -0.685200 1
0.598614 0.100146 -0.440083 1
0.365144 0.110356 -0.420507 1
0.423205 0.213297 -0.453496 1
0.443275 0.119227 -0.366802 1
0.415266 0.097902 -0.519564 1
0.769164 0.056034 -0.570224 1
0.459141 0.023699 -0.436138 1
0.605985 0.064030 -0.669413 1
0.544623 0.102449 -0.400946 1
0.407540 0.063864 -0.488257 1
0.437669 0.219630 -0.435641 1
0.433698 0.094138 -0.374722 1
0.561848 0.008653 -0.676830 1
0.775565 0.032772 -0.527450 1
0.367159 0.103316 -0.406814 1
0.470214 0.181869 -0.513652 1
0.588271 0.032881 -0.413585 1
0.406566 0.081601 -0.513154 1
0.444179 0.220969 -0.410814 1
0.453118 0.040169 -0.408861 1
0.603837 0.035075 -0.701911 1
0.583521 0.104415 -0.415857 1
0.352778 0.112827 -0.425754 1
0.430446 0.127308 -0.434203 1
0.436137 0.131394 -0.429829 1
0.425134 0.116671 -0.433832 1
0.429089 0.140042 -0.441652 1
0.436978 0.122947 -0.419670 1
0.423055 0.116285 -0.449940 1
0.432162 0.150713 -0.426084 1
0.421159 0.113503 -0.419303 1
0.426763 0.134336 -0.456834 1
0.439937 0.137339 -0.412269 1
0.409152 0.112085 -0.436832 1
0.426570 0.159286 -0.436639 1
0.434058 0.113293 -0.409599 1
0.424704 0.115374 -0.467797 1
0.436918 0.156600 -0.414281 1
0.405628 0.109918 -0.417860 1
0.427081 0.149522 -0.458280 1
0.453667 0.120103 -0.408250 1
0.406520 0.108548 -0.452090 1
0.428216 0.171005 -0.425100 1
0.424098 0.103683 -0.406705 1
0.432578 0.121598 -0.482582 1
0.456139 0.142945 -0.410018 1
0.395274 0.106626 -0.426671 1
0.424609 0.168313 -0.447386 1
0.441510 0.113560 -0.397056 1
0.421044 0.100146 -0.480133 1
0.434292 0.173691 -0.412308 1
0.411241 0.096071 -0.410719 1
0.446729 0.131024 -0.492694 1
0.484373 0.113107 -0.411956 1
0.390592 0.105465 -0.442498 1
0.426731 0.181066 -0.433107 1
0.429800 0.102076 -0.394400 1
0.431889 0.106496 -0.499349 1
0.630001 0.051049 -0.500444 1
0.386156 0.104758 -0.412314 1
0.423945 0.168446 -0.462658 1
0.448845 0.120468 -0.387640 1
0.415432 0.085000 -0.483250 1
0.432784 0.185782 -0.417614 1
0.422228 0.085384 -0.402474 1
0.507939 0.071376 -0.567287 1
0.542843 0.092720 -0.434146 1
0.373966 0.108309 -0.424917 1
0.422083 0.187306 -0.443350 1
0.437571 0.105707 -0.383573 1
0.421344 0.095510 -0.502722 1
0.448967 0.177301 -0.406545 1
0.394479 0.091670 -0.405189 1
0.461724 0.135838 -0.513325 1
0.527742 0.080485 -0.414556 1
0.399029 0.082122 -0.469393 1
0.429155 0.195034 -0.426389 1
0.429711 0.085368 -0.390000 1
0.446581 0.099922 -0.530385 1
0.660685 0.042534 -0.490912 1
0.371778 0.101311 -0.413440 1
0.419905 0.186735 -0.458499 1
0.441257 0.117721 -0.372821 1
0.413656 0.080282 -0.502911 1
0.441005 0.192820 -0.410310 1
0.454028 0.032100 -0.424688 1
0.551677 0.055483 -0.618877 1
0.533231 0.098650 -0.411281 1
0.362203 0.106961 -0.431026 1
0.426984 0.199163 -0.439922 1
0.431658 0.096477 -0.375054 1
0.418334 0.101415 -0.517216 1
0.702341 0.043899 -0.519303 1
0.376359 0.092449 -0.402444 1
0.590496 0.072161 -0.625064 1
0.544682 0.059780 -0.407131 1
0.413185 0.057833 -0.503458 1
0.433938 0.204175 -0.418477 1
0.445291 0.050866 -0.399141 1
0.559952 0.021270 -0.654780 1
0.574193 0.096041 -0.429421 1
0.352673 0.107921 -0.412311 1
0.418790 0.201935 -0.451957 1
0.436467 0.109385 -0.363688 1
0.406683 0.087554 -0.514454 1
0.725816 0.054151 -0.548192 1
0.449311 0.013814 -0.430857 1
0.610315 0.037531 -0.677422 1
0.535030 0.091482 -0.396831 1
0.375546 0.081206 -0.461003 1
0.431914 0.208980 -0.433232 1
0.434551 0.076701 -0.374992 1
0.415908 0.112376 -0.527447 1
0.716612 0.040820 -0.500792 1
0.353664 0.102267 -0.398273 1
0.600618 0.090891 -0.626648 1
0.442940 0.123996 -0.356202 1
0.399965 0.069169 -0.510194 1
0.439037 0.210270 -0.408914 1
0.454386 0.019232 -0.409828 1
0.592484 0.018514 -0.695139 1
0.557687 0.102081 -0.405339 1
0.343324 0.107260 -0.419786 1
0.422486 0.116122 -0.430898 1
0.426850 0.121242 -0.425695 1
0.409733 0.112111 -0.425373 1
0.426606 0.124601 -0.442174 1
0.425179 0.114932 -0.414093 1
0.406806 0.112364 -0.440294 1
0.434048 0.132533 -0.429186 1
0.408093 0.107255 -0.412729 1
0.421538 0.120763 -0.455497 1
0.437854 0.121799 -0.412532 1
0.394068 0.108070 -0.428153 1
0.425490 0.143525 -0.438054 1
0.422860 0.104993 -0.404514 1
0.412627 0.107361 -0.461007 1
0.437038 0.140106 -0.415920 1
0.389416 0.107502 -0.408926 1
0.424129 0.134517 -0.458653 1
0.438087 0.114641 -0.400982 1
0.386012 0.109847 -0.438465 1
0.428524 0.154840 -0.427193 1
0.417538 0.091368 -0.404333 1
0.421973 0.111802 -0.476861 1
0.457684 0.124796 -0.412111 1
0.377695 0.106173 -0.416125 1
0.422828 0.153211 -0.448464 1
0.430886 0.104685 -0.392523 1
0.408184 0.092812 -0.472462 1
0.434518 0.157809 -0.414008 1
0.396552 0.092053 -0.403160 1
0.429094 0.126136 -0.481046 1
0.450341 0.120100 -0.395708 1
0.370427 0.107879 -0.428974 1
0.421712 0.168629 -0.431717 1
0.425887 0.087324 -0.393424 1
0.419872 0.097651 -0.492219 1
0.464319 0.137172 -0.412751 1
0.370568 0.103019 -0.403527 1
0.424455 0.151510 -0.465795 1
0.436406 0.112990 -0.382417 1
0.403026 0.077347 -0.475921 1
0.431736 0.171046 -0.418651 1
0.421454 0.066812 -0.403469 1
0.432339 0.111104 -0.502825 1
0.559552 0.060966 -0.443037 1
0.357740 0.107846 -0.414786 1
0.420527 0.172711 -0.444503 1
0.431894 0.092702 -0.381577 1
0.412346 0.084004 -0.498334 1
0.618438 0.057216 -0.500536 1
0.222548 0.262297 -0.293235 1
0.477155 0.105607 -0.530033 1
0.446244 0.121702 -0.378068 1
0.382447 0.080085 -0.458254 1
0.425671 0.181935 -0.425982 1
0.449286 0.046842 -0.401262 1
0.421427 0.101741 -0.510307 1
0.552483 0.087684 -0.439104 1
0.354410 0.102612 -0.402856 1
0.418767 0.171659 -0.460216 1
0.432648 0.107554 -0.369506 1
0.412144 0.060663 -0.505995 1
0.440211 0.178115 -0.411326 1
0.452785 0.011047 -0.425482 1
0.535036 0.044011 -0.607785 1
0.546621 0.069863 -0.417586 1
0.344678 0.108834 -0.419070 1
0.419992 0.188037 -0.437100 1
0.432766 0.077075 -0.376169 1
0.408086 0.091100 -0.511396 1
0.660350 0.043613 -0.499129 1
0.359940 0.092600 -0.393198 1
0.461726 0.134793 -0.517126 1
0.439158 0.120562 -0.363429 1
0.390891 0.061262 -0.486172 1
0.430303 0.191342 -0.417918 1
0.456504 0.017946 -0.406011 1
0.422775 0.111679 -0.522105 1
0.541242 0.096648 -0.415395 1
0.337766 0.107589 -0.403056 1
0.414061 0.189539 -0.450741 1
0.432326 0.095445 -0.362256 1
0.398200 0.075608 -0.510533 1
0.687338 0.049714 -0.528918 1
0.436656 0.005074 -0.424729 1
0.552763 0.052711 -0.627786 1
0.560359 0.053966 -0.407039 1
0.335680 0.109926 -0.426820 1
0.425705 0.197440 -0.430998 1
0.457729 0.034083 -0.386209 1
0.405757 0.102017 -0.521473 1
0.627848 0.067383 -0.460867 1
0.341074 0.099192 -0.391374 1
0.586607 0.075682 -0.618319 1
0.436343 0.112478 -0.353803 1
0.402975 0.043479 -0.518762 1
0.432946 0.198846 -0.406902 1
0.441393 0.011088 -0.403789 1
0.565492 0.012644 -0.673151 1
0.545967 0.090063 -0.400836 1
0.328684 0.107168 -0.410155 1
0.408786 0.114447 -0.424033 1
0.417944 0.115315 -0.422201 1
0.399591 0.107808 -0.420881 1
0.420070 0.116542 -0.440166 1
0.416678 0.108806 -0.410980 1
0.394656 0.109895 -0.433981 1
0.429137 0.123259 -0.428295 1
0.398308 0.102804 -0.408672 1
0.411647 0.115520 -0.450833 1
0.430466 0.114478 -0.410171 1
0.378639 0.109613 -0.419436 1
0.426107 0.130227 -0.441033 1
0.420046 0.093782 -0.404828 1
0.406061 0.099218 -0.458931 1
0.436652 0.127646 -0.417710 1
0.379953 0.103396 -0.404931 1
0.423775 0.121465 -0.461363 1
0.429559 0.108331 -0.398073 1
0.371769 0.110486 -0.430045 1
0.428600 0.142412 -0.429533 1
0.412944 0.081571 -0.403618 1
0.417183 0.101761 -0.476271 1
0.443061 0.122463 -0.405892 1
0.362901 0.108180 -0.407862 1
0.422918 0.140523 -0.451274 1
0.425256 0.096030 -0.391179 1
0.393069 0.093106 -0.462884 1
0.438558 0.142832 -0.418417 1
0.451810 0.018999 -0.441040 1
0.427672 0.113427 -0.483236 1
0.441661 0.113666 -0.392853 1
0.356096 0.109648 -0.420342 1
0.426108 0.153650 -0.437158 1
0.430346 0.068675 -0.397531 1
0.414162 0.088071 -0.490939 1
0.455091 0.130610 -0.409526 1
0.359166 0.101822 -0.398000 1
0.426253 0.137308 -0.470289 1
0.431063 0.104229 -0.381220 1
0.390055 0.075793 -0.468109 1
0.430977 0.159702 -0.420273 1
0.456912 0.013900 -0.426251 1
0.424725 0.103057 -0.499740 1
0.462353 0.115396 -0.397233 1
0.347157 0.106148 -0.409350 1
0.420595 0.160680 -0.447189 1
0.432584 0.078079 -0.383295 1
0.407636 0.073193 -0.498127 1
0.567552 0.072800 -0.474584 1
0.432277 0.013581 -0.434839 1
0.487751 0.082208 -0.542994 1
0.438076 0.115164 -0.375608 1
0.345014 0.108554 -0.427899 1
0.425719 0.170332 -0.428265 1
0.456480 0.023466 -0.406633 1
0.413915 0.093694 -0.507263 1
0.498538 0.108606 -0.414411 1
0.339488 0.106515 -0.394291 1
0.420355 0.158405 -0.464420 1
0.433482 0.093518 -0.371028 1
0.419027 0.036126 -0.517575 1
0.438220 0.167683 -0.412077 1
0.442189 0.005400 -0.421266 1
0.434121 0.108442 -0.517200 1
0.451855 0.123114 -0.377214 1
0.335718 0.105671 -0.414698 1
0.419041 0.177142 -0.438894 1
0.445429 0.050123 -0.383321 1
0.401496 0.082293 -0.509292 1
0.505492 0.121885 -0.423296 1
0.417480 0.006661 -0.436580 1
0.485969 0.103415 -0.541838 1
0.434305 0.111673 -0.362437 1
0.366677 0.073999 -0.466623 1
0.430183 0.180127 -0.419913 1
0.448361 0.009752 -0.403315 1
0.413934 0.104757 -0.517580 1
0.518059 0.097390 -0.406420 1
0.328440 0.105344 -0.398538 1
0.415979 0.176806 -0.454989 1
0.431622 0.082423 -0.362939 1
0.394939 0.062986 -0.512102 1
0.453396 0.167095 -0.406682 1
0.422432 0.004312 -0.418122 1
0.568568 0.022314 -0.647523 1
0.442144 0.125592 -0.360865 1
0.327309 0.106274 -0.422736 1
0.423231 0.187623 -0.431625 1
0.459753 0.015698 -0.388290 1
0.398683 0.093794 -0.518726 1
0.544840 0.101448 -0.424473 1
0.333652 0.094382 -0.388619 1
0.455471 0.143426 -0.509946 1
0.432629 0.102641 -0.353203 1
0.411366 0.015254 -0.533307 1
0.438666 0.184687 -0.412072 1
0.427845 0.009519 -0.398100 1
0.481023 0.063389 -0.591556 1
0.542453 0.077671 -0.400368 1
0.316393 0.109303 -0.402598 1
0.392840 0.106531 -0.419008 1
0.398897 0.109802 -0.415315 1
0.377330 0.106705 -0.411305 1
0.402144 0.109564 -0.433613 1
0.400872 0.100584 -0.406448 1
0.370458 0.110852 -0.422112 1
0.413852 0.113762 -0.423960 1
0.378689 0.099404 -0.401364 1
0.400541 0.102471 -0.449191 1
0.416434 0.104109 -0.406910 1
0.362576 0.103454 -0.413823 1
0.418364 0.114429 -0.441786 1
0.334974 0.153353 -0.359271 1
0.376038 0.104968 -0.441536 1
0.425842 0.114422 -0.416357 1
0.359920 0.101783 -0.396919 1
0.412203 0.108371 -0.459385 1
0.420238 0.093933 -0.397536 1
0.351207 0.109524 -0.420261 1
0.426249 0.122958 -0.433689 1
0.451471 0.016103 -0.432189 1
0.407871 0.085970 -0.476396 1
0.428929 0.111823 -0.402756 1
0.348033 0.101748 -0.403064 1
0.420252 0.120876 -0.455923 1
0.452819 0.046310 -0.410302 1
0.367185 0.095951 -0.448078 1
0.432821 0.126024 -0.420099 1
0.429435 0.014742 -0.432654 1
0.418803 0.097227 -0.483677 1
0.427407 0.103337 -0.389793 1
0.340599 0.104113 -0.414629 1
0.422637 0.135447 -0.440723 1
0.456382 0.016215 -0.416385 1
0.406494 0.069877 -0.492927 1
0.439128 0.120857 -0.405485 1
0.342161 0.098303 -0.391777 1
0.425099 0.115897 -0.476704 1
0.427822 0.084489 -0.383548 1
0.343262 0.104074 -0.433472 1
0.431940 0.138857 -0.426154 1
0.437685 0.006015 -0.420277 1
0.413195 0.088758 -0.498005 1
0.438480 0.111685 -0.389624 1
0.329583 0.103965 -0.401945 1
0.422541 0.138723 -0.455068 1
0.458156 0.028188 -0.399839 1
0.412015 0.040798 -0.512434 1
0.442285 0.133487 -0.410614 1
0.416320 0.002791 -0.430518 1
0.428842 0.104141 -0.499866 1
0.428616 0.101269 -0.374907 1
0.326794 0.106987 -0.419182 1
0.423842 0.151895 -0.432610 1
0.443312 0.009400 -0.404203 1
0.401759 0.079970 -0.504988 1
0.457473 0.115030 -0.398578 1
0.327597 0.097740 -0.391619 1
0.428683 0.131260 -0.478280 1
0.433560 0.070286 -0.374521 1
0.382447 0.049870 -0.491245 1
0.436371 0.149228 -0.415876 1
0.418080 0.004239 -0.412201 1
0.416913 0.098692 -0.510021 1
0.436341 0.113721 -0.373906 1
0.316564 0.106394 -0.405257 1
0.419486 0.157349 -0.445260 1
0.454718 0.014052 -0.391426 1
0.396655 0.060519 -0.514841 1
0.474414 0.119920 -0.412081 1
0.398673 0.000051 -0.430073 1
0.481427 0.081051 -0.546741 1
0.430828 0.092851 -0.364152 1
0.339101 0.082333 -0.448378 1
0.424436 0.164650 -0.421520 1
0.423876 0.008921 -0.394809 1
0.400977 0.091886 -0.514315 1
0.454216 0.119307 -0.382012 1
0.313939 0.100550 -0.393489 1
0.421548 0.153234 -0.466069 1
0.459407 0.031419 -0.377778 1
0.403677 0.023375 -0.533165 1
0.448733 0.150253 -0.408701 1
0.399289 0.003461 -0.409248 1
0.434598 0.100518 -0.529263 1
0.432514 0.112253 -0.360085 1
0.307764 0.108173 -0.412126 1
0.421260 0.169962 -0.435940 1
0.439000 0.010132 -0.382310 1
0.387600 0.079205 -0.517534 1
0.520860 0.092977 -0.417617 1
0.319508 0.088767 -0.384241 1
0.496927 0.091068 -0.554111 1
0.434030 0.079156 -0.356540 1
0.399084 -0.001529 -0.532291 1
0.432631 0.169437 -0.413397 1
0.403887 0.009693 -0.389564 1
0.405537 0.102869 -0.523573 1
0.446122 0.122582 -0.365289 1
0.302734 0.104013 -0.397915 1
0.369169 0.105967 -0.409362 1
0.379169 0.104946 -0.408722 1
0.357636 0.103248 -0.404240 1
0.379686 0.106773 -0.424589 1
0.383196 0.093787 -0.401480 1
0.351434 0.106857 -0.414999 1
0.394191 0.107792 -0.417564 1
0.357215 0.098073 -0.393466 1
0.364357 0.113315 -0.428505 1
0.406758 0.089073 -0.407040 1
0.339559 0.104825 -0.403617 1
0.398832 0.107728 -0.435141 1
0.446952 0.014988 -0.432210 1
0.346102 0.112151 -0.424751 1
0.405969 0.108140 -0.410323 1
0.343625 0.095829 -0.392203 1
0.388800 0.105288 -0.449043 1
0.463546 0.027872 -0.427141 1
0.330747 0.108584 -0.411325 1
0.410046 0.113177 -0.429672 1
0.430908 0.008641 -0.426066 1
0.396424 0.070746 -0.476041 1
0.418680 0.097342 -0.402540 1
0.328249 0.100679 -0.395241 1
0.408185 0.107314 -0.454718 1
0.454280 0.016985 -0.416517 1
0.332283 0.110345 -0.425620 1
0.417560 0.115499 -0.416946 1
0.415431 0.000405 -0.430469 1
0.408497 0.080844 -0.484319 1
0.420594 0.085828 -0.391235 1
0.317145 0.108088 -0.402874 1
0.416299 0.117841 -0.443507 1
0.435087 0.009667 -0.410212 1
0.405837 0.041738 -0.503271 1
0.425144 0.109314 -0.403275 1
0.326476 0.092614 -0.387237 1
0.415154 0.099806 -0.477411 1
0.439361 0.048524 -0.393873 1
0.319938 0.107193 -0.420976 1
0.423819 0.122894 -0.427443 1
0.412735 0.004768 -0.411468 1
0.401665 0.073109 -0.497776 1
0.426254 0.098894 -0.388362 1
0.311803 0.101687 -0.395127 1
0.417902 0.119607 -0.459445 1
0.445656 0.012625 -0.398426 1
0.382603 0.044568 -0.494816 1
0.430768 0.120015 -0.409794 1
0.393962 -0.000521 -0.422530 1
0.413761 0.091725 -0.496316 1
0.428716 0.077736 -0.379227 1
0.305147 0.109825 -0.408010 1
0.421922 0.131808 -0.438155 1
0.421434 0.004468 -0.397716 1
0.394119 0.059878 -0.508918 1
0.432460 0.111486 -0.391126 1
0.313328 0.090857 -0.387913 1
0.423603 0.111604 -0.482927 1
0.454313 0.024013 -0.387983 1
0.350862 0.059796 -0.470361 1
0.431549 0.131331 -0.418970 1
0.393246 0.004489 -0.403181 1
0.402943 0.085349 -0.507404 1
0.427234 0.098757 -0.374025 1
0.298480 0.105483 -0.397551 1
0.418847 0.136379 -0.452246 1
0.427911 0.014309 -0.383099 1
0.394977 0.032012 -0.525899 1
0.443077 0.119580 -0.401323 1
0.366040 0.012631 -0.414058 1
0.422239 0.102379 -0.503992 1
0.451385 0.050072 -0.376513 1
0.311054 0.092745 -0.430099 1
0.426916 0.142412 -0.429441 1
0.401731 0.005701 -0.388009 1
0.388634 0.077123 -0.513344 1
0.433346 0.112992 -0.377025 1
0.298369 0.096330 -0.388345 1
0.423950 0.129344 -0.476341 1
0.450124 0.013054 -0.377595 1
0.394982 0.000674 -0.537581 1
0.432522 0.140106 -0.405384 1
0.377089 0.001594 -0.401475 1
0.408451 0.097162 -0.514756 1
0.426017 0.095400 -0.361100 1
0.290931 0.105949 -0.405079 1
0.420227 0.150138 -0.442194 1
0.413547 0.010215 -0.374569 1
0.382480 0.055919 -0.524955 1
0.450179 0.118430 -0.389803 1
0.341014 0.027368 -0.409293 1
0.430486 0.114637 -0.505841 1
0.457823 0.031720 -0.369070 1
0.344972 0.039762 -0.484957 1
0.431881 0.149769 -0.418842 1
0.382863 0.006405 -0.383093 1
0.390546 0.090715 -0.519675 1
0.431259 0.112310 -0.363074 1
0.286592 0.101390 -0.391780 1
0.356263 0.102240 -0.404392 1
0.363200 0.103986 -0.401854 1
0.342824 0.102236 -0.397758 1
0.361368 0.107854 -0.415531 1
0.371228 0.088698 -0.397442 1
0.336439 0.106136 -0.407916 1
0.377807 0.106306 -0.410546 1
0.343668 0.095874 -0.388108 1
0.351250 0.109619 -0.422956 1
0.453809 0.025339 -0.438794 1
0.327807 0.101042 -0.399070 1
0.377654 0.110205 -0.424240 1
0.434177 0.007691 -0.427830 1
0.334042 0.108097 -0.419766 1
0.395134 0.101188 -0.407219 1
0.333769 0.089710 -0.389228 1
0.363741 0.112084 -0.433890 1
0.452633 0.018466 -0.424042 1
0.314533 0.110632 -0.402646 1
0.393296 0.110994 -0.422469 1
0.414869 0.005705 -0.419537 1
0.356526 0.094322 -0.446388 1
0.413106 0.085353 -0.402513 1
0.319010 0.094181 -0.392599 1
0.391360 0.104936 -0.446694 1
0.440022 0.011387 -0.411513 1
0.321299 0.105492 -0.421339 1
0.405876 0.108885 -0.413412 1
0.396955 0.001167 -0.421939 1
0.395898 0.074014 -0.479280 1
0.453908 0.037073 -0.411092 1
0.307867 0.101903 -0.400091 1
0.405284 0.110234 -0.440183 1
0.419942 0.005819 -0.404534 1
0.384370 0.044738 -0.489519 1
0.418501 0.098458 -0.402714 1
0.315610 0.088396 -0.383357 1
0.404097 0.091546 -0.473827 1
0.448871 0.019893 -0.400861 1
0.307319 0.105046 -0.414948 1
0.412520 0.115623 -0.424148 1
0.396994 0.002521 -0.405072 1
0.397570 0.057130 -0.500718 1
0.423332 0.084809 -0.389475 1
0.301222 0.097544 -0.391191 1
0.409778 0.109278 -0.458255 1
0.430147 0.009016 -0.392897 1
0.362693 0.047382 -0.481855 1
0.421358 0.111367 -0.407780 1
0.373787 0.004035 -0.412507 1
0.404867 0.081034 -0.494622 1
0.452771 0.037590 -0.392416 1
0.294418 0.105978 -0.403679 1
0.415541 0.120609 -0.438123 1
0.402305 0.006297 -0.389884 1
0.399409 0.032291 -0.522042 1
0.426073 0.100584 -0.390619 1
0.303204 0.085984 -0.384443 1
0.415394 0.100701 -0.481785 1
0.444400 0.014439 -0.385320 1
0.344884 0.045917 -0.471560 1
0.424202 0.121056 -0.418209 1
0.378166 0.002393 -0.397019 1
0.395110 0.073451 -0.506795 1
0.423625 0.085530 -0.374528 1
0.287701 0.102146 -0.393179 1
0.414833 0.123243 -0.454096 1
0.411647 0.012574 -0.377251 1
0.397453 0.005370 -0.537106 1
0.431574 0.112407 -0.398331 1
0.350477 0.012379 -0.406861 1
0.411775 0.092956 -0.500903 1
0.458931 0.024311 -0.381298 1
0.297911 0.091639 -0.423136 1
0.423307 0.129486 -0.431143 1
0.383371 0.007875 -0.380472 1
0.391610 0.053127 -0.524496 1
0.426607 0.102646 -0.376261 1
0.286982 0.094048 -0.383550 1
0.419205 0.116112 -0.477984 1
0.431395 0.013187 -0.371107 1
0.390633 -0.019101 -0.541785 1
0.430302 0.126503 -0.407406 1
0.360278 0.002833 -0.393931 1
0.398011 0.087786 -0.511554 1
0.422690 0.082057 -0.361460 1
0.280053 0.102944 -0.400360 1
0.418073 0.136212 -0.445194 1
0.392368 0.015436 -0.366370 1
0.389786 0.024589 -0.542198 1
0.437331 0.112274 -0.386354 1
0.331921 0.018271 -0.406845 1
0.421133 0.104188 -0.503803 1
0.450171 0.020290 -0.367334 1
0.340979 0.021629 -0.489005 1
0.428802 0.136822 -0.420685 1
0.366148 0.007520 -0.376218 1
0.382908 0.078667 -0.519385 1
0.425492 0.101439 -0.362602 1
0.275942 0.098430 -0.387383 1
0.339104 0.102198 -0.395224 1
0.351127 0.098073 -0.396426 1
0.331615 0.096107 -0.392735 1
0.347358 0.103807 -0.408484 1
0.427070 0.007279 -0.435170 1
0.323020 0.102712 -0.400973 1
0.364457 0.101012 -0.404340 1
0.407720 -0.001694 -0.433882 1
0.335508 0.107786 -0.414133 1
0.443521 0.013351 -0.434396 1
0.317209 0.094589 -0.394339 1
0.363366 0.105554 -0.417134 1
0.413726 0.007684 -0.417128 1
0.314854 0.111536 -0.407517 1
0.385943 0.091344 -0.403833 1
0.325120 0.080564 -0.385953 1
0.348467 0.108844 -0.425488 1
0.436731 0.012606 -0.416445 1
0.306559 0.101179 -0.400047 1
0.378602 0.106125 -0.415410 1
0.399817 0.000330 -0.411953 1
0.346397 0.085356 -0.442062 1
0.456409 0.024841 -0.428294 1
0.311134 0.084256 -0.389952 1
0.362798 0.112990 -0.428254 1
0.425398 0.004817 -0.404591 1
0.302506 0.109571 -0.408719 1
0.392128 0.102878 -0.407324 1
0.379736 -0.000669 -0.412626 1
0.387540 0.061178 -0.476686 1
0.448261 0.021310 -0.409122 1
0.297134 0.096277 -0.395025 1
0.383452 0.110887 -0.427871 1
0.399692 0.006924 -0.394368 1
0.347814 0.065963 -0.459536 1
0.415516 0.082672 -0.402775 1
0.341789 0.029240 -0.406255 1
0.380523 0.093858 -0.458386 1
0.436172 0.011270 -0.395161 1
0.290863 0.107283 -0.404167 1
0.398568 0.109317 -0.417887 1
0.378428 0.002860 -0.395352 1
0.396120 0.035547 -0.504968 1
0.441215 0.049527 -0.399326 1
0.289569 0.093677 -0.385316 1
0.396575 0.101716 -0.451914 1
0.409374 0.010345 -0.383078 1
0.354303 0.034143 -0.479359 1
0.413125 0.100330 -0.405095 1
0.357825 0.001849 -0.403842 1
0.397977 0.066426 -0.493481 1
0.447743 0.021645 -0.390447 1
0.281667 0.103907 -0.396419 1
0.402536 0.113111 -0.432339 1
0.387189 0.002156 -0.382558 1
0.395822 0.011452 -0.524801 1
0.423140 0.085083 -0.390394 1
0.292525 0.080507 -0.379455 1
0.406982 0.088152 -0.479207 1
0.423724 0.014932 -0.376107 1
0.303636 0.081174 -0.433782 1
0.412464 0.112691 -0.413563 1
0.363737 -0.001892 -0.389668 1
0.391213 0.055208 -0.508882 1
0.453955 0.039273 -0.388403 1
0.275674 0.099525 -0.386669 1
0.405690 0.112289 -0.450955 1
0.391272 0.014843 -0.367833 1
0.387619 -0.008908 -0.533499 1
0.422553 0.102035 -0.395243 1
0.336082 0.009158 -0.399067 1
0.402400 0.080806 -0.497526 1
0.444678 0.017469 -0.375185 1
0.275032 0.104960 -0.404595 1
0.414218 0.118873 -0.428113 1
0.368739 0.004091 -0.373345 1
0.390417 0.030364 -0.530090 1
0.422980 0.088119 -0.375436 1
0.277129 0.087950 -0.379145 1
0.411556 0.103227 -0.476060 1
0.414200 0.010749 -0.363567 1
0.380747 -0.034136 -0.538261 1
0.423787 0.114252 -0.405794 1
0.346749 -0.002009 -0.386986 1
0.390345 0.073853 -0.509893 1
0.459553 0.029379 -0.376098 1
0.266796 0.102680 -0.392223 1
0.413827 0.121826 -0.445566 1
0.377884 0.011464 -0.359691 1
0.382846 0.007102 -0.541959 1
0.425487 0.104257 -0.381987 1
