ply
format ascii 1.0
element vertex 1595
property float x
property float y
property float z
property uchar label
end_header
0.434175 0.964684 -0.440812 1
0.469930 1.043447 -0.361327 1
0.444876 0.920110 -0.362885 1
0.444575 1.022632 -0.440599 1
0.462391 1.002941 -0.320837 1
0.440611 0.924366 -0.423863 1
0.471622 1.052133 -0.397230 1
0.451907 0.939081 -0.328563 1
0.444619 0.981669 -0.456588 1
0.484318 1.032215 -0.337653 1
0.471839 0.884858 -0.390158 1
0.459277 1.042494 -0.433854 1
0.457302 0.978935 -0.309878 1
0.436370 0.939460 -0.447390 1
0.476919 1.058866 -0.372318 1
0.458932 0.905157 -0.342943 1
0.450317 1.008843 -0.461158 1
0.485073 1.014300 -0.314882 1
0.477412 0.875740 -0.422734 1
0.479238 1.057117 -0.417386 1
0.458488 0.944982 -0.308929 1
0.436570 0.964018 -0.465586 1
0.484905 1.053252 -0.344179 1
0.454528 0.884317 -0.368225 1
0.461627 1.035702 -0.455459 1
0.467688 0.994051 -0.298814 1
0.447301 0.906429 -0.447980 1
0.487975 1.068053 -0.390318 1
0.475982 0.897990 -0.320434 1
0.444048 0.993258 -0.475540 1
0.491873 1.035235 -0.316355 1
0.476245 0.856329 -0.405619 1
0.480185 1.057155 -0.439751 1
0.464149 0.959540 -0.292515 1
0.440892 0.934949 -0.471560 1
0.490900 1.069471 -0.357875 1
0.470299 0.869253 -0.345239 1
0.458902 1.023202 -0.475156 1
0.492285 1.007212 -0.293372 1
0.469234 0.865320 -0.442657 1
0.492227 1.073839 -0.412483 1
0.472883 0.913205 -0.298420 1
0.450045 0.965094 -0.489143 1
0.503676 1.054030 -0.325065 1
0.457327 0.857125 -0.379921 1
0.474368 1.052174 -0.461853 1
0.483040 0.973349 -0.280173 1
0.454934 0.896626 -0.473034 1
0.494525 1.082334 -0.377240 1
0.485946 0.863640 -0.319268 1
0.457958 1.002771 -0.492968 1
0.502883 1.029510 -0.295286 1
0.462940 0.847559 -0.422769 1
0.493615 1.073843 -0.437486 1
0.477729 0.931147 -0.279607 1
0.456700 0.931214 -0.497277 1
0.513383 1.071622 -0.340596 1
0.440817 0.865011 -0.351802 1
0.470448 1.039089 -0.483827 1
0.499468 0.993559 -0.273824 1
0.469884 0.856478 -0.466322 1
0.503062 1.088235 -0.401996 1
0.478366 0.883601 -0.293899 1
0.452953 0.978176 -0.505382 1
0.515912 1.051060 -0.304243 1
0.438236 0.851126 -0.393920 1
0.490730 1.067972 -0.463182 1
0.483654 0.954726 -0.265697 1
0.449007 0.903502 -0.493481 1
0.508480 1.089848 -0.361255 1
0.469799 0.847669 -0.324215 1
0.463472 1.020289 -0.502622 1
0.516274 1.016602 -0.274339 1
0.442329 0.851394 -0.440570 1
0.436251 0.992384 -0.379176 1
0.441392 0.999086 -0.370710 1
0.437533 0.972349 -0.381314 1
0.439982 1.008450 -0.391793 1
0.443298 0.984720 -0.356188 1
0.437408 0.974540 -0.402846 1
0.448655 1.017912 -0.372292 1
0.443640 0.956224 -0.365680 1
0.436299 1.004350 -0.410691 1
0.450068 1.001767 -0.346904 1
0.438748 0.950430 -0.397201 1
0.448873 1.027739 -0.391540 1
0.442489 0.966378 -0.343663 1
0.434170 0.981518 -0.422062 1
0.458826 1.022855 -0.354913 1
0.439951 0.936430 -0.374674 1
0.441717 1.022753 -0.415447 1
0.451359 0.988435 -0.330617 1
0.446135 0.943233 -0.419734 1
0.459384 1.038880 -0.378158 1
0.446099 0.939874 -0.345421 1
0.438980 0.997478 -0.434449 1
0.465029 1.015517 -0.334742 1
0.448043 0.917812 -0.395905 1
0.452327 1.039839 -0.408811 1
0.449758 0.966136 -0.322355 1
0.432529 0.962872 -0.436623 1
0.470598 1.040372 -0.357431 1
0.455512 0.910034 -0.359861 1
0.443031 1.020670 -0.436396 1
0.462786 0.999817 -0.316863 1
0.444406 0.918946 -0.420779 1
0.471311 1.049496 -0.393240 1
0.451987 0.935926 -0.324599 1
0.442460 0.980099 -0.452170 1
0.478367 1.031793 -0.333428 1
0.470326 0.882672 -0.385960 1
0.452991 1.042407 -0.428628 1
0.456552 0.976325 -0.305902 1
0.442011 0.933071 -0.444951 1
0.476533 1.056225 -0.368315 1
0.458553 0.902186 -0.338930 1
0.448046 1.007249 -0.456667 1
0.478224 1.014389 -0.310860 1
0.474868 0.874314 -0.418256 1
0.472005 1.057075 -0.412151 1
0.465561 0.937638 -0.304773 1
0.442144 0.958030 -0.463310 1
0.486533 1.049791 -0.340234 1
0.477642 0.864640 -0.366362 1
0.458801 1.034211 -0.450820 1
0.468256 0.990765 -0.294754 1
0.457651 0.896439 -0.446602 1
0.482455 1.067199 -0.385626 1
0.475203 0.895168 -0.316316 1
0.449180 0.987907 -0.473168 1
0.491165 1.032591 -0.312274 1
0.474278 0.854461 -0.401296 1
0.473053 1.057086 -0.434235 1
0.469836 0.953218 -0.288174 1
0.447442 0.927989 -0.469595 1
0.494369 1.065448 -0.354080 1
0.479549 0.859220 -0.341604 1
0.460170 1.019948 -0.471568 1
0.480973 1.009305 -0.289733 1
0.483324 0.851916 -0.441804 1
0.489713 1.071910 -0.408043 1
0.474345 0.908962 -0.294231 1
0.453122 0.960614 -0.486200 1
0.499211 1.052747 -0.320908 1
0.455134 0.855455 -0.375715 1
0.476400 1.048678 -0.458365 1
0.486999 0.968153 -0.275743 1
0.453853 0.894409 -0.468820 1
0.493678 1.079808 -0.373122 1
0.482966 0.862247 -0.315080 1
0.461835 0.998187 -0.490237 1
0.496961 1.028925 -0.291361 1
0.458964 0.847335 -0.418072 1
0.492492 1.071455 -0.433197 1
0.483083 0.924653 -0.275052 1
0.455175 0.929342 -0.492836 1
0.512659 1.068963 -0.336438 1
0.441545 0.861116 -0.347922 1
0.473027 1.035333 -0.480573 1
0.503125 0.988717 -0.269320 1
0.470985 0.852514 -0.462641 1
0.503650 1.085250 -0.398003 1
0.474873 0.882527 -0.289859 1
0.449189 0.977510 -0.500137 1
0.506329 1.051564 -0.300291 1
0.425244 0.858184 -0.388215 1
0.490855 1.065183 -0.459137 1
0.484767 0.950883 -0.261379 1
0.453319 0.897683 -0.490982 1
0.506216 1.087692 -0.357004 1
0.461648 0.850308 -0.320023 1
0.463525 1.017596 -0.498632 1
0.478093 1.029542 -0.272910 1
0.440153 0.849946 -0.436228 1
0.439500 0.988590 -0.376203 1
0.444680 0.995319 -0.367671 1
0.441038 0.968259 -0.378369 1
0.442825 1.004994 -0.388828 1
0.446443 0.980903 -0.353030 1
0.435463 0.973545 -0.399154 1
0.451102 1.014688 -0.369156 1
0.446200 0.952544 -0.362508 1
0.439478 1.000716 -0.407892 1
0.454032 0.997669 -0.343719 1
0.441784 0.946464 -0.394270 1
0.450820 1.024812 -0.388421 1
0.445741 0.962342 -0.340424 1
0.437853 0.977450 -0.419428 1
0.460706 1.019897 -0.351622 1
0.443580 0.931953 -0.371667 1
0.443908 1.019716 -0.412472 1
0.454184 0.984793 -0.327263 1
0.439976 0.944855 -0.415126 1
0.460753 1.036228 -0.374894 1
0.449846 0.935325 -0.342187 1
0.441907 0.993951 -0.431703 1
0.467934 1.012033 -0.331381 1
0.443400 0.918636 -0.391786 1
0.453284 1.037397 -0.405566 1
0.453094 0.962035 -0.318946 1
0.435108 0.959312 -0.433830 1
0.471086 1.038057 -0.354014 1
0.458127 0.906005 -0.356585 1
0.446158 1.017203 -0.433691 1
0.464138 0.996966 -0.313397 1
0.444697 0.916590 -0.417403 1
0.470817 1.047606 -0.389712 1
0.460982 0.928091 -0.321249 1
0.442936 0.977812 -0.448859 1
0.479332 1.029230 -0.329966 1
0.472796 0.878616 -0.382719 1
0.456624 1.038865 -0.425948 1
0.460458 0.971991 -0.302350 1
0.443626 0.929950 -0.441905 1
0.477018 1.053937 -0.364892 1
0.460793 0.898323 -0.335509 1
0.448584 1.004975 -0.453356 1
0.479304 1.011700 -0.307334 1
0.460457 0.882090 -0.412117 1
0.470965 1.055399 -0.408501 1
0.460566 0.938285 -0.301350 1
0.441223 0.956532 -0.459609 1
0.486087 1.047811 -0.336711 1
0.477613 0.862220 -0.362771 1
0.457596 1.032703 -0.447051 1
0.468570 0.988367 -0.291231 1
0.450176 0.899345 -0.441332 1
0.485632 1.063976 -0.382516 1
0.472541 0.894490 -0.312725 1
0.451054 0.984915 -0.470228 1
0.491809 1.030127 -0.308723 1
0.466242 0.857986 -0.396531 1
0.471332 1.055676 -0.430377 1
0.473788 0.948649 -0.284409 1
0.440210 0.930507 -0.464065 1
0.490609 1.064616 -0.350320 1
0.474439 0.860405 -0.337771 1
0.462096 1.017054 -0.468596 1
0.487473 1.004105 -0.285872 1
0.485633 0.847892 -0.438694 1
0.488766 1.070128 -0.404366 1
0.472565 0.907659 -0.290697 1
0.450592 0.960021 -0.481894 1
0.502157 1.049477 -0.317370 1
0.457982 0.850880 -0.372516 1
0.472732 1.048052 -0.453905 1
0.476424 0.971339 -0.272888 1
0.449066 0.895566 -0.463976 1
0.492769 1.077980 -0.369518 1
0.480965 0.861124 -0.311434 1
0.458105 0.998001 -0.485515 1
0.500364 1.025296 -0.287625 1
0.462809 0.842024 -0.415264 1
0.490596 1.069999 -0.429256 1
0.481459 0.923188 -0.271521 1
0.454541 0.927676 -0.489094 1
0.499907 1.071017 -0.332448 1
0.441007 0.859103 -0.344425 1
0.469361 1.034819 -0.475938 1
0.507890 0.984123 -0.265263 1
0.469124 0.851625 -0.458583 1
0.498502 1.084713 -0.393738 1
0.467554 0.885027 -0.286578 1
0.453374 0.973253 -0.498032 1
0.516199 1.045741 -0.296414 1
0.428471 0.853279 -0.385276 1
0.489228 1.063668 -0.455145 1
0.491393 0.944807 -0.257079 1
0.447964 0.899248 -0.485738 1
0.506589 1.085425 -0.353475 1
0.463267 0.846532 -0.316452 1
0.466691 1.014149 -0.496098 1
0.439487 0.848204 -0.432633 1
0.438938 0.986784 -0.373143 1
0.444530 0.993277 -0.364641 1
0.440426 0.966468 -0.375299 1
0.442368 1.003155 -0.385752 1
0.446384 0.978763 -0.350005 1
0.439990 0.968921 -0.396892 1
0.451122 1.012576 -0.366118 1
0.442512 0.952515 -0.359171 1
0.438700 0.999077 -0.404748 1
0.454096 0.995462 -0.340670 1
0.437571 0.946873 -0.390652 1
0.450806 1.022758 -0.385373 1
0.445541 0.960227 -0.337392 1
0.437010 0.975875 -0.416262 1
0.461237 1.017514 -0.348582 1
0.440452 0.931704 -0.368339 1
0.444043 1.017639 -0.409464 1
0.454192 0.982563 -0.324204 1
0.439532 0.943022 -0.412050 1
0.460833 1.034106 -0.371824 1
0.449395 0.933312 -0.339130 1
0.440064 0.992898 -0.428271 1
0.466743 1.010382 -0.328243 1
0.442282 0.917161 -0.388633 1
0.453238 1.035388 -0.402492 1
0.452967 0.959822 -0.315883 1
0.433703 0.958107 -0.430522 1
0.472067 1.035515 -0.350969 1
0.455888 0.905145 -0.353365 1
0.444554 1.015966 -0.430282 1
0.464050 0.994763 -0.310296 1
0.443639 0.915126 -0.414202 1
0.470556 1.045627 -0.386557 1
0.459905 0.926387 -0.318149 1
0.441503 0.976596 -0.445461 1
0.480362 1.026595 -0.326847 1
0.471350 0.877243 -0.379459 1
0.452745 1.038491 -0.422071 1
0.465705 0.966851 -0.299120 1
0.438239 0.931292 -0.437617 1
0.477162 1.051762 -0.361770 1
0.459703 0.896643 -0.332394 1
0.442493 1.005983 -0.448719 1
0.484472 1.007103 -0.304100 1
0.459081 0.880780 -0.408835 1
0.470618 1.053480 -0.405309 1
0.475491 0.926923 -0.297850 1
0.433842 0.958871 -0.454574 1
0.486714 1.045388 -0.333568 1
0.467708 0.866857 -0.358839 1
0.455736 1.031520 -0.443489 1
0.481622 0.979498 -0.287517 1
0.449188 0.897867 -0.438082 1
0.481447 1.063354 -0.378859 1
0.471223 0.892874 -0.309593 1
0.441777 0.987811 -0.464482 1
0.492564 1.027562 -0.305517 1
0.465014 0.856512 -0.393297 1
0.470510 1.053963 -0.427055 1
0.472662 0.946873 -0.281302 1
0.439439 0.928971 -0.460831 1
0.491021 1.062313 -0.347164 1
0.473217 0.858758 -0.334603 1
0.460250 1.015920 -0.464936 1
0.495883 0.997923 -0.282230 1
0.471367 0.856000 -0.432524 1
0.488016 1.068297 -0.401055 1
0.471202 0.906029 -0.287593 1
0.440565 0.963773 -0.475716 1
0.497292 1.049041 -0.314132 1
0.457482 0.848815 -0.369429 1
0.471220 1.046641 -0.450352 1
0.490371 0.961613 -0.268639 1
0.448202 0.894057 -0.460711 1
0.492501 1.075937 -0.366300 1
0.473815 0.863637 -0.308317 1
0.450219 0.999944 -0.479923 1
0.509170 1.019351 -0.283960 1
0.452619 0.847535 -0.410391 1
0.488953 1.068495 -0.425711 1
0.483758 0.919277 -0.268123 1
0.443570 0.932539 -0.482505 1
0.510378 1.065312 -0.329528 1
0.441109 0.856556 -0.341432 1
0.474898 1.030530 -0.474333 1
0.498524 0.986157 -0.262761 1
0.468253 0.850026 -0.455291 1
0.493074 1.084296 -0.389793 1
0.464263 0.884726 -0.283594 1
0.446352 0.975132 -0.492541 1
0.505660 1.047323 -0.293470 1
0.425408 0.853379 -0.381939 1
0.489219 1.061635 -0.451898 1
0.495133 0.940211 -0.253432 1
0.452830 0.893853 -0.484233 1
0.507329 1.083025 -0.350284 1
0.458259 0.847753 -0.313339 1
0.462756 1.014000 -0.491621 1
0.439342 0.846052 -0.429646 1
0.442948 0.981937 -0.370706 1
0.444160 0.990749 -0.361701 1
0.439555 0.964203 -0.372313 1
0.441733 1.000809 -0.382777 1
0.446270 0.976045 -0.347074 1
0.438997 0.966762 -0.393863 1
0.450895 1.009995 -0.363170 1
0.444771 0.948341 -0.356456 1
0.437818 0.996890 -0.401724 1
0.456379 0.991547 -0.337826 1
0.447167 0.938228 -0.389174 1
0.450451 1.020275 -0.382408 1
0.445288 0.957524 -0.334445 1
0.433273 0.975285 -0.412676 1
0.464993 1.013077 -0.345846 1
0.452183 0.921367 -0.366641 1
0.443170 1.015441 -0.406413 1
0.453846 0.979920 -0.321224 1
0.446024 0.936261 -0.410386 1
0.460378 1.031634 -0.368822 1
0.448221 0.931106 -0.336124 1
0.438913 0.990874 -0.425145 1
0.467408 1.007294 -0.325257 1
0.449566 0.909455 -0.386769 1
0.452961 1.032897 -0.399519 1
0.453019 0.956893 -0.312897 1
0.442346 0.950297 -0.429596 1
0.475830 1.031239 -0.348213 1
0.454709 0.902912 -0.350320 1
0.442395 1.014399 -0.426912 1
0.463824 0.992042 -0.307280 1
0.460308 0.901215 -0.414454 1
0.465687 1.044907 -0.382945 1
0.458616 0.924173 -0.315124 1
0.439698 0.974952 -0.442134 1
0.484451 1.022079 -0.323891 1
0.458691 0.882990 -0.375006 1
0.451816 1.036301 -0.418955 1
0.458639 0.967763 -0.296269 1
0.455129 0.917741 -0.438713 1
0.480524 1.047788 -0.359039 1
0.466125 0.889192 -0.329599 1
0.446800 1.001281 -0.446909 1
0.477298 1.007514 -0.301146 1
0.472847 0.868033 -0.408285 1
0.471703 1.050435 -0.402497 1
0.474133 0.924664 -0.294791 1
0.445096 0.949569 -0.454741 1
0.487261 1.042424 -0.330530 1
0.475502 0.858059 -0.356461 1
0.451423 1.030814 -0.439518 1
0.480406 0.977167 -0.284464 1
0.448231 0.895655 -0.434985 1
0.480937 1.060870 -0.375780 1
0.478005 0.885149 -0.306453 1
0.441286 0.985482 -0.461446 1
0.499517 1.021851 -0.302304 1
0.455967 0.860113 -0.389060 1
0.469269 1.051830 -0.423809 1
0.482069 0.938448 -0.277633 1
0.455638 0.915848 -0.462463 1
0.488985 1.060314 -0.343990 1
0.471775 0.856551 -0.331498 1
0.453221 1.016556 -0.460039 1
0.500055 0.993057 -0.278843 1
0.481450 0.845507 -0.431705 1
0.487020 1.065979 -0.397859 1
0.473050 0.901668 -0.284390 1
0.447067 0.957419 -0.474811 1
0.502513 1.044297 -0.311024 1
0.435425 0.862572 -0.364262 1
0.467908 1.045352 -0.446539 1
0.494649 0.956302 -0.265119 1
0.472089 0.874569 -0.464347 1
0.494276 1.072659 -0.363399 1
0.470445 0.862770 -0.305256 1
0.457824 0.993590 -0.479315 1
0.501151 1.019778 -0.281189 1
0.434501 0.858522 -0.404291 1
0.488709 1.065934 -0.422605 1
0.480960 0.917811 -0.265167 1
0.451438 0.924895 -0.482107 1
0.509761 1.062736 -0.326382 1
0.449531 0.846804 -0.338923 1
0.470234 1.029890 -0.469977 1
0.499188 0.982841 -0.259501 1
0.460880 0.852533 -0.450506 1
0.492537 1.081799 -0.386662 1
0.466119 0.880195 -0.280380 1
0.455577 0.967495 -0.492685 1
0.519802 1.039231 -0.289814 1
0.424197 0.851260 -0.378955 1
0.481726 1.061679 -0.447043 1
0.487563 0.941324 -0.250992 1
0.446656 0.895318 -0.479407 1
0.500236 1.082493 -0.346752 1
0.456053 0.846126 -0.310299 1
0.462520 1.011536 -0.488542 1
0.433486 0.847695 -0.425539 1
0.443152 0.978778 -0.367877 1
0.448482 0.985467 -0.359231 1
0.445205 0.957861 -0.370102 1
0.445771 0.995801 -0.380471 1
0.451394 0.970146 -0.344506 1
0.444603 0.960507 -0.391898 1
0.453754 1.005632 -0.360555 1
0.451376 0.941202 -0.354106 1
0.442299 0.991630 -0.399666 1
0.457757 0.987757 -0.334958 1
0.445661 0.935975 -0.386107 1
0.452567 1.016353 -0.379817 1
0.451171 0.950924 -0.331764 1
0.440746 0.968106 -0.411310 1
0.464512 1.010254 -0.342877 1
0.447589 0.921025 -0.363289 1
0.446870 1.010768 -0.404234 1
0.458251 0.974442 -0.318337 1
0.443952 0.934393 -0.407178 1
0.463082 1.027509 -0.366194 1
0.455496 0.923257 -0.333500 1
0.443719 0.985404 -0.423359 1
0.470533 1.002744 -0.322347 1
0.450036 0.905849 -0.383965 1
0.455015 1.029094 -0.396984 1
0.460562 0.949333 -0.309914 1
0.448808 0.943364 -0.428202 1
0.475518 1.028344 -0.345226 1
0.463182 0.893830 -0.347955 1
0.447297 1.009163 -0.425140 1
0.468063 0.986785 -0.304234 1
0.446477 0.907149 -0.409032 1
0.471335 1.039701 -0.380745 1
0.467218 0.915404 -0.312142 1
0.443657 0.969785 -0.440297 1
0.483906 1.019220 -0.320855 1
0.464594 0.875399 -0.372750 1
0.454288 1.032358 -0.416583 1
0.469004 0.958856 -0.292926 1
0.441883 0.923072 -0.432816 1
0.479966 1.045010 -0.356024 1
0.472893 0.881066 -0.326774 1
0.448059 0.997732 -0.444391 1
0.483280 1.001629 -0.297973 1
0.461941 0.872332 -0.403517 1
0.471013 1.047772 -0.399464 1
0.479595 0.917907 -0.291511 1
0.436375 0.951720 -0.449620 1
0.491555 1.037700 -0.327639 1
0.473935 0.855588 -0.353328 1
0.455151 1.026301 -0.437535 1
0.476315 0.976001 -0.281573 1
0.459383 0.884661 -0.434694 1
0.482234 1.057443 -0.372962 1
0.476714 0.882441 -0.303360 1
0.443864 0.981181 -0.459356 1
0.496813 1.019829 -0.299254 1
0.466469 0.848741 -0.387626 1
0.469700 1.048758 -0.420980 1
0.480947 0.935685 -0.274555 1
0.442043 0.921471 -0.455903 1
0.493426 1.055720 -0.341220 1
0.472310 0.852502 -0.328465 1
0.459050 1.010961 -0.458755 1
0.509337 0.985466 -0.275131 1
0.473442 0.847905 -0.427113 1
0.487247 1.062948 -0.394918 1
0.474782 0.897003 -0.281167 1
0.449810 0.952829 -0.472816 1
0.501482 1.041589 -0.307941 1
0.444481 0.852060 -0.362280 1
0.470954 1.041240 -0.444352 1
0.502305 0.948824 -0.261279 1
0.457625 0.881369 -0.457574 1
0.494359 1.069649 -0.360400 1
0.468069 0.860822 -0.302190 1
0.459901 0.989610 -0.477069 1
0.508494 1.013511 -0.277643 1
0.446517 0.845673 -0.403584 1
0.488839 1.062945 -0.419648 1
0.482773 0.913187 -0.261821 1
0.444665 0.926096 -0.477168 1
0.502969 1.061994 -0.323152 1
0.446122 0.845821 -0.335799 1
0.471143 1.026590 -0.467303 1
0.514848 0.971938 -0.254851 1
0.473792 0.839339 -0.450885 1
0.495709 1.077836 -0.384069 1
0.461640 0.879701 -0.277511 1
0.455617 0.964496 -0.489837 1
0.523228 1.034772 -0.286506 1
0.421922 0.849598 -0.375867 1
0.486374 1.057088 -0.445166 1
0.498080 0.931915 -0.246620 1
0.452480 0.888080 -0.478421 1
0.505818 1.077748 -0.344035 1
0.453165 0.844643 -0.307265 1
0.464471 1.007723 -0.486256 1
0.432773 0.844821 -0.422622 1
0.447434 0.973506 -0.366019 1
0.447977 0.982776 -0.356854 1
0.444247 0.955396 -0.367686 1
0.445056 0.993266 -0.378073 1
0.450738 0.967481 -0.342110 1
0.443457 0.958180 -0.389438 1
0.453488 1.002849 -0.358187 1
0.450360 0.938704 -0.351681 1
0.441166 0.989336 -0.397195 1
0.457556 0.984862 -0.332567 1
0.451791 0.929103 -0.384667 1
0.452266 1.013629 -0.377451 1
0.450590 0.948162 -0.329368 1
0.439700 0.965766 -0.408848 1
0.464682 1.007230 -0.340498 1
0.453106 0.914303 -0.361494 1
0.445968 1.008359 -0.401780 1
0.457625 0.971721 -0.315921 1
0.450760 0.927092 -0.406130 1
0.462739 1.024778 -0.363795 1
0.456957 0.919124 -0.331170 1
0.442380 0.983234 -0.420805 1
0.470130 0.999935 -0.319913 1
0.454546 0.899627 -0.382268 1
0.454419 1.026528 -0.394563 1
0.460180 0.946399 -0.307482 1
0.447525 0.941129 -0.425657 1
0.475403 1.025464 -0.342807 1
0.462013 0.891299 -0.345491 1
0.446078 1.006923 -0.422590 1
0.467461 0.984031 -0.301793 1
0.455466 0.897954 -0.408402 1
0.466454 1.038814 -0.377766 1
0.468462 0.911323 -0.309687 1
0.441895 0.967866 -0.437612 1
0.484059 1.016161 -0.318400 1
0.463852 0.872561 -0.370316 1
0.453299 1.029981 -0.414071 1
0.469846 0.955230 -0.290418 1
0.443981 0.918663 -0.431059 1
0.479959 1.042116 -0.353609 1
0.471495 0.878604 -0.324286 1
0.448911 0.994468 -0.442316 1
0.483548 0.998447 -0.295476 1
0.461291 0.869473 -0.401106 1
0.470536 1.045123 -0.397016 1
0.478132 0.915470 -0.289041 1
0.449470 0.940940 -0.450831 1
0.491633 1.034704 -0.325174 1
0.472577 0.853087 -0.350819 1
0.453155 1.024382 -0.434755 1
0.487288 0.967216 -0.278471 1
0.458757 0.881871 -0.432287 1
0.481766 1.054747 -0.370500 1
0.475419 0.879864 -0.300874 1
0.447467 0.976398 -0.458092 1
0.495840 1.017195 -0.296760 1
0.458729 0.851120 -0.384238 1
0.468585 1.046378 -0.418395 1
0.485941 0.929488 -0.271673 1
0.443452 0.917528 -0.454064 1
0.492087 1.053281 -0.338695 1
0.470746 0.850116 -0.325968 1
0.457102 1.009043 -0.455911 1
0.507710 0.983038 -0.272638 1
0.472412 0.845261 -0.424604 1
0.486388 1.060391 -0.392376 1
0.473238 0.894595 -0.278710 1
0.439546 0.955883 -0.467488 1
0.507869 1.036153 -0.305387 1
0.442406 0.850232 -0.359769 1
0.469153 1.039149 -0.441559 1
0.500513 0.946481 -0.258812 1
0.464791 0.873108 -0.457245 1
0.494070 1.066857 -0.357928 1
0.466608 0.858349 -0.299722 1
0.450279 0.991610 -0.471860 1
0.520659 1.005240 -0.274365 1
0.433360 0.852630 -0.399076 1
0.487989 1.060394 -0.417069 1
0.484292 0.908847 -0.259092 1
0.445321 0.922687 -0.475147 1
0.503347 1.058912 -0.320665 1
0.444360 0.843690 -0.333349 1
0.468985 1.024689 -0.464340 1
0.477393 0.986987 -0.255764 1
0.467276 0.840887 -0.447005 1
0.493575 1.075658 -0.381361 1
0.460213 0.877227 -0.275073 1
0.447066 0.966349 -0.484757 1
0.526372 1.030488 -0.283784 1
0.420551 0.847324 -0.373466 1
0.479678 1.056691 -0.441200 1
0.496311 0.929551 -0.244166 1
0.457492 0.881436 -0.477747 1
0.506504 1.074610 -0.341587 1
0.448079 0.845028 -0.304858 1
0.467418 1.003518 -0.484847 1
0.424442 0.848215 -0.418663 1
0.446740 0.971441 -0.363847 1
0.447599 0.980544 -0.354715 1
0.443473 0.953368 -0.365510 1
0.444484 0.991168 -0.375913 1
0.450266 0.965260 -0.339956 1
0.442509 0.956275 -0.387220 1
0.453316 1.000531 -0.356057 1
0.447710 0.937766 -0.349359 1
0.442816 0.986101 -0.395394 1
0.458101 0.982119 -0.330444 1
0.445945 0.930200 -0.381770 1
0.452057 1.011360 -0.375323 1
0.458647 0.940879 -0.327505 1
0.438839 0.963841 -0.406627 1
0.464898 1.004704 -0.338362 1
0.452304 0.912216 -0.359299 1
0.445220 1.006372 -0.399571 1
0.461822 0.966959 -0.313797 1
0.449086 0.925615 -0.403754 1
0.462563 1.022479 -0.361649 1
0.455132 0.917655 -0.328942 1
0.441245 0.981464 -0.418504 1
0.470032 0.997518 -0.317735 1
0.453791 0.897506 -0.380065 1
0.453949 1.024395 -0.392388 1
0.457129 0.945593 -0.305314 1
0.446270 0.939418 -0.423322 1
0.473605 1.023815 -0.340539 1
0.465599 0.886156 -0.343560 1
0.445043 1.005086 -0.420296 1
0.466998 0.981760 -0.299607 1
0.454826 0.895776 -0.406203 1
0.466226 1.036552 -0.375607 1
0.477371 0.902966 -0.307459 1
0.440773 0.966104 -0.435287 1
0.484703 1.013417 -0.316207 1
0.474975 0.861905 -0.369382 1
0.452647 1.027944 -0.411850 1
0.469954 0.952582 -0.288191 1
0.449388 0.912628 -0.430232 1
0.479973 1.039719 -0.351444 1
0.476418 0.872422 -0.322199 1
0.447299 0.992928 -0.439842 1
0.490240 0.992813 -0.293071 1
0.475806 0.856301 -0.401396 1
0.470166 1.042923 -0.394824 1
0.477652 0.913055 -0.286803 1
0.438325 0.945209 -0.445864 1
0.491676 1.032244 -0.322970 1
0.474592 0.848771 -0.348785 1
0.451965 1.022594 -0.432386 1
0.491674 0.962345 -0.275960 1
0.464912 0.874918 -0.431584 1
0.481390 1.052515 -0.368297 1
0.478510 0.874944 -0.298572 1
0.446057 0.974788 -0.455635 1
0.496481 1.014426 -0.294503 1
0.457479 0.849284 -0.381961 1
0.470471 1.043306 -0.416629 1
0.488993 0.925001 -0.269176 1
0.448885 0.911481 -0.453490 1
0.492362 1.050772 -0.336513 1
0.470055 0.847760 -0.323740 1
0.455407 1.007502 -0.453358 1
0.495863 0.986047 -0.271094 1
0.477089 0.838979 -0.423455 1
0.485663 1.058285 -0.390104 1
0.469470 0.894307 -0.276653 1
0.444791 0.950422 -0.467003 1
0.500426 1.036530 -0.303204 1
0.435983 0.852468 -0.357070 1
0.462250 1.039618 -0.437806 1
0.490990 0.948952 -0.257328 1
0.464323 0.870794 -0.455052 1
0.491989 1.065178 -0.355569 1
0.468694 0.853953 -0.297440 1
0.454652 0.987048 -0.471086 1
0.509642 1.007363 -0.272710 1
0.426268 0.855521 -0.395834 1
0.487282 1.058286 -0.414767 1
0.480747 0.908288 -0.257096 1
0.451657 0.916154 -0.475060 1
0.504301 1.056147 -0.318456 1
0.438980 0.845104 -0.330974 1
0.461507 1.025578 -0.460146 1
0.509672 0.968552 -0.250355 1
0.466259 0.838909 -0.444685 1
0.493036 1.073466 -0.379112 1
0.461795 0.873288 -0.272709 1
0.453818 0.960210 -0.484888 1
0.511871 1.033486 -0.282117 1
0.422356 0.843084 -0.371648 1
0.482385 1.053362 -0.439663 1
0.492575 0.928958 -0.242242 1
0.456012 0.879889 -0.475245 1
0.502979 1.073328 -0.339186 1
0.446801 0.843148 -0.302671 1
0.469456 1.000205 -0.483360 1
0.425676 0.844510 -0.416924 1
0.446076 0.969719 -0.361740 1
0.451514 0.976390 -0.352997 1
0.449221 0.947899 -0.364086 1
0.447807 0.987430 -0.374288 1
0.454473 0.960795 -0.338136 1
0.448082 0.950967 -0.386014 1
0.455471 0.997422 -0.354179 1
0.455812 0.930665 -0.347917 1
0.444122 0.983398 -0.393573 1
0.458726 0.979672 -0.328388 1
0.448951 0.926185 -0.380153 1
0.453841 1.008502 -0.373480 1
0.455991 0.940245 -0.325339 1
0.444023 0.958856 -0.405567 1
0.465567 1.002296 -0.336303 1
0.450330 0.911291 -0.357076 1
0.448349 1.002868 -0.398054 1
0.459576 0.965997 -0.311684 1
0.447635 0.924410 -0.401478 1
0.463420 1.020060 -0.359644 1
0.464361 0.909521 -0.327201 1
0.445620 0.977131 -0.417376 1
0.469681 0.995551 -0.315617 1
0.451971 0.896521 -0.377797 1
0.455381 1.021767 -0.390539 1
0.466637 0.937816 -0.303145 1
0.452513 0.933560 -0.422629 1
0.475364 1.020980 -0.338523 1
0.479256 0.874516 -0.342320 1
0.448603 1.001385 -0.418988 1
0.468972 0.978581 -0.297453 1
0.453626 0.894407 -0.403966 1
0.469355 1.033246 -0.373883 1
0.475419 0.901873 -0.305333 1
0.445585 0.961396 -0.434407 1
0.482002 1.012461 -0.314032 1
0.461297 0.869338 -0.365858 1
0.454327 1.025240 -0.410096 1
0.474031 0.948058 -0.285899 1
0.450925 0.909514 -0.428562 1
0.478730 1.038144 -0.349226 1
0.472926 0.872455 -0.320005 1
0.447782 0.990713 -0.437907 1
0.481013 0.994941 -0.291167 1
0.478590 0.851977 -0.399792 1
0.469055 1.041356 -0.392546 1
0.480237 0.909104 -0.284543 1
0.442028 0.940955 -0.444813 1
0.490599 1.030553 -0.320788 1
0.473412 0.847235 -0.346618 1
0.454579 1.019470 -0.430906 1
0.478478 0.966941 -0.274540 1
0.463312 0.873838 -0.429200 1
0.480674 1.050739 -0.366092 1
0.474083 0.875566 -0.296514 1
0.449579 0.970907 -0.454551 1
0.494555 1.013070 -0.292372 1
0.462625 0.843039 -0.380619 1
0.466604 1.042845 -0.413773 1
0.486358 0.924193 -0.267165 1
0.451195 0.907887 -0.452094 1
0.491246 1.049091 -0.334305 1
0.468009 0.846844 -0.321588 1
0.457261 1.004669 -0.451765 1
0.491529 0.985866 -0.269181 1
0.470859 0.841350 -0.420156 1
0.483724 1.056951 -0.387688 1
0.470766 0.891055 -0.274425 1
0.450160 0.945273 -0.466555 1
0.500433 1.034377 -0.301020 1
0.440767 0.846374 -0.355508 1
0.467189 1.035647 -0.436849 1
0.496843 0.943441 -0.254588 1
0.461598 0.870556 -0.452309 1
0.491532 1.063274 -0.353377 1
0.467345 0.852482 -0.295343 1
0.458053 0.983353 -0.470018 1
0.470122 1.022116 -0.272940 1
0.429559 0.850657 -0.394437 1
0.484722 1.057187 -0.412144 1
0.482611 0.904721 -0.254727 1
0.446951 0.917143 -0.471588 1
0.501314 1.055073 -0.316226 1
0.446226 0.836938 -0.329241 1
0.468978 1.020391 -0.460081 1
0.504335 0.968871 -0.248635 1
0.471568 0.832568 -0.443964 1
0.491399 1.071962 -0.376754 1
0.459785 0.872276 -0.270700 1
0.455011 0.957569 -0.483205 1
0.513637 1.030614 -0.279816 1
0.424302 0.839160 -0.369933 1
0.482873 1.051194 -0.437618 1
0.491337 0.927286 -0.240150 1
0.455395 0.878208 -0.473042 1
0.503519 1.071065 -0.337032 1
0.445420 0.841773 -0.300614 1
0.467169 0.999323 -0.480521 1
0.421483 0.845696 -0.414114 1
0.450872 0.964213 -0.360422 1
0.450697 0.973961 -0.351113 1
0.448274 0.945523 -0.362193 1
0.446743 0.985173 -0.372367 1
0.453698 0.958297 -0.336256 1
0.446909 0.948753 -0.384074 1
0.454887 0.994892 -0.352304 1
0.454886 0.928213 -0.346025 1
0.443074 0.981160 -0.391639 1
0.458128 0.977088 -0.326508 1
0.449142 0.923080 -0.378408 1
0.453167 1.006050 -0.371591 1
0.455545 0.937498 -0.323468 1
0.442797 0.956713 -0.403596 1
0.465093 0.999675 -0.334416 1
0.455135 0.905075 -0.355710 1
0.447387 1.000587 -0.396114 1
0.458813 0.963460 -0.309797 1
0.446978 0.921862 -0.399620 1
0.462932 1.017497 -0.357758 1
0.465665 0.905549 -0.325373 1
0.444462 0.974965 -0.415388 1
0.469045 0.992968 -0.313715 1
0.457412 0.889719 -0.376723 1
0.454788 1.019301 -0.388644 1
0.466335 0.934928 -0.301236 1
0.451304 0.931375 -0.420634 1
0.475146 1.018251 -0.336629 1
0.473224 0.875390 -0.340085 1
0.447470 0.999204 -0.416985 1
0.468419 0.975915 -0.295546 1
0.453183 0.891633 -0.402146 1
0.465492 1.032089 -0.371585 1
0.472883 0.900297 -0.303418 1
0.444315 0.959301 -0.432374 1
0.481643 1.009741 -0.312110 1
0.474235 0.856801 -0.365405 1
0.453526 1.022887 -0.408150 1
0.480438 0.941388 -0.283687 1
0.451458 0.906173 -0.426962 1
0.478720 1.035360 -0.347343 1
0.476774 0.866469 -0.318180 1
0.450214 0.986730 -0.436740 1
0.480553 0.992221 -0.289235 1
0.468128 0.856307 -0.396323 1
0.468508 1.038848 -0.390624 1
0.478917 0.906716 -0.282625 1
0.451937 0.932061 -0.445655 1
0.490199 1.027861 -0.318851 1
0.471436 0.845338 -0.344628 1
0.452977 1.017489 -0.428757 1
0.491542 0.957059 -0.271777 1
0.462925 0.870974 -0.427389 1
0.480115 1.048190 -0.364158 1
0.480088 0.868095 -0.294435 1
0.447907 0.969039 -0.452358 1
0.492157 1.011179 -0.290472 1
0.454869 0.845656 -0.377829 1
0.465873 1.040434 -0.411806 1
0.484963 0.921829 -0.265252 1
0.450658 0.905274 -0.450251 1
0.490338 1.046619 -0.332347 1
0.466235 0.844785 -0.319656 1
0.455166 1.002941 -0.449436 1
0.491816 0.982722 -0.267162 1
0.469356 0.839201 -0.418119 1
0.482776 1.054551 -0.385681 1
0.470525 0.887940 -0.272458 1
0.440443 0.948191 -0.461985 1
0.499804 1.031738 -0.299062 1
0.438353 0.844977 -0.353522 1
0.465863 1.033490 -0.434720 1
0.494189 0.941737 -0.252785 1
0.469347 0.861887 -0.452638 1
0.491298 1.060581 -0.351451 1
0.464648 0.851081 -0.293466 1
0.456656 0.981313 -0.467842 1
0.517292 0.998816 -0.267969 1
0.423712 0.852115 -0.391783 1
0.483840 1.054775 -0.410112 1
0.480821 0.902582 -0.252858 1
0.446551 0.914495 -0.469781 1
0.501215 1.052273 -0.314273 1
0.444654 0.834802 -0.327348 1
0.466955 1.018556 -0.457716 1
0.522186 0.956866 -0.244757 1
0.465027 0.834326 -0.440676 1
0.490642 1.069467 -0.374766 1
0.453319 0.873568 -0.269174 1
0.453416 0.955668 -0.480960 1
0.512378 1.028162 -0.277862 1
0.423122 0.836845 -0.368083 1
0.475834 1.051097 -0.434165 1
0.490649 0.924469 -0.238158 1
0.460682 0.871401 -0.472971 1
0.503570 1.068246 -0.335093 1
0.443972 0.839509 -0.298745 1
0.465667 0.997299 -0.478262 1
0.420108 0.843630 -0.412195 1
0.449778 0.961569 -0.359024 1
0.449695 0.971281 -0.349731 1
0.447023 0.942953 -0.360776 1
0.445884 0.982445 -0.371000 1
0.452649 0.955610 -0.334867 1
0.445612 0.946218 -0.382636 1
0.453945 0.992196 -0.350929 1
0.453686 0.925563 -0.344610 1
0.444902 0.977009 -0.390696 1
0.458916 0.973451 -0.325191 1
0.454342 0.916384 -0.377828 1
0.452338 1.003317 -0.370225 1
0.460906 0.930924 -0.322259 1
0.447473 0.950749 -0.403226 1
0.464292 0.996886 -0.333046 1
0.463586 0.896011 -0.355141 1
0.446251 0.998014 -0.394694 1
0.464116 0.957280 -0.308440 1
0.453309 0.914419 -0.399482 1
0.462169 1.014718 -0.356396 1
0.464564 0.902758 -0.323949 1
0.443159 0.972466 -0.413919 1
0.468153 0.990202 -0.312338 1
0.463625 0.881906 -0.376227 1
0.453944 1.016583 -0.387270 1
0.465609 0.931968 -0.299825 1
0.449884 0.928878 -0.419133 1
0.472999 1.016039 -0.335188 1
0.472244 0.872423 -0.338648 1
0.446205 0.996690 -0.415518 1
0.467562 0.973108 -0.294160 1
0.474944 0.873136 -0.404724 1
0.464828 1.029276 -0.370232 1
0.475794 0.894870 -0.301954 1
0.442885 0.956861 -0.430858 1
0.480857 1.006908 -0.310731 1
0.473476 0.853624 -0.363991 1
0.452539 1.020237 -0.406741 1
0.479275 0.938651 -0.282276 1
0.466688 0.892610 -0.429151 1
0.478327 1.032404 -0.346001 1
0.475927 0.863372 -0.316730 1
0.448694 0.984328 -0.435187 1
0.477207 0.990589 -0.287928 1
0.467772 0.852853 -0.395000 1
0.467729 1.036076 -0.389248 1
0.477326 0.904191 -0.281209 1
0.450049 0.929849 -0.444004 1
0.489517 1.024979 -0.317476 1
0.460939 0.849416 -0.342551 1
0.451410 1.015097 -0.427201 1
0.489462 0.954793 -0.270426 1
0.469156 0.862892 -0.427546 1
0.479451 1.045351 -0.362797 1
0.471312 0.870517 -0.293150 1
0.445896 0.966909 -0.450651 1
0.491202 1.008391 -0.289090 1
0.440280 0.853151 -0.374648 1
0.464963 1.037721 -0.410397 1
0.487266 0.916976 -0.263568 1
0.465078 0.892208 -0.452928 1
0.490020 1.043621 -0.330995 1
0.462541 0.843804 -0.318144 1
0.453230 1.000717 -0.447744 1
0.507740 0.971728 -0.264585 1
0.463974 0.839510 -0.415826 1
0.481729 1.051844 -0.384260 1
0.463450 0.889112 -0.271389 1
0.446901 0.941050 -0.462742 1
0.499353 1.028744 -0.297676 1
0.430212 0.847728 -0.351487 1
0.460787 1.032496 -0.432336 1
0.498360 0.936006 -0.250863 1
0.483195 0.848211 -0.455087 1
0.489343 1.058172 -0.349988 1
0.455998 0.853797 -0.292199 1
0.456223 0.978317 -0.466553 1
0.514906 0.996558 -0.266651 1
0.422023 0.849807 -0.390288 1
0.482850 1.052037 -0.408675 1
0.478786 0.900327 -0.251501 1
0.453210 0.906721 -0.470687 1
0.500503 1.049396 -0.312900 1
0.442857 0.832456 -0.325885 1
0.464096 1.016673 -0.455745 1
0.519292 0.954884 -0.243504 1
0.461692 0.833111 -0.438699 1
0.489881 1.066642 -0.373385 1
0.452029 0.870872 -0.267746 1
0.451790 0.953299 -0.479306 1
0.475875 1.039254 -0.278235 1
0.419605 0.836036 -0.366393 1
0.474725 1.048425 -0.432684 1
0.493892 0.919087 -0.236198 1
0.461607 0.867111 -0.472132 1
0.499152 1.066594 -0.333548 1
0.442448 0.836951 -0.297306 1
0.464472 0.994674 -0.476723 1
0.418378 0.841360 -0.410671 1
0.446757 0.959624 -0.358079 1
0.451553 0.966676 -0.349213 1
0.451485 0.936568 -0.360592 1
0.448998 0.977268 -0.370749 1
0.454793 0.950719 -0.334281 1
0.451347 0.939117 -0.382866 1
0.453743 0.988770 -0.350241 1
0.456911 0.919740 -0.344162 1
0.445833 0.972948 -0.390255 1
0.455460 0.971666 -0.324350 1
0.451418 0.914395 -0.376844 1
0.452729 0.999648 -0.369632 1
0.456351 0.929877 -0.321395 1
0.446897 0.947404 -0.402570 1
0.460870 0.994994 -0.332172 1
0.472302 0.886223 -0.355262 1
0.449614 0.992863 -0.394660 1
0.456614 0.957739 -0.307653 1
0.459890 0.906311 -0.400072 1
0.459807 1.012313 -0.355512 1
0.465723 0.898050 -0.323255 1
0.447717 0.966398 -0.414305 1
0.463166 0.989072 -0.311537 1
0.466048 0.876173 -0.375939 1
0.453422 1.013380 -0.386576 1
0.467080 0.927276 -0.299024 1
0.455608 0.921533 -0.419831 1
0.468384 1.014570 -0.334242 1
0.484347 0.859847 -0.338651 1
0.449807 0.991406 -0.415702 1
0.463619 0.971527 -0.293461 1
0.468577 0.873422 -0.403081 1
0.462477 1.026837 -0.369308 1
0.474639 0.891608 -0.301174 1
0.448143 0.950187 -0.431599 1
0.473433 1.006695 -0.309923 1
0.471805 0.850611 -0.363192 1
0.453113 1.016555 -0.406262 1
0.473116 0.938356 -0.281714 1
0.454569 0.896703 -0.425989 1
0.472658 1.031245 -0.344909 1
0.474956 0.859878 -0.315956 1
0.452699 0.978704 -0.435639 1
0.471075 0.989944 -0.287334 1
0.472505 0.845129 -0.395219 1
0.463557 1.034356 -0.387997 1
0.478448 0.899504 -0.280321 1
0.456085 0.922326 -0.445100 1
0.482260 1.024445 -0.316595 1
0.451168 0.852555 -0.341226 1
0.453054 1.010903 -0.427020 1
0.477427 0.957443 -0.270333 1
0.484794 0.847474 -0.430500 1
0.474395 1.043856 -0.361620 1
0.473810 0.864626 -0.292274 1
0.450661 0.960658 -0.451476 1
0.484266 1.007857 -0.288507 1
0.443765 0.846269 -0.374524 1
0.461408 1.035758 -0.409130 1
0.480573 0.917068 -0.263191 1
0.454575 0.895250 -0.449724 1
0.484700 1.042168 -0.330048 1
0.454172 0.845916 -0.317214 1
0.457480 0.995162 -0.448350 1
0.482041 0.980534 -0.265540 1
0.453031 0.843624 -0.413179 1
0.476398 1.050394 -0.382882 1
0.467449 0.882379 -0.270268 1
0.452917 0.933703 -0.464087 1
0.491213 1.028445 -0.297024 1
0.427106 0.846028 -0.350578 1
0.461476 1.028794 -0.431934 1
0.489185 0.937245 -0.250838 1
0.479705 0.846468 -0.453789 1
0.484773 1.056362 -0.348946 1
0.455485 0.849983 -0.291392 1
0.458308 0.973634 -0.466712 1
0.492747 1.002656 -0.267276 1
0.422760 0.845044 -0.389894 1
0.475019 1.051499 -0.406652 1
0.470613 0.901565 -0.251381 1
0.457228 0.900168 -0.471538 1
0.494335 1.048144 -0.312084 1
0.441291 0.829421 -0.325107 1
0.464737 1.012911 -0.455403 1
0.495556 0.963072 -0.245065 1
0.454102 0.834727 -0.436468 1
0.483603 1.065361 -0.371987 1
0.452772 0.866236 -0.266809 1
0.456277 0.947041 -0.480345 1
0.503694 1.024795 -0.276054 1
0.423189 0.828765 -0.366236 1
0.469553 1.046983 -0.430941 1
0.485705 0.919987 -0.236249 1
0.465138 0.860432 -0.472862 1
0.494563 1.064686 -0.332615 1
0.445551 0.830175 -0.296446 1
0.465208 0.990761 -0.476489 1
0.418418 0.837114 -0.410234 1
0.452658 0.953539 -0.358395 1
0.450475 0.964514 -0.348840 1
0.450302 0.934447 -0.360228 1
0.447957 0.975118 -0.370357 1
0.453680 0.948541 -0.333929 1
0.450176 0.937007 -0.382485 1
0.452774 0.986563 -0.349858 1
0.455728 0.917572 -0.343823 1
0.448406 0.968866 -0.390429 1
0.454398 0.969471 -0.323991 1
0.458280 0.907085 -0.377558 1
0.451771 0.997460 -0.369229 1
0.467291 0.920321 -0.321420 1
0.445719 0.945334 -0.402164 1
0.459909 0.992754 -0.331795 1
0.470897 0.884120 -0.354924 1
0.448613 0.990719 -0.394240 1
0.455513 0.955537 -0.307313 1
0.458598 0.904228 -0.399694 1
0.458933 1.010063 -0.355113 1
0.464496 0.895842 -0.322943 1
0.446630 0.964297 -0.413885 1
0.462185 0.986816 -0.311175 1
0.479944 0.863450 -0.377545 1
0.452528 1.011181 -0.386157 1
0.465926 0.925035 -0.298707 1
0.454410 0.919434 -0.419438 1
0.466627 1.012673 -0.333807 1
0.482858 0.857721 -0.338342 1
0.448793 0.989281 -0.415266 1
0.462614 0.969253 -0.293120 1
0.483699 0.859824 -0.405623 1
0.461654 1.024576 -0.368894 1
0.473262 0.889446 -0.300878 1
0.446996 0.948117 -0.431173 1
0.472536 1.004379 -0.309550 1
0.470358 0.848503 -0.362876 1
0.452210 1.014377 -0.405825 1
0.472028 0.936058 -0.281398 1
0.455192 0.893358 -0.426028 1
0.471881 1.028922 -0.344506 1
0.473478 0.857759 -0.315667 1
0.451617 0.976609 -0.435189 1
0.470133 0.987628 -0.286983 1
0.470989 0.843086 -0.394874 1
0.462756 1.032101 -0.387568 1
0.477064 0.897327 -0.280037 1
0.454861 0.920260 -0.444682 1
0.481471 1.022074 -0.316208 1
0.449180 0.850914 -0.340891 1
0.452050 1.008782 -0.426554 1
0.476521 0.955044 -0.270002 1
0.483285 0.845412 -0.430123 1
0.473669 1.041527 -0.361204 1
0.472305 0.862519 -0.292003 1
0.449494 0.958614 -0.451015 1
0.480647 1.006701 -0.288224 1
0.429364 0.854379 -0.372517 1
0.460581 1.033536 -0.408684 1
0.479958 0.914421 -0.262856 1
0.453809 0.892853 -0.449461 1
0.483997 1.039778 -0.329645 1
0.454862 0.842188 -0.316984 1
0.456344 0.993096 -0.447854 1
0.481223 0.978101 -0.265193 1
0.451527 0.841650 -0.412821 1
0.475619 1.048098 -0.382442 1
0.465966 0.880281 -0.270008 1
0.451703 0.931666 -0.463640 1
0.490493 1.026010 -0.296640 1
0.428527 0.841741 -0.350531 1
0.460522 1.026636 -0.431453 1
0.487974 0.934943 -0.250547 1
0.478339 0.844335 -0.453431 1
0.482860 1.054426 -0.348434 1
0.453948 0.847946 -0.291133 1
0.457192 0.971557 -0.466235 1
0.492071 1.000152 -0.266909 1
0.421293 0.843130 -0.389561 1
0.474254 1.049218 -0.406200 1
0.469244 0.899387 -0.251121 1
0.449633 0.902315 -0.469187 1
0.493662 1.045707 -0.311683 1
0.439642 0.827521 -0.324830 1
0.463885 1.010705 -0.454953 1
0.492814 0.961548 -0.244926 1
0.433847 0.847526 -0.431557 1
0.482897 1.063017 -0.371547 1
0.451264 0.864188 -0.266564 1
0.447378 0.949452 -0.477391 1
0.499664 1.023629 -0.275841 1
0.421704 0.826822 -0.365936 1
0.468714 1.044760 -0.430464 1
0.484406 0.917721 -0.235984 1
0.463942 0.858256 -0.472523 1
0.492036 1.062898 -0.332109 1
0.443977 0.828179 -0.296196 1
0.464198 0.988627 -0.476011 1
0.416901 0.835259 -0.409883 1
0.451803 0.951926 -0.358191 1
0.449644 0.962890 -0.348637 1
0.449397 0.932862 -0.360034 1
0.447154 0.973502 -0.370132 1
0.452816 0.946914 -0.333746 1
0.449283 0.935428 -0.382273 1
0.452016 0.984905 -0.349642 1
0.454805 0.915966 -0.343653 1
0.447590 0.967266 -0.390194 1
0.456775 0.966107 -0.323915 1
0.457315 0.905513 -0.377368 1
0.451028 0.995812 -0.368993 1
0.466432 0.918636 -0.321266 1
0.451438 0.939884 -0.403137 1
0.459763 0.990772 -0.331618 1
0.469893 0.882516 -0.354767 1
0.447846 0.989103 -0.393990 1
0.464316 0.948477 -0.307187 1
0.457628 0.902671 -0.399490 1
0.458245 1.008368 -0.354883 1
0.463525 0.894220 -0.322801 1
0.445803 0.962720 -0.413636 1
0.461416 0.985118 -0.310985 1
0.478899 0.861851 -0.377386 1
0.451833 1.009523 -0.385905 1
0.465010 0.923376 -0.298565 1
0.453498 0.917870 -0.419215 1
0.465993 1.010924 -0.333591 1
0.481771 0.856118 -0.338212 1
0.448019 0.987680 -0.415002 1
0.461811 0.967555 -0.292953 1
0.482641 0.858240 -0.405447 1
0.461008 1.022869 -0.368648 1
0.481932 0.881417 -0.300687 1
0.446128 0.946566 -0.430920 1
0.471825 1.002634 -0.309351 1
0.469264 0.846944 -0.362734 1
0.451514 1.012733 -0.405558 1
0.471148 0.934358 -0.281260 1
0.455830 0.890733 -0.426175 1
0.470818 1.027350 -0.344243 1
0.474033 0.854989 -0.315585 1
0.450803 0.975030 -0.434916 1
0.468554 0.986293 -0.286835 1
0.467775 0.843123 -0.394371 1
0.462128 1.030397 -0.387308 1
0.476046 0.895680 -0.279927 1
0.453940 0.918716 -0.444439 1
0.480832 1.020287 -0.315995 1
0.448092 0.849394 -0.340761 1
0.451292 1.007178 -0.426266 1
0.475753 0.953274 -0.269855 1
0.484832 0.841941 -0.430517 1
0.473087 1.039767 -0.360956 1
0.471211 0.860923 -0.291905 1
0.448622 0.957075 -0.450735 1
0.479976 1.004908 -0.288036 1
0.428287 0.852923 -0.372358 1
0.459940 1.031855 -0.408407 1
0.478985 0.912736 -0.262748 1
0.454324 0.890323 -0.449630 1
0.483425 1.037971 -0.329416 1
0.453725 0.840670 -0.316878 1
0.455504 0.991531 -0.447547 1
0.480519 0.976296 -0.265034 1
0.450415 0.840178 -0.412642 1
0.475012 1.046357 -0.382175 1
0.465597 0.878201 -0.269873 1
0.450794 0.930140 -0.463373 1
0.489896 1.024175 -0.296435 1
0.427433 0.840278 -0.350398 1
0.459164 1.025272 -0.431005 1
0.487043 0.933216 -0.250434 1
0.477298 0.842767 -0.453242 1
0.482323 1.052624 -0.348186 1
0.452829 0.846405 -0.291044 1
0.456358 0.969993 -0.465942 1
0.491466 0.998288 -0.266731 1
0.418907 0.842768 -0.389180 1
0.473659 1.047491 -0.405920 1
0.468213 0.897751 -0.251033 1
0.449406 0.900326 -0.469160 1
0.493108 1.043864 -0.311458 1
0.436451 0.827722 -0.324649 1
0.463129 1.009090 -0.454645 1
0.492035 0.959735 -0.244791 1
0.432768 0.846089 -0.431361 1
0.482343 1.061237 -0.371280 1
0.450190 0.862618 -0.266484 1
0.447319 0.947459 -0.477365 1
0.499150 1.021728 -0.275643 1
0.417515 0.828005 -0.365432 1
0.468074 1.043076 -0.430165 1
0.483416 0.916022 -0.235896 1
0.465980 0.854504 -0.473240 1
0.491523 1.061060 -0.331865 1
0.442019 0.827334 -0.296128 1
0.463432 0.987023 -0.475713 1
0.506279 0.983857 -0.245247 1
0.416692 0.833111 -0.409893 1
0.448329 0.952166 -0.357750 1
0.452282 0.959719 -0.348745 1
0.453656 0.928514 -0.360387 1
0.450747 0.969891 -0.370473 1
0.455365 0.943690 -0.333773 1
0.454424 0.930579 -0.382946 1
0.453469 0.982477 -0.349647 1
0.458707 0.911697 -0.343844 1
0.447317 0.965717 -0.390066 1
0.454265 0.965726 -0.323702 1
0.453912 0.905905 -0.376854 1
0.452100 0.993620 -0.369010 1
0.457875 0.922072 -0.320901 1
0.449767 0.939131 -0.402771 1
0.458350 0.989765 -0.331419 1
0.456826 0.889461 -0.353524 1
0.450536 0.986082 -0.394345 1
0.456666 0.951007 -0.307024 1
0.464509 0.896362 -0.400648 1
0.458120 1.006758 -0.354746 1
0.466771 0.890215 -0.322811 1
0.449900 0.958750 -0.414408 1
0.461094 0.983564 -0.310844 1
0.461494 0.872131 -0.375110 1
0.452895 1.007384 -0.385955 1
0.468183 0.919636 -0.298404 1
0.458297 0.913069 -0.420199 1
0.465170 1.009611 -0.333412 1
0.484575 0.852189 -0.338309 1
0.450648 0.984687 -0.415463 1
0.461496 0.965978 -0.292817 1
0.465225 0.868555 -0.402353 1
0.461660 1.020939 -0.368599 1
0.473788 0.884909 -0.300633 1
0.449804 0.942699 -0.431747 1
0.469566 1.001962 -0.309188 1
0.461479 0.850759 -0.361877 1
0.452783 1.010516 -0.405693 1
0.473744 0.931042 -0.281011 1
0.458907 0.886820 -0.426854 1
0.469667 1.026160 -0.344023 1
0.474273 0.852870 -0.315501 1
0.453781 0.971782 -0.435576 1
0.467357 0.985151 -0.286723 1
0.464644 0.843523 -0.393853 1
0.461717 1.028929 -0.387125 1
0.475550 0.894120 -0.279817 1
0.447389 0.921061 -0.442731 1
0.478232 1.019681 -0.315796 1
0.443937 0.850643 -0.340416 1
0.453315 1.004595 -0.426634 1
0.470065 0.954570 -0.270055 1
0.476247 0.846243 -0.428649 1
0.472008 1.038536 -0.360711 1
0.470625 0.859402 -0.291806 1
0.451136 0.953963 -0.451383 1
0.479416 1.003437 -0.287898 1
0.435893 0.845043 -0.373324 1
0.459783 1.030292 -0.408264 1
0.477681 0.911675 -0.262697 1
0.457389 0.886419 -0.450461 1
0.481571 1.037010 -0.329188 1
0.449279 0.842148 -0.316693 1
0.457583 0.988850 -0.448028 1
0.477723 0.975923 -0.265070 1
0.444935 0.842513 -0.411551 1
0.474287 1.044989 -0.381943 1
0.465175 0.876587 -0.269764 1
0.454653 0.926044 -0.464503 1
0.488509 1.023027 -0.296299 1
0.426354 0.839226 -0.350252 1
0.460033 1.023274 -0.431107 1
0.479834 0.935463 -0.250956 1
0.472519 0.844352 -0.452028 1
0.482174 1.051021 -0.348028 1
0.452094 0.845015 -0.290952 1
0.458346 0.967254 -0.466493 1
0.490165 0.997123 -0.266655 1
0.420531 0.839527 -0.389441 1
0.472328 1.046359 -0.405556 1
0.466143 0.897220 -0.251078 1
0.457118 0.893387 -0.471545 1
0.490116 1.043279 -0.311268 1
0.438657 0.823934 -0.324661 1
0.463869 1.007110 -0.454771 1
0.489035 0.959476 -0.244935 1
0.449060 0.831266 -0.435363 1
0.481223 1.059982 -0.371006 1
0.448991 0.861580 -0.266432 1
0.456810 0.940233 -0.480421 1
0.498701 1.020176 -0.275503 1
0.422459 0.821839 -0.366000 1
0.470164 1.040644 -0.430525 1
0.483246 0.914258 -0.235750 1
0.462874 0.854877 -0.472349 1
0.490619 1.059701 -0.331667 1
0.443235 0.824358 -0.296008 1
0.463968 0.985091 -0.475832 1
0.504317 0.982971 -0.245276 1
0.415185 0.832461 -0.409596 1
0.447497 0.950657 -0.358222 1
0.451481 0.958188 -0.349221 1
0.452758 0.927017 -0.360878 1
0.449928 0.968383 -0.370928 1
0.454411 0.942228 -0.334262 1
0.453563 0.929064 -0.383433 1
0.452648 0.980965 -0.350103 1
0.457706 0.910241 -0.344352 1
0.446502 0.964215 -0.390517 1
0.453384 0.964232 -0.324182 1
0.462998 0.897893 -0.378709 1
0.451479 0.992022 -0.369470 1
0.456793 0.920671 -0.321412 1
0.448901 0.937637 -0.403239 1
0.457497 0.988257 -0.331882 1
0.462680 0.883349 -0.354671 1
0.449806 0.984542 -0.394792 1
0.455672 0.949563 -0.307527 1
0.463616 0.894817 -0.401169 1
0.457348 1.005223 -0.355188 1
0.465608 0.888833 -0.323349 1
0.449107 0.957231 -0.414868 1
0.460287 0.982021 -0.311327 1
0.462626 0.869142 -0.375919 1
0.452161 1.005851 -0.386384 1
0.467132 0.918187 -0.298945 1
0.457339 0.911596 -0.420680 1
0.464308 1.008097 -0.333863 1
0.483714 0.850530 -0.338900 1
0.449959 0.983130 -0.415917 1
0.460425 0.964563 -0.293328 1
0.466478 0.865466 -0.403285 1
0.460467 1.019586 -0.368975 1
0.472752 0.883421 -0.301200 1
0.448950 0.941205 -0.432208 1
0.468720 1.000423 -0.309667 1
0.460405 0.849304 -0.362423 1
0.452090 1.008971 -0.406122 1
0.472594 0.929638 -0.281570 1
0.457917 0.885346 -0.427355 1
0.468908 1.024597 -0.344466 1
0.469482 0.854071 -0.316003 1
0.453135 0.970190 -0.436058 1
0.466409 0.983657 -0.287230 1
0.462677 0.842726 -0.394252 1
0.461032 1.027365 -0.387549 1
0.474799 0.892447 -0.280383 1
0.458471 0.912028 -0.446319 1
0.477401 1.018120 -0.316266 1
0.442767 0.849302 -0.340949 1
0.452710 1.003010 -0.427088 1
0.477099 0.948714 -0.270114 1
0.476705 0.843631 -0.429533 1
0.471343 1.036938 -0.361147 1
0.470068 0.857562 -0.292383 1
0.450369 0.952429 -0.451854 1
0.478508 1.001898 -0.288402 1
0.434884 0.843590 -0.373855 1
0.459131 1.028726 -0.408687 1
0.476537 0.910253 -0.263289 1
0.461613 0.881389 -0.452364 1
0.480484 1.035546 -0.329627 1
0.447999 0.840874 -0.317252 1
0.457011 0.987232 -0.448516 1
0.476556 0.974509 -0.265626 1
0.443970 0.841002 -0.412094 1
0.473676 1.043375 -0.382376 1
0.464417 0.874920 -0.270334 1
0.453847 0.924501 -0.465002 1
0.486168 1.022054 -0.296810 1
0.425132 0.837963 -0.350767 1
0.459455 1.021679 -0.431552 1
0.488190 0.928628 -0.250666 1
0.476955 0.838792 -0.454028 1
0.481507 1.049402 -0.348468 1
0.451357 0.843318 -0.291525 1
0.457688 0.965661 -0.466988 1
0.486146 0.996960 -0.267391 1
0.420034 0.837679 -0.390046 1
0.471698 1.044765 -0.405978 1
0.465293 0.895632 -0.251653 1
0.456058 0.891972 -0.472010 1
0.489358 1.041663 -0.311736 1
0.437317 0.822727 -0.325215 1
0.463357 1.005471 -0.455260 1
0.487859 0.958038 -0.245536 1
0.428981 0.844955 -0.431225 1
0.480664 1.058338 -0.371440 1
0.448275 0.859897 -0.266994 1
0.456002 0.938703 -0.480905 1
0.497769 1.018599 -0.276026 1
0.421237 0.820571 -0.366516 1
0.467442 1.039876 -0.430473 1
0.482292 0.912704 -0.236353 1
0.462554 0.852871 -0.473095 1
0.489907 1.058075 -0.332113 1
0.442338 0.822778 -0.296588 1
0.463277 0.983523 -0.476301 1
0.502984 0.981561 -0.245892 1
0.414091 0.831108 -0.410095 1
0.453837 0.944319 -0.360326 1
0.450395 0.956125 -0.350559 1
0.451504 0.925000 -0.362227 1
0.448753 0.966373 -0.372243 1
0.452974 0.940350 -0.335598 1
0.452377 0.926988 -0.384792 1
0.451437 0.978990 -0.351414 1
0.456238 0.908335 -0.345711 1
0.450037 0.959604 -0.392602 1
0.452090 0.962300 -0.325515 1
0.461885 0.895695 -0.380128 1
0.450358 0.990005 -0.370774 1
0.467327 0.911349 -0.323185 1
0.447648 0.935613 -0.404572 1
0.456186 0.986332 -0.333201 1
0.464530 0.879124 -0.356372 1
0.448809 0.982446 -0.396121 1
0.464097 0.942099 -0.308967 1
0.462420 0.892647 -0.402590 1
0.456179 1.003229 -0.356492 1
0.463798 0.887125 -0.324741 1
0.448011 0.955137 -0.416215 1
0.459125 0.980019 -0.312675 1
0.471669 0.859697 -0.378714 1
0.451085 1.003816 -0.387682 1
0.465542 0.916369 -0.300354 1
0.455924 0.909597 -0.422031 1
0.462554 1.006358 -0.335157 1
0.473330 0.854842 -0.339800 1
0.449072 0.980964 -0.417280 1
0.458612 0.962906 -0.294709 1
0.473813 0.857171 -0.406295 1
