ply
format ascii 1.0
element vertex 1586
property float x
property float y
property float z
property uchar label
end_header
0.847943 0.010502 -0.202388 0
0.630333 0.504071 -1.257168 0
0.444182 0.008776 -0.631106 0
1.654346 0.473834 -1.595817 0
1.379601 -0.007157 -0.059161 0
0.557385 0.027625 -1.267754 0
0.610260 0.001190 -0.310835 0
0.927117 0.517767 -1.467049 0
0.384534 0.010875 -0.853736 0
0.971529 0.034903 -0.075471 0
0.508198 0.422609 -1.257695 0
0.435238 -0.002500 -0.478473 0
1.407462 0.508076 -1.677149 0
1.561286 0.095044 -0.002721 0
0.404619 0.029462 -1.117051 0
0.697003 -0.004414 -0.164788 0
0.715419 0.507829 -1.439862 0
0.326793 0.008845 -0.693416 0
1.193227 0.020989 0.040965 0
0.506893 0.099945 -1.387957 0
0.466229 -0.000057 -0.321894 0
1.123866 0.524388 -1.683888 0
1.862236 0.152755 0.013865 0
0.299283 0.020764 -0.953536 0
0.845115 -0.017094 -0.022814 0
0.517026 0.489855 -1.365778 0
0.310424 0.010220 -0.527890 0
1.356832 0.138653 0.103280 0
0.369634 0.029806 -1.264399 0
0.550622 -0.012300 -0.166772 0
0.836190 0.533452 -1.617316 0
0.236541 0.011040 -0.781050 0
1.272670 0.050693 -0.843030 0
1.416263 0.045468 -0.807601 0
1.101674 0.014625 -0.789032 0
1.443441 0.052872 -1.045771 0
1.328966 0.026247 -0.628964 0
1.046248 0.028209 -0.968324 0
1.720421 0.041889 -0.931731 0
1.031066 0.018764 -0.614408 0
1.095547 0.260075 -1.065790 0
1.590000 0.044964 -0.612141 0
0.874773 0.015386 -0.827999 0
1.741416 0.087330 -1.167106 0
1.196399 0.000767 -0.471274 0
0.793910 0.324179 -0.991487 0
1.895384 0.076538 -0.786221 0
0.840373 0.006995 -0.620872 0
1.101824 0.446611 -1.096576 0
1.518414 0.014526 -0.427018 0
0.790561 0.026917 -0.967352 0
0.980959 -0.003814 -0.425134 0
0.783135 0.470645 -1.064314 0
1.952088 0.039678 -0.567219 0
0.703056 0.000764 -0.721976 0
1.395432 0.443165 -1.177532 0
1.269615 0.031211 -0.303498 0
0.629049 0.314286 -1.005267 0
0.776098 -0.005723 -0.469779 0
0.978802 0.491761 -1.201002 0
1.790562 0.017496 -0.342144 0
0.629473 0.010032 -0.884811 0
1.892818 0.343261 -1.224239 0
1.023236 0.009353 -0.270204 0
0.628841 0.477272 -1.084427 0
0.611454 0.005133 -0.584443 0
1.283426 0.505544 -1.303999 0
1.524054 -0.019542 -0.188487 0
0.632553 0.038103 -1.088682 0
0.792305 -0.012612 -0.320422 0
0.836516 0.485710 -1.263659 0
0.519019 0.003160 -0.759229 0
1.733506 0.475723 -1.356262 0
1.158327 0.009248 -0.138598 0
0.535417 0.383463 -1.110364 0
0.590839 -0.003994 -0.439155 0
1.149782 0.506652 -1.415350 0
1.794849 0.004330 -0.122130 0
0.495715 0.019967 -0.977091 0
0.842177 0.029823 -0.179373 0
0.644068 0.500957 -1.237301 0
0.452797 0.011245 -0.611233 0
1.647034 0.484346 -1.547004 0
1.387239 -0.004491 -0.027678 0
0.567756 0.035930 -1.238092 0
0.628115 -0.018136 -0.289789 0
0.968828 0.489791 -1.468914 0
0.399157 0.003419 -0.836754 0
0.973264 0.042305 -0.050434 0
0.510879 0.437334 -1.223828 0
0.442951 -0.000849 -0.459246 0
1.432339 0.498454 -1.653219 0
1.560861 0.105321 0.028957 0
0.419046 0.027996 -1.096279 0
0.702670 -0.002661 -0.142342 0
0.723006 0.512476 -1.408830 0
0.338975 0.003479 -0.676553 0
1.169920 0.055657 0.063014 0
0.525256 0.094029 -1.367326 0
0.479045 -0.012754 -0.302703 0
1.174129 0.493662 -1.689509 0
1.810307 0.198524 0.040768 0
0.318064 0.003150 -0.941682 0
0.866397 -0.038869 0.006224 0
0.528525 0.491121 -1.341321 0
0.323303 -0.001653 -0.512106 0
1.733086 0.538367 -1.834967 0
1.357839 0.146755 0.132536 0
0.383110 0.034121 -1.239166 0
0.557834 -0.014441 -0.145799 0
0.879444 0.502680 -1.625069 0
2.079106 0.315074 -0.011353 0
0.247509 0.011521 -0.763360 0
1.283193 0.026693 -0.849933 0
1.399093 0.048692 -0.805029 0
1.085031 0.020889 -0.785375 0
1.427117 0.053684 -1.042267 0
1.328227 0.014939 -0.630837 0
1.025264 0.039331 -0.960769 0
1.681656 0.059122 -0.922364 0
1.015915 0.025136 -0.612230 0
1.098681 0.243639 -1.072396 0
1.586901 0.035815 -0.613865 0
0.867394 0.011424 -0.827355 0
1.711782 0.095318 -1.158368 0
1.172922 0.015497 -0.469412 0
0.826205 0.271174 -1.018658 0
1.917132 0.048239 -0.794603 0
0.829937 0.009054 -0.619337 0
1.071464 0.460530 -1.083475 0
1.487390 0.031607 -0.425978 0
0.784753 0.020054 -0.967550 0
0.955860 0.017554 -0.422997 0
0.770737 0.472051 -1.060522 0
1.935727 0.039515 -0.567638 0
0.693628 0.001830 -0.720020 0
1.365097 0.451956 -1.166470 0
1.241478 0.050301 -0.303944 0
0.622445 0.310037 -1.005207 0
0.767087 -0.004271 -0.468931 0
0.961239 0.495161 -1.193892 0
1.750154 0.038440 -0.342623 0
0.622965 0.005305 -0.884153 0
1.807954 0.379469 -1.192189 0
1.000878 0.027073 -0.270664 0
0.624370 0.470134 -1.086620 0
0.601565 0.008979 -0.582522 0
1.305702 0.476529 -1.325371 0
1.493144 -0.000902 -0.190815 0
0.628110 0.028327 -1.090193 0
0.778597 -0.002948 -0.319932 0
0.809001 0.501017 -1.245317 0
0.512297 0.000228 -0.758149 0
1.689654 0.486961 -1.338666 0
1.163761 -0.006329 -0.137960 0
0.531387 0.375130 -1.112905 0
0.579900 0.003199 -0.437646 0
1.124179 0.513248 -1.401463 0
1.779758 0.006763 -0.124377 0
0.494943 0.002702 -0.981718 0
0.837001 0.027104 -0.179448 0
0.636226 0.497140 -1.236239 0
0.451867 -0.003484 -0.612834 0
1.600993 0.496995 -1.523164 0
1.374786 -0.000922 -0.029654 0
0.560409 0.030610 -1.236816 0
0.619539 -0.014839 -0.289287 0
0.945547 0.497078 -1.453722 0
0.395220 -0.006500 -0.837827 0
0.969259 0.038524 -0.050610 0
0.497121 0.443711 -1.214553 0
0.434585 0.002874 -0.457795 0
1.409882 0.498327 -1.642569 0
1.553286 0.103729 0.026902 0
0.417453 0.010690 -1.101611 0
0.694390 0.000463 -0.142547 0
0.711735 0.511027 -1.403947 0
0.333295 -0.000585 -0.675773 0
1.171068 0.046533 0.063736 0
0.518952 0.086158 -1.367594 0
0.471092 -0.009223 -0.301943 0
1.144831 0.501488 -1.668738 0
1.793949 0.201986 0.036536 0
0.308497 0.008035 -0.936784 0
0.857946 -0.035861 0.005464 0
0.523596 0.483210 -1.343571 0
0.316474 -0.000984 -0.510686 0
1.703308 0.538477 -1.819856 0
1.351837 0.145261 0.130681 0
0.381738 0.014585 -1.246596 0
0.551681 -0.014229 -0.145421 0
0.858955 0.507711 -1.609536 0
2.105800 0.292320 -0.010969 0
0.242667 0.004155 -0.763449 0
1.234539 0.050402 -0.879857 0
1.370341 0.051007 -0.845112 0
1.064887 0.017067 -0.822521 0
1.396762 0.054077 -1.082814 0
1.307084 0.012878 -0.671821 0
1.006181 0.031337 -0.998889 0
1.660535 0.051181 -0.971001 0
1.003918 0.014822 -0.649658 0
0.965427 0.352305 -1.040920 0
1.562940 0.034344 -0.659133 0
0.853545 -0.001113 -0.864050 0
1.543271 0.199611 -1.139391 0
1.153887 0.015138 -0.507851 0
0.749122 0.337844 -1.010374 0
1.892975 0.042446 -0.846279 0
0.819242 -0.003394 -0.654080 0
1.030640 0.472866 -1.107082 0
1.466979 0.030214 -0.470270 0
0.751735 0.033903 -0.991987 0
0.949276 0.003940 -0.459104 0
0.734682 0.485746 -1.078824 0
1.905959 0.039716 -0.618794 0
0.673665 0.002106 -0.749367 0
1.311256 0.468457 -1.190129 0
1.257584 0.014947 -0.345370 0
0.584194 0.333574 -1.018223 0
0.751263 -0.004932 -0.500261 0
0.933582 0.495533 -1.224371 0
1.722271 0.041455 -0.391765 0
0.602008 0.003142 -0.913105 0
1.694064 0.425713 -1.199911 0
0.991810 0.019737 -0.306814 0
0.599235 0.472402 -1.110893 0
0.586359 0.005427 -0.611240 0
1.227370 0.510276 -1.328656 0
1.474816 -0.001229 -0.236571 0
0.595715 0.041301 -1.111475 0
0.764673 -0.002974 -0.351853 0
0.779847 0.503488 -1.271758 0
0.494203 -0.002991 -0.785459 0
1.668304 0.477676 -1.388744 0
1.135595 0.009495 -0.179041 0
0.521881 0.351955 -1.154139 0
0.565845 0.002134 -0.465699 0
1.127447 0.485245 -1.464397 0
1.755971 0.008607 -0.176093 0
0.470747 0.004869 -1.006782 0
0.841083 0.003420 -0.211689 0
0.608245 0.500093 -1.259861 0
0.430453 0.007112 -0.635932 0
1.574378 0.489948 -1.570900 0
1.363125 -0.004269 -0.073806 0
0.546088 0.003975 -1.280742 0
0.602040 -0.005302 -0.318286 0
0.923212 0.489096 -1.493461 0
0.372169 0.000061 -0.859842 0
0.939083 0.063083 -0.090460 0
0.487679 0.418780 -1.259671 0
0.420766 0.001908 -0.483199 0
1.387094 0.488432 -1.692464 0
1.591957 0.057478 -0.012793 0
0.394343 0.006063 -1.128962 0
0.683248 0.001538 -0.173665 0
0.689222 0.503986 -1.439111 0
0.316818 -0.003639 -0.699839 0
1.184572 0.019051 0.028181 0
0.481742 0.102451 -1.382371 0
0.458722 -0.007997 -0.328271 0
1.121645 0.491770 -1.715500 0
1.886955 0.123744 -0.000496 0
0.286673 0.007797 -0.959811 0
0.828875 -0.006638 -0.034287 0
0.503185 0.473464 -1.378165 0
0.302831 -0.003991 -0.534259 0
1.384934 0.103370 0.096685 0
0.354534 0.014282 -1.271412 0
0.539847 -0.009850 -0.174133 0
0.817451 0.516915 -1.628434 0
0.224651 0.001550 -0.785974 0
1.198582 0.034740 -0.935728 0
1.319823 0.049178 -0.899042 0
1.011014 0.026941 -0.864732 0
1.273955 0.115743 -1.100837 0
1.255829 0.017887 -0.723956 0
0.940780 0.051720 -1.032122 0
1.609977 0.041294 -1.034871 0
0.965359 0.012654 -0.695733 0
0.869892 0.401814 -1.048900 0
1.509282 0.035913 -0.719046 0
0.807739 0.001832 -0.903090 0
1.318242 0.328933 -1.109218 0
1.118201 0.011230 -0.559363 0
0.662170 0.393863 -1.011530 0
1.785520 0.073817 -0.900373 0
0.782387 -0.004539 -0.694957 0
0.969690 0.480935 -1.140002 0
1.435142 0.018219 -0.531982 0
0.667420 0.096978 -0.999063 0
0.916359 0.002218 -0.504930 0
0.683173 0.492909 -1.106227 0
1.859422 0.029765 -0.691296 0
0.631079 0.009854 -0.783095 0
1.219291 0.491499 -1.215112 0
1.208028 0.028678 -0.399941 0
0.558194 0.307473 -1.064569 0
0.721292 -0.008961 -0.540620 0
0.892788 0.483595 -1.270717 0
1.680140 0.035835 -0.460427 0
0.557692 0.007609 -0.944738 0
1.579019 0.452209 -1.230899 0
0.967413 0.011561 -0.355196 0
0.563885 0.460005 -1.149920 0
0.555355 0.000695 -0.646742 0
1.180752 0.497972 -1.381472 0
1.428555 0.005951 -0.299675 0
0.543042 0.051896 -1.138031 0
0.738265 -0.006313 -0.393228 0
0.714433 0.519155 -1.289544 0
0.456313 -0.001880 -0.816317 0
1.588831 0.479168 -1.436036 0
1.093464 0.023815 -0.233301 0
0.587833 0.161043 -1.319435 0
0.538330 -0.001065 -0.500812 0
1.059124 0.489208 -1.497970 0
1.713278 0.007331 -0.248273 0
0.425647 0.008906 -1.034712 0
1.919516 0.494986 -1.303196 0
0.828587 -0.016320 -0.255665 0
0.563918 0.494750 -1.293705 0
0.399484 0.003397 -0.666872 0
1.453785 0.516428 -1.583776 0
1.322800 0.004319 -0.136464 0
0.495698 0.000855 -1.313622 0
0.575749 -0.003618 -0.354906 0
0.841655 0.510497 -1.503460 0
0.335202 -0.003948 -0.889092 0
0.910765 0.069126 -0.139583 0
0.513081 0.294500 -1.391946 0
0.393409 0.000081 -0.513953 0
1.296777 0.498503 -1.719709 0
1.611501 0.010278 -0.075600 0
0.343475 0.018499 -1.149848 0
0.665616 -0.006776 -0.213305 0
0.622550 0.519182 -1.452481 0
0.282838 -0.002031 -0.726212 0
1.774728 0.550247 -1.744063 0
1.161655 0.016390 -0.028798 0
0.429710 0.099710 -1.413119 0
0.434080 -0.006821 -0.360652 0
1.023439 0.515627 -1.719783 0
1.926996 0.064233 -0.070316 0
0.245660 0.009148 -0.984528 0
0.799869 0.006013 -0.081772 0
0.468192 0.448935 -1.429289 0
0.271313 0.005018 -0.559771 0
1.593567 0.525542 -1.921996 0
1.408750 0.055240 0.042881 0
0.304882 0.013465 -1.298356 0
0.519604 -0.010763 -0.209865 0
0.759295 0.513305 -1.664180 0
0.189006 0.003000 -0.809600 0
1.149162 0.022317 -0.996366 0
1.278374 0.028310 -0.967387 0
0.964559 0.017041 -0.918346 0
1.019667 0.304056 -1.047211 0
1.204649 0.014907 -0.784470 0
0.779506 0.190987 -1.007871 0
1.536341 0.040766 -1.102278 0
0.923081 0.006253 -0.747447 0
0.754253 0.467235 -1.046811 0
1.455959 0.029900 -0.789171 0
0.750013 0.010705 -0.942241 0
1.130004 0.427979 -1.096232 0
1.077314 0.006438 -0.617005 0
0.598647 0.410416 -1.036548 0
1.724944 0.062979 -0.979738 0
0.741216 -0.009096 -0.739832 0
0.882598 0.504108 -1.163939 0
1.394895 0.007817 -0.602186 0
0.631733 0.067064 -1.050699 0
1.440557 0.376233 -1.119408 0
0.881901 -0.004300 -0.556015 0
0.635318 0.483737 -1.147515 0
1.767218 0.047632 -0.766625 0
0.588978 0.004375 -0.822577 0
1.151088 0.488000 -1.266331 0
1.168817 0.026855 -0.461841 0
0.535686 0.256621 -1.128080 0
0.685557 -0.011693 -0.583859 0
0.807010 0.504057 -1.290547 0
1.616622 0.042840 -0.537361 0
0.510336 0.001818 -0.981302 0
1.486193 0.457514 -1.284782 0
0.934535 0.009551 -0.408710 0
0.521060 0.442205 -1.194376 0
0.519275 -0.005325 -0.684231 0
1.093282 0.505878 -1.417788 0
1.373537 0.018257 -0.370310 0
0.505523 0.011393 -1.193013 0
0.707354 -0.008224 -0.437976 0
0.663042 0.505879 -1.335172 0
0.414998 -0.008848 -0.850231 0
1.478051 0.490466 -1.478351 0
1.055129 0.031069 -0.292753 0
0.548071 0.117351 -1.383276 0
0.505389 -0.001830 -0.537390 0
0.961405 0.506419 -1.518426 0
1.658088 0.013245 -0.330642 0
0.366190 0.027979 -1.054768 0
1.848077 0.478889 -1.384314 0
0.796804 -0.011131 -0.304838 0
0.516202 0.476956 -1.339356 0
0.364397 -0.004026 -0.699156 0
1.382246 0.501398 -1.649968 0
1.268611 0.025400 -0.207083 0
0.422142 0.024891 -1.327713 0
0.547247 -0.003263 -0.393761 0
0.768172 0.510708 -1.537189 0
1.963701 0.055638 -0.352878 0
0.286308 0.005465 -0.912531 0
0.895654 0.055758 -0.191983 0
0.530247 0.143368 -1.550665 0
0.363032 -0.004555 -0.545784 0
1.210518 0.492996 -1.769090 0
1.561698 0.019773 -0.157698 0
0.289552 0.014122 -1.178196 0
0.639831 -0.004044 -0.256732 0
0.553859 0.521698 -1.478600 0
0.246061 -0.009630 -0.754412 0
1.679880 0.540282 -1.809120 0
1.124511 0.028915 -0.094848 0
0.372072 0.080700 -1.454455 0
0.407524 -0.007614 -0.394261 0
0.944123 0.509781 -1.763179 0
1.903074 0.046556 -0.162117 0
0.198161 0.005820 -1.009584 0
0.776043 0.009891 -0.131846 0
0.463726 0.345204 -1.559875 0
0.240347 -0.000575 -0.587239 0
1.520108 0.502087 -2.002849 0
1.407683 0.028679 -0.027345 0
0.241696 0.021448 -1.317209 0
0.495784 -0.007370 -0.247784 0
0.673178 0.523366 -1.681281 0
0.147472 0.003289 -0.831952 0
1.070821 0.050131 -1.033096 0
1.211455 0.040204 -1.016200 0
0.917286 0.015320 -0.963552 0
0.878108 0.396452 -1.035195 0
1.161229 0.010337 -0.839729 0
0.633665 0.329466 -0.972593 0
1.392341 0.110837 -1.124601 0
0.886046 -0.000152 -0.794002 0
0.697843 0.475833 -1.075944 0
1.406850 0.026690 -0.852325 0
0.696445 0.022443 -0.974556 0
0.989412 0.499926 -1.090763 0
1.029454 0.017150 -0.665651 0
0.552611 0.410039 -1.067428 0
1.700400 0.030054 -1.063919 0
0.690157 0.011217 -0.772465 0
0.827521 0.503264 -1.201882 0
1.318616 0.039390 -0.657330 0
0.601391 0.033399 -1.100252 0
1.303726 0.428544 -1.137593 0
0.851259 -0.009109 -0.601664 0
0.587316 0.480061 -1.180718 0
1.710233 0.046239 -0.839751 0
0.547789 0.006381 -0.854698 0
1.047664 0.519011 -1.281885 0
1.135407 0.025233 -0.517732 0
0.573866 0.097903 -1.257136 0
0.653203 -0.011976 -0.621648 0
0.737854 0.514926 -1.313913 0
1.575346 0.038320 -0.608722 0
0.464300 0.003575 -1.009691 0
1.346407 0.501488 -1.298091 0
0.909722 0.003584 -0.457077 0
0.523558 0.357168 -1.288598 0
0.482596 -0.000357 -0.714314 0
1.026322 0.503231 -1.460299 0
1.339729 0.016891 -0.434282 0
0.453360 0.009589 -1.221648 0
1.686116 0.434025 -1.221158 0
0.680307 -0.008733 -0.477534 0
0.592932 0.520971 -1.349441 0
0.367123 0.012413 -0.869551 0
1.347052 0.522714 -1.491802 0
1.037109 0.020567 -0.346128 0
0.486924 0.119982 -1.408569 0
0.475880 -0.000274 -0.568873 0
0.891815 0.505256 -1.554522 0
1.611310 0.019241 -0.404794 0
0.320282 0.026508 -1.079493 0
1.690253 0.515862 -1.407602 0
0.774563 -0.013135 -0.348532 0
0.475986 0.452092 -1.387960 0
0.327121 0.006295 -0.722428 0
1.301204 0.497698 -1.698271 0
1.226728 0.040848 -0.269300 0
0.362216 0.032232 -1.346919 0
0.523500 -0.003598 -0.427850 0
0.696985 0.514791 -1.561826 0
0.244975 0.007457 -0.933937 0
1.671414 0.543596 -1.635802 0
0.898413 0.024225 -0.238626 0
0.472945 0.126420 -1.590835 0
0.332857 0.001792 -0.571441 0
1.088890 0.521277 -1.767903 0
1.526408 0.023470 -0.230929 0
0.238000 0.017612 -1.197102 0
0.618088 -0.000531 -0.295039 0
0.502841 0.506368 -1.520072 0
0.206084 0.008731 -0.770720 0
1.555653 0.552756 -1.837579 0
1.127599 0.001878 -0.149470 0
0.326378 0.039768 -1.507691 0
0.384690 -0.007140 -0.423265 0
0.858590 0.515524 -1.786127 0
1.876660 0.037077 -0.247258 0
0.151483 0.017682 -1.023033 0
0.765010 0.000968 -0.175190 0
0.392946 0.357912 -1.569226 0
0.211906 -0.000522 -0.609414 0
1.359267 0.539214 -1.983896 0
1.401276 0.012817 -0.093837 0
0.185677 0.024458 -1.333848 0
0.476886 -0.005454 -0.280848 0
0.606184 0.518118 -1.713263 0
0.108000 0.015025 -0.845917 0
1.016174 0.074504 -1.069660 0
1.181342 0.035396 -1.071542 0
0.872658 0.033890 -0.999613 0
0.814719 0.429559 -1.056061 0
1.122131 0.022165 -0.887544 0
0.612159 0.317682 -1.013866 0
1.166378 0.282349 -1.082397 0
0.855422 0.006899 -0.835392 0
0.659844 0.481946 -1.107747 0
1.350163 0.051488 -0.902577 0
0.659659 0.033258 -1.007105 0
0.961432 0.493245 -1.140533 0
1.012978 0.009749 -0.716020 0
0.531400 0.393608 -1.110298 0
1.644091 0.043542 -1.124718 0
0.669324 0.005726 -0.811770 0
0.782382 0.510981 -1.234895 0
1.316358 0.017609 -0.720453 0
0.564945 0.038018 -1.131970 0
1.201602 0.476380 -1.155769 0
0.825345 0.000436 -0.642873 0
0.554476 0.476212 -1.216432 0
1.660137 0.059980 -0.903553 0
0.520499 0.008902 -0.886788 0
1.040147 0.489924 -1.355104 0
1.135901 0.003677 -0.573498 0
0.560378 0.050051 -1.321224 0
0.629064 -0.002918 -0.656579 0
0.704735 0.506431 -1.358706 0
1.543221 0.044847 -0.673099 0
0.431218 0.009095 -1.037318 0
1.280557 0.516056 -1.338667 0
0.894210 0.004068 -0.502430 0
0.497364 0.335821 -1.336776 0
0.459045 0.004528 -0.744254 0
0.969378 0.511775 -1.495536 0
1.314820 0.024564 -0.492619 0
0.414680 0.012614 -1.249333 0
1.563851 0.480488 -1.247293 0
0.659486 0.001978 -0.514296 0
0.562143 0.507524 -1.395156 0
0.346521 -0.001664 -0.902034 0
1.323016 0.504219 -1.566707 0
1.023670 0.021849 -0.395901 0
0.445324 0.116629 -1.441167 0
0.455807 0.007263 -0.598888 0
0.833198 0.514553 -1.584020 0
1.578187 0.031706 -0.471550 0
0.288267 0.025349 -1.105648 0
1.686277 0.488704 -1.500664 0
0.761231 -0.009519 -0.389815 0
0.462291 0.405704 -1.461896 0
0.307638 0.001751 -0.749994 0
1.236526 0.503351 -1.742475 0
1.236620 0.018610 -0.325526 0
0.323097 0.026943 -1.377028 0
0.506607 0.005774 -0.460209 0
0.643916 0.520577 -1.589806 0
0.217821 0.005912 -0.958021 0
1.633865 0.531637 -1.713570 0
0.899598 0.011417 -0.284043 0
0.398833 0.180962 -1.571625 0
0.317014 0.000546 -0.598449 0
1.055422 0.501526 -1.841035 0
1.535235 0.004775 -0.296639 0
0.204609 0.008585 -1.225214 0
0.606217 0.005546 -0.331552 0
0.460794 0.500476 -1.556241 0
0.183826 0.008644 -0.793212 0
1.102121 0.023438 -0.204614 0
0.288294 0.016424 -1.551294 0
0.370607 -0.001176 -0.451529 0
0.792082 0.525956 -1.810404 0
0.120216 0.022150 -1.041435 0
0.758103 0.003206 -0.216987 0
0.341543 0.366221 -1.587192 0
0.193824 0.002781 -0.631667 0
1.406230 0.001379 -0.155234 0
0.145453 0.024438 -1.355088 0
0.466844 0.000067 -0.312918 0
0.548783 0.524633 -1.736610 0
0.083031 0.017491 -0.864365 0
0.905857 0.169362 -1.053576 0
1.081174 0.108522 -1.071306 0
0.842392 0.034750 -1.028646 0
0.758050 0.458352 -1.064752 0
1.101394 0.013285 -0.927154 0
0.579411 0.324860 -1.032853 0
1.053726 0.355678 -1.073846 0
0.826778 0.012229 -0.863391 0
0.636161 0.472823 -1.137817 0
1.339214 0.032131 -0.952181 0
0.626488 0.041503 -1.027490 0
0.936260 0.484328 -1.177671 0
0.982551 0.019499 -0.747781 0
0.511846 0.376995 -1.141953 0
0.640824 0.015069 -0.833999 0
0.760477 0.496145 -1.273033 0
1.287540 0.021216 -0.761502 0
0.535396 0.034461 -1.155046 0
1.148917 0.487923 -1.182553 0
0.810929 -0.007094 -0.674416 0
0.529813 0.464058 -1.246582 0
0.496662 0.007627 -0.908442 0
0.989675 0.497477 -1.377956 0
1.113452 0.006933 -0.611104 0
0.532285 0.033392 -1.352293 0
1.485271 0.363821 -1.155546 0
0.612387 -0.006649 -0.682237 0
0.678682 0.491877 -1.395387 0
1.536011 0.028472 -0.725374 0
0.405498 0.003334 -1.058300 0
1.254587 0.502765 -1.387356 0
0.883720 -0.003575 -0.535686 0
0.555811 0.170082 -1.491508 0
0.438293 0.005682 -0.764122 0
0.934182 0.502716 -1.532740 0
1.316500 0.003975 -0.538572 0
0.379700 0.015545 -1.264516 0
1.529834 0.473346 -1.296812 0
0.637974 0.013612 -0.538881 0
0.531661 0.496824 -1.424865 0
0.323646 -0.004953 -0.920015 0
1.295737 0.486947 -1.621289 0
1.010582 0.020959 -0.432052 0
0.409682 0.109152 -1.463535 0
0.437940 0.010955 -0.618815 0
0.805728 0.495336 -1.630244 0
1.570626 0.020579 -0.523094 0
0.260881 0.019594 -1.123094 0
0.748095 -0.007791 -0.418905 0
0.485376 0.296709 -1.584852 0
0.286602 0.005491 -0.765279 0
1.201680 0.487715 -1.793708 0
1.223050 0.018815 -0.367482 0
0.286730 0.025737 -1.391946 0
0.493815 0.006003 -0.482535 0
0.595133 0.526065 -1.602152 0
0.193008 0.005113 -0.971692 0
0.888864 0.012599 -0.317282 0
0.352441 0.190747 -1.577492 0
0.301083 0.001246 -0.615346 0
0.992924 0.507100 -1.858418 0
1.514171 0.010133 -0.346498 0
0.170953 0.014050 -1.234014 0
0.603040 -0.006430 -0.357087 0
0.412909 0.510289 -1.560291 0
0.165976 -0.001289 -0.809276 0
1.091749 0.025079 -0.243611 0
0.240900 0.035453 -1.548635 0
0.360063 -0.004702 -0.470655 0
0.735624 0.530549 -1.823771 0
0.096181 0.009198 -1.058075 0
0.753138 -0.000337 -0.246472 0
0.307322 0.349206 -1.617860 0
0.181551 -0.011542 -0.648299 0
1.400084 -0.002198 -0.202085 0
0.109335 0.027536 -1.362981 0
0.457752 0.001412 -0.334606 0
0.450807 0.595538 -1.656611 0
0.061695 0.014063 -0.875866 0
0.764694 0.280849 -1.018174 0
0.906928 0.241995 -1.029022 0
0.763019 0.075093 -1.032340 0
0.693384 0.474712 -1.072552 0
1.035045 0.027440 -0.951297 0
0.566769 0.271600 -1.079168 0
0.942755 0.407048 -1.066968 0
0.787433 0.000739 -0.891586 0
0.585476 0.473760 -1.152073 0
1.273168 0.036886 -0.985005 0
0.587008 0.025372 -1.052434 0
0.859956 0.500885 -1.184420 0
0.940016 0.014394 -0.778629 0
0.563207 0.210460 -1.268308 0
1.338683 0.206745 -1.116032 0
0.603223 0.005578 -0.857179 0
0.690583 0.510423 -1.275027 0
1.239482 0.015055 -0.800015 0
0.492068 0.019188 -1.177262 0
1.055687 0.509975 -1.188539 0
0.763268 0.003350 -0.697993 0
0.496659 0.436874 -1.280219 0
0.453369 0.008560 -0.923899 0
0.922963 0.496869 -1.394708 0
1.045955 0.033686 -0.640319 0
0.469600 0.046634 -1.354982 0
1.347321 0.409444 -1.155555 0
0.570562 0.000907 -0.701358 0
0.599376 0.517258 -1.381174 0
0.356366 0.011079 -1.066868 0
1.150366 0.523281 -1.387069 0
0.842927 0.000445 -0.564515 0
0.507588 0.147564 -1.519647 0
0.400103 0.006595 -0.779635 0
0.853817 0.512154 -1.533742 0
1.259313 0.013921 -0.577761 0
0.325549 0.021933 -1.270111 0
1.400675 0.502556 -1.298372 0
0.608658 0.005380 -0.563027 0
0.488813 0.476714 -1.453022 0
0.280907 -0.000169 -0.929807 0
1.180178 0.509090 -1.609715 0
0.977380 0.015851 -0.466523 0
0.360785 0.088607 -1.486847 0
0.405351 0.008913 -0.636233 0
0.712724 0.520869 -1.607198 0
0.214094 0.021721 -1.130331 0
0.719284 -0.013137 -0.446248 0
0.430161 0.285752 -1.601609 0
0.251488 0.002483 -0.778126 0
1.078043 0.516209 -1.764171 0
1.177885 0.024529 -0.407831 0
0.235435 0.016186 -1.404577 0
0.465714 0.001525 -0.502601 0
0.525299 0.534902 -1.596337 0
0.149611 0.013817 -0.976235 0
0.863018 0.004874 -0.349278 0
0.304400 0.162233 -1.607633 0
0.269391 0.000744 -0.628926 0
0.913390 0.503986 -1.866926 0
0.125254 0.002333 -1.246103 0
0.567281 0.008532 -0.380213 0
0.355792 0.508996 -1.565097 0
0.128927 0.002004 -0.816957 0
1.061980 0.021186 -0.281966 0
0.167350 0.090047 -1.509053 0
0.329931 0.000340 -0.486224 0
0.656038 0.537055 -1.816048 0
0.052990 0.011427 -1.062237 0
0.727138 -0.001720 -0.275140 0
0.262965 0.314326 -1.656534 0
0.146372 0.001826 -0.655729 0
1.371164 -0.012086 -0.249191 0
0.056729 0.033097 -1.362118 0
0.431380 0.003867 -0.354279 0
0.356803 0.645625 -1.590031 0
0.023685 0.018840 -0.879931 0
0.706191 0.283677 -1.030192 0
0.816913 0.277260 -1.026626 0
0.659588 0.147020 -1.012099 0
0.643287 0.467436 -1.087616 0
0.967021 0.034662 -0.969050 0
0.537790 0.230387 -1.111215 0
0.857125 0.429438 -1.067983 0
0.733699 0.000207 -0.908118 0
0.544595 0.453522 -1.173512 0
1.192589 0.047244 -1.005535 0
0.535613 0.019246 -1.064744 0
0.789728 0.505713 -1.190383 0
0.888550 0.010685 -0.801429 0
0.566894 0.096667 -1.350780 0
1.187314 0.272466 -1.100328 0
0.553025 0.007974 -0.869143 0
0.627052 0.511603 -1.278613 0
1.169263 0.022426 -0.825909 0
0.439074 0.011315 -1.187056 0
1.002400 0.492433 -1.215261 0
0.707172 0.017474 -0.713436 0
0.518499 0.307281 -1.389499 0
0.400260 0.020322 -0.927977 0
0.822603 0.521751 -1.374840 0
1.007551 0.016264 -0.670628 0
0.411809 0.038786 -1.362283 0
1.233850 0.432422 -1.158798 0
0.521401 0.012197 -0.712811 0
0.544327 0.506583 -1.392049 0
0.302549 0.019498 -1.067418 0
1.087690 0.505459 -1.412014 0
0.788518 0.014552 -0.585007 0
0.449896 0.130053 -1.533256 0
0.356876 0.007316 -0.788567 0
0.762870 0.526510 -1.516636 0
1.192456 0.024838 -0.608818 0
0.267532 0.027187 -1.267868 0
1.299973 0.507400 -1.308065 0
0.566583 0.009382 -0.579238 0
0.453859 0.432988 -1.494715 0
0.230084 0.016360 -0.928210 0
1.033821 0.550890 -1.559831 0
0.929895 0.019048 -0.493841 0
0.317246 0.036940 -1.524295 0
0.368037 0.005452 -0.647816 0
0.631367 0.529344 -1.592040 0
0.162968 0.024341 -1.129735 0
0.670387 0.004278 -0.465870 0
0.362665 0.288965 -1.593775 0
0.209240 0.007448 -0.782395 0
0.939969 0.553505 -1.707194 0
1.146289 0.005451 -0.442897 0
0.176155 0.017739 -1.400707 0
0.424884 0.013446 -0.515100 0
0.456152 0.537302 -1.586632 0
0.105175 0.010580 -0.978804 0
0.818090 0.014141 -0.375234 0
0.267827 0.082078 -1.673356 0
0.232900 0.000312 -0.636584 0
0.792148 0.534599 -1.811903 0
0.069572 0.016008 -1.235708 0
0.534146 0.007707 -0.398047 0
0.314092 0.469979 -1.602279 0
0.086850 0.009516 -0.817094 0
1.014835 0.028414 -0.314723 0
0.090881 0.158062 -1.450190 0
0.294983 0.005425 -0.496157 0
0.579651 0.533785 -1.807914 0
0.005092 0.019286 -1.056868 0
0.690662 0.003466 -0.298526 0
0.217358 0.263826 -1.700488 0
0.111386 -0.002333 -0.660866 0
0.000841 0.038673 -1.353100 0
0.401889 0.001202 -0.368652 0
0.311029 0.618030 -1.616366 0
-0.015748 0.008636 -0.882935 0
0.642641 0.281442 -1.035792 0
0.747719 0.277433 -1.032981 0
0.629882 0.090112 -1.042825 0
0.591046 0.451183 -1.099447 0
0.888519 0.042154 -0.976877 0
0.537551 0.115620 -1.175874 0
0.782144 0.431993 -1.071446 0
0.654569 0.026799 -0.906085 0
0.540998 0.362059 -1.237658 0
1.102995 0.054778 -1.016491 0
0.472550 0.019395 -1.065047 0
0.718756 0.501777 -1.192521 0
0.816598 0.021335 -0.811447 0
0.508293 0.069650 -1.363115 0
1.017468 0.351265 -1.064489 0
0.489035 0.021967 -0.869050 0
0.562133 0.504323 -1.278786 0
1.101296 0.013825 -0.847339 0
0.367282 0.029277 -1.173464 0
0.888365 0.518410 -1.195281 0
0.656084 0.008758 -0.726531 0
0.534036 0.152142 -1.507247 0
0.345006 0.019823 -0.928563 0
0.739610 0.521845 -1.366656 0
0.942799 0.017179 -0.689209 0
0.343790 0.036112 -1.355662 0
1.082613 0.478247 -1.133070 0
0.468106 0.016148 -0.718585 0
0.496123 0.473258 -1.413317 0
0.243601 0.023296 -1.061611 0
0.945099 0.543486 -1.367384 0
0.743156 0.000614 -0.602546 0
0.386295 0.105177 -1.540920 0
0.301641 0.020890 -0.786481 0
0.682719 0.520987 -1.508094 0
1.116573 0.033012 -0.631905 0
0.206021 0.022068 -1.262320 0
1.166586 0.526650 -1.290563 0
0.514227 0.017682 -0.587890 0
0.459497 0.295646 -1.616868 0
0.175522 0.025029 -0.921889 0
0.950134 0.535289 -1.562371 0
0.884251 0.005683 -0.515809 0
0.243937 0.041534 -1.507224 0
0.319141 0.012686 -0.650490 0
0.536358 0.546833 -1.552795 0
0.107795 0.016795 -1.125762 0
0.620411 0.009340 -0.479710 0
0.307298 0.248943 -1.615536 0
0.159338 0.016396 -0.778472 0
0.850081 0.542338 -1.698292 0
1.082963 0.008216 -0.469673 0
0.108717 0.026623 -1.382010 0
0.384131 0.007745 -0.523077 0
0.391538 0.522165 -1.584849 0
0.052020 0.017834 -0.969452 0
0.777755 0.002498 -0.395253 0
0.146221 0.238814 -1.517758 0
0.186297 0.010981 -0.635566 0
0.704017 0.524751 -1.797234 0
0.009181 0.026214 -1.218690 0
0.495157 0.002035 -0.409941 0
0.271938 0.409308 -1.650540 0
0.039636 0.012224 -0.811680 0
0.965816 0.024835 -0.340896 0
0.021284 0.190927 -1.409849 0
0.256612 -0.000301 -0.500892 0
0.441564 0.605395 -1.680785 0
-0.046339 0.011472 -1.050858 0
0.648216 0.004007 -0.315774 0
0.122858 0.337982 -1.604226 0
0.067535 0.003760 -0.657388 0
1.217377 0.032499 -0.326032 0
-0.057812 0.022871 -1.348853 0
0.360706 0.008808 -0.376918 0
0.269348 0.565295 -1.661781 0
-0.063303 0.010248 -0.874734 0
0.601220 0.237991 -1.056493 0
0.664394 0.291020 -1.025607 0
0.594967 0.025744 -1.069598 0
0.539397 0.425810 -1.110572 0
0.817560 0.032666 -0.984546 0
0.513693 0.018867 -1.221498 0
0.691877 0.447720 -1.059996 0
0.591784 0.019416 -0.909507 0
0.542173 0.239231 -1.315465 0
1.017298 0.051924 -1.024569 0
0.409660 0.009603 -1.062548 0
0.652038 0.487053 -1.195857 0
0.752918 0.013424 -0.820497 0
0.441314 0.045709 -1.364347 0
0.928688 0.352122 -1.066955 0
0.431067 0.015808 -0.869128 0
0.515643 0.463761 -1.299791 0
1.008072 0.028393 -0.854588 0
0.300416 0.026774 -1.163169 0
0.811655 0.506566 -1.198289 0
0.599634 0.001221 -0.733223 0
0.458315 0.137253 -1.499677 0
0.287803 0.014403 -0.924175 0
0.656340 0.517259 -1.354741 0
0.881572 0.006810 -0.704204 0
0.273511 0.027702 -1.344154 0
0.970583 0.491590 -1.123230 0
0.415357 0.010951 -0.720425 0
0.463449 0.401634 -1.461592 0
1.244290 0.014587 -0.849266 0
0.186084 0.010517 -1.056073 0
0.885698 0.505957 -1.388870 0
0.687824 -0.005151 -0.613066 0
0.333153 0.035757 -1.573971 0
0.250824 0.013147 -0.784088 0
0.583155 0.533148 -1.471214 0
1.060133 0.012993 -0.654281 0
0.139442 0.020999 -1.246256 0
1.071881 0.514011 -1.293431 0
0.464726 0.013210 -0.592775 0
0.391719 0.264474 -1.621212 0
0.122354 0.016900 -0.915013 0
0.862581 0.516027 -1.558766 0
0.818478 0.013855 -0.530012 0
0.163286 0.060368 -1.470532 0
1.276337 0.436492 -1.154404 0
0.270738 0.010088 -0.649125 0
0.472435 0.517880 -1.558448 0
1.302245 0.005246 -0.668369 0
0.048734 0.009328 -1.114084 0
1.163364 0.492103 -1.533912 0
0.572183 0.004800 -0.488897 0
0.266255 0.147777 -1.683492 0
0.110988 0.007821 -0.773022 0
0.774691 0.509467 -1.705989 0
0.996435 0.033836 -0.488927 0
0.041367 0.020787 -1.364570 0
1.379836 0.471921 -1.356044 0
0.339703 0.002514 -0.525381 0
0.334628 0.482758 -1.600922 0
-0.001410 0.010735 -0.958849 0
1.106963 0.518155 -1.718407 0
0.724818 0.003731 -0.409753 0
0.065355 0.281441 -1.456417 0
0.141862 0.003656 -0.631869 0
0.585959 0.544084 -1.731606 0
1.276489 -0.004146 -0.500577 0
-0.051177 0.017790 -1.204275 0
0.444120 0.015281 -0.415795 0
0.231687 0.316064 -1.721900 0
-0.009014 0.006464 -0.802247 0
0.916810 0.015388 -0.362127 0
-0.042399 0.184744 -1.391489 0
0.213322 -0.000312 -0.499411 0
0.339676 0.633177 -1.607090 0
-0.102663 0.017721 -1.031271 0
0.606779 -0.003433 -0.327792 0
0.041931 0.378055 -1.535672 0
0.021635 0.007365 -0.648357 0
0.778770 0.539493 -1.948047 0
1.161195 0.022575 -0.354847 0
-0.121419 0.013914 -1.331432 0
0.320726 0.006228 -0.380031 0
0.238567 0.465132 -1.754512 0
-0.113321 0.008872 -0.860813 0
0.603710 0.095695 -1.125124 0
0.607183 0.252935 -1.041896 0
0.506498 0.035115 -1.059378 0
0.576628 0.242434 -1.220831 0
0.738051 0.016491 -0.991718 0
0.423996 0.026807 -1.205318 0
0.618833 0.432768 -1.063889 0
0.517834 0.011099 -0.911020 0
0.529836 0.099056 -1.399344 0
0.910922 0.058694 -1.024272 0
0.330707 0.013824 -1.051757 0
0.566890 0.483825 -1.185955 0
0.668532 0.018600 -0.823242 0
0.361837 0.024349 -1.360926 0
0.804514 0.380680 -1.048538 0
0.360192 0.014725 -0.865872 0
0.491158 0.368660 -1.361777 0
0.908755 0.035120 -0.860910 0
0.225426 0.020007 -1.153363 0
0.707172 0.513867 -1.181029 0
0.525252 0.005129 -0.735483 0
0.382010 0.101545 -1.505322 0
1.146083 0.073296 -1.054622 0
0.219483 0.011956 -0.917313 0
0.566286 0.512176 -1.338759 0
0.798977 0.006815 -0.714617 0
0.193748 0.019042 -1.330958 0
0.866907 0.489852 -1.118485 0
0.348585 0.013357 -0.719251 0
0.492507 0.187261 -1.636277 0
1.111436 0.043520 -0.853329 0
0.115855 0.007624 -1.044759 0
0.761880 0.519594 -1.354447 0
0.617144 -0.006490 -0.621429 0
0.239348 0.042553 -1.543481 0
1.300864 0.147012 -1.147048 0
0.188053 0.010533 -0.779203 0
0.500778 0.516997 -1.460835 0
0.967345 0.017582 -0.669469 0
0.066008 0.010094 -1.234619 0
0.980114 0.488786 -1.300181 0
0.406447 0.002420 -0.597633 0
0.317451 0.224026 -1.630659 0
1.325900 0.065836 -0.920974 0
0.057320 0.018060 -0.903837 0
0.741869 0.521123 -1.521291 0
0.757913 -0.005832 -0.545980 0
0.076591 0.078629 -1.433797 0
1.143041 0.440004 -1.148369 0
0.211828 0.007813 -0.646893 0
0.410222 0.470803 -1.579578 0
1.170571 0.036049 -0.683125 0
-0.021004 0.008850 -1.098145 0
1.020969 0.495922 -1.500500 0
0.509648 0.004339 -0.496975 0
0.142421 0.255873 -1.554409 0
0.052599 -0.001573 -0.766928 0
0.639136 0.532784 -1.636829 0
0.930925 0.015568 -0.510280 0
-0.035744 0.019982 -1.343102 0
1.203096 0.492786 -1.321031 0
0.283572 -0.000898 -0.526893 0
0.279492 0.417334 -1.641694 0
1.394994 0.065946 -0.758125 0
-0.065506 0.011448 -0.944550 0
0.963772 0.519329 -1.673925 0
0.667385 -0.009651 -0.424144 0
-0.012827 0.300087 -1.416161 0
0.087010 -0.003396 -0.627474 0
0.467796 0.563547 -1.663828 0
1.137380 0.044286 -0.521722 0
-0.120909 0.008104 -1.189874 0
1.269669 0.493892 -1.566429 0
0.392412 0.004752 -0.422211 0
0.127156 0.367972 -1.632398 0
-0.068154 0.006647 -0.790550 0
0.836483 0.534058 -1.811879 0
0.846808 0.013726 -0.382700 0
-0.110622 0.145126 -1.397051 0
1.436290 0.470142 -1.300513 0
0.158037 0.006023 -0.497025 0
0.299199 0.552099 -1.675149 0
1.415606 0.039830 -0.594352 0
-0.167121 0.016946 -1.014487 0
1.197314 0.533120 -1.764554 0
0.542619 0.007953 -0.339997 0
-0.030242 0.366790 -1.518370 0
-0.032729 0.004669 -0.640100 0
0.656413 0.535981 -1.895737 0
1.061268 0.042572 -0.382410 0
-0.194764 0.012585 -1.309010 0
1.449739 0.530600 -1.526080 0
0.272637 -0.004949 -0.383118 0
0.161960 0.437457 -1.749687 0
-0.172678 0.007683 -0.846471 0
0.554439 0.026313 -1.150363 0
0.599811 0.129401 -1.097302 0
0.435906 0.011764 -1.060564 0
0.596894 0.055653 -1.325471 0
0.649746 0.015727 -0.987843 0
0.342095 0.024731 -1.191938 0
0.571075 0.384955 -1.083589 0
0.443235 0.005101 -0.908075 0
0.455270 0.063498 -1.403677 0
0.838695 0.022786 -1.036890 0
0.255490 0.013600 -1.040511 0
0.512444 0.443150 -1.200634 0
0.590818 0.013972 -0.824475 0
0.283020 0.005691 -1.353056 0
0.740590 0.346622 -1.061223 0
0.293935 0.002488 -0.863383 0
0.538261 0.131963 -1.533610 0
0.822716 0.026099 -0.866543 0
0.153871 0.006625 -1.144917 0
0.641699 0.483344 -1.188823 0
0.453237 0.004715 -0.735130 0
0.322494 0.023956 -1.539915 0
1.035358 0.071303 -1.054172 0
0.153133 0.004713 -0.910056 0
0.502218 0.478786 -1.345525 0
0.714036 0.010668 -0.719008 0
0.116709 0.009269 -1.316872 0
0.795174 0.460889 -1.127313 0
0.289617 -0.006369 -0.720319 0
0.397407 0.185344 -1.607398 0
1.006633 0.045435 -0.858926 0
0.046134 0.008444 -1.030403 0
0.686593 0.490646 -1.356512 0
0.541374 0.000533 -0.624314 0
0.132797 0.117347 -1.460579 0
1.089726 0.229940 -1.097017 0
0.127633 -0.002038 -0.774921 0
0.459719 0.444543 -1.505401 0
0.882888 0.011421 -0.680648 0
-0.006917 0.004998 -1.218635 0
0.860696 0.493194 -1.275517 0
0.341733 0.003956 -0.597607 0
0.276370 0.095869 -1.718481 0
1.213593 0.058771 -0.930339 0
-0.004273 0.002651 -0.897067 0
0.632323 0.525885 -1.481863 0
0.683955 -0.008116 -0.555187 0
-0.005266 0.102266 -1.393467 0
1.037401 0.426681 -1.147138 0
0.153360 0.000905 -0.643361 0
0.350248 0.420361 -1.600592 0
1.097412 0.004585 -0.703397 0
-0.088425 0.000863 -1.085001 0
0.893329 0.497666 -1.465229 0
0.441290 0.013467 -0.500757 0
0.050120 0.311020 -1.477144 0
-0.008696 0.002225 -0.756057 0
0.521880 0.551913 -1.573118 0
0.850997 0.013018 -0.524503 0
-0.108375 0.001369 -1.332523 0
1.065960 0.494832 -1.296990 0
0.227330 -0.008829 -0.526432 0
0.239952 0.307342 -1.726943 0
1.331407 0.013189 -0.787167 0
-0.128600 0.009041 -0.930766 0
0.834990 0.519990 -1.627608 0
0.597455 -0.005736 -0.433691 0
-0.078303 0.272149 -1.414882 0
1.375758 0.287736 -1.170092 0
0.030434 -0.008069 -0.621069 0
0.363825 0.581720 -1.599025 0
1.058924 0.027447 -0.542096 0
-0.189910 0.003926 -1.172310 0
1.112608 0.498976 -1.521732 0
0.335308 0.001599 -0.425488 0
0.046788 0.377338 -1.590327 0
-0.127335 0.006378 -0.778214 0
0.686358 0.562503 -1.719014 0
0.775598 0.010269 -0.398155 0
-0.179204 0.099570 -1.405873 0
1.267872 0.479733 -1.272517 0
0.103522 0.004736 -0.493501 0
0.256201 0.466268 -1.743467 0
1.311694 0.031040 -0.617505 0
-0.230577 0.004171 -1.002501 0
1.066043 0.515902 -1.731756 0
0.483910 0.004584 -0.348446 0
-0.096986 0.342156 -1.513935 0
-0.088027 0.001580 -0.630864 0
0.485982 0.609737 -1.732168 0
1.001633 0.012939 -0.404134 0
-0.265958 0.012536 -1.286358 0
1.357554 0.479263 -1.542823 0
0.218131 -0.004124 -0.383765 0
0.074649 0.457669 -1.686521 0
1.548730 0.074461 -0.752582 0
-0.232077 0.005782 -0.832054 0
0.486586 0.015916 -1.136245 0
0.583428 0.028635 -1.130182 0
0.371454 0.006091 -1.045498 0
0.529724 0.033420 -1.314331 0
0.582471 0.006335 -0.977853 0
0.278314 0.016074 -1.174686 0
0.542860 0.323236 -1.102962 0
0.378854 0.007643 -0.893692 0
0.394527 0.029910 -1.398283 0
0.758283 0.021105 -1.024007 0
0.195595 0.009848 -1.023650 0
0.514254 0.331981 -1.258762 0
0.528036 0.007741 -0.816524 0
0.211668 0.012841 -1.321906 0
0.663499 0.347431 -1.045272 0
0.235891 0.002406 -0.849299 0
0.452968 0.140746 -1.493329 0
0.754748 0.013845 -0.862168 0
0.093344 0.004583 -1.124160 0
0.576241 0.470854 -1.175522 0
0.396442 -0.001351 -0.727132 0
0.253468 0.007545 -1.519442 0
0.957936 0.053950 -1.049310 0
0.097637 0.003546 -0.893876 0
0.503170 0.365187 -1.415838 0
0.651065 0.002587 -0.715284 0
0.054218 0.002463 -1.294632 0
0.719560 0.453532 -1.113031 0
0.230827 0.006376 -0.706233 0
0.342305 0.135165 -1.614931 0
0.931983 0.033178 -0.856865 0
-0.010096 0.009028 -1.010178 0
0.597781 0.498145 -1.318655 0
0.476376 0.012423 -0.616671 0
0.073608 0.090810 -1.449797 0
0.991396 0.231478 -1.081528 0
0.075727 -0.004218 -0.761054 0
0.455299 0.324484 -1.587996 0
0.805759 0.016631 -0.677446 0
-0.065633 0.001073 -1.196272 0
0.776732 0.485480 -1.254513 0
0.291023 -0.002334 -0.590240 0
0.149283 0.258877 -1.532629 0
1.136032 0.037124 -0.931872 0
-0.057616 0.008906 -0.877028 0
0.548350 0.526657 -1.442552 0
0.609718 0.012823 -0.550642 0
-0.063633 0.084823 -1.376934 0
0.948987 0.417518 -1.133948 0
0.104965 -0.005432 -0.632536 0
0.310781 0.352577 -1.632162 0
1.004264 0.015461 -0.701080 0
-0.144509 0.013811 -1.057046 0
0.781058 0.510103 -1.414304 0
0.390467 0.008267 -0.496376 0
-0.009268 0.311469 -1.445196 0
1.320936 0.065336 -1.068455 0
-0.057943 0.000206 -0.740731 0
0.464373 0.520605 -1.565925 0
0.789776 0.003395 -0.526947 0
-0.167936 -0.003198 -1.307738 0
0.970502 0.484770 -1.276379 0
0.174633 0.004817 -0.516115 0
0.163512 0.322053 -1.669003 0
1.199472 0.046675 -0.778295 0
-0.179544 0.002271 -0.913336 0
0.720459 0.533763 -1.562644 0
0.533574 0.009105 -0.432072 0
-0.131306 0.245095 -1.407216 0
1.238171 0.302432 -1.143376 0
-0.017564 -0.004587 -0.607045 0
0.328535 0.518316 -1.632257 0
0.975401 0.034926 -0.545793 0
-0.245325 0.006129 -1.146667 0
1.000039 0.493956 -1.483396 0
0.286256 0.002671 -0.419874 0
-0.012294 0.371243 -1.560111 0
1.413743 0.068663 -0.923225 0
-0.175510 0.004082 -0.761204 0
0.596820 0.556886 -1.671532 0
0.718288 0.003995 -0.401353 0
-0.236126 0.039450 -1.418406 0
1.152779 0.474507 -1.249101 0
0.058995 -0.000243 -0.483285 0
0.198362 0.435400 -1.734236 0
1.237330 0.011829 -0.626669 0
-0.282165 0.008331 -0.978944 0
0.904191 0.549749 -1.630831 0
0.434491 0.002124 -0.346828 0
-0.150628 0.319872 -1.501932 0
-0.133891 0.001518 -0.615578 0
0.380212 0.643420 -1.630405 0
0.930199 0.013849 -0.411239 0
-0.322474 0.011190 -1.260045 0
1.200554 0.491912 -1.483494 0
0.172591 -0.003282 -0.376476 0
0.023495 0.414013 -1.695414 0
1.470877 0.044103 -0.764761 0
-0.280376 0.008046 -0.811856 0
0.436192 0.011713 -1.108748 0
0.535990 0.013690 -1.107884 0
0.325343 0.001674 -1.020309 0
0.488447 0.002311 -1.297870 0
0.523039 0.019217 -0.947779 0
0.233184 0.010205 -1.147467 0
0.546018 0.234245 -1.126020 0
0.333361 0.006935 -0.870490 0
0.350917 0.005518 -1.376984 0
0.696444 0.024786 -0.996071 0
0.153506 0.005764 -0.998860 0
0.547441 0.186520 -1.327017 0
0.480799 0.004862 -0.795923 0
0.165130 0.010113 -1.289524 0
0.643392 0.298802 -1.045270 0
0.195628 -0.003277 -0.828109 0
0.411124 0.111388 -1.474722 0
0.703491 0.005378 -0.842799 0
0.051760 0.000729 -1.097283 0
0.538193 0.448829 -1.159941 0
0.349304 0.006857 -0.705345 0
0.201290 0.011445 -1.476393 0
0.915500 0.020839 -1.036423 0
0.058538 0.000282 -0.870979 0
0.526040 0.234670 -1.486225 0
0.603347 -0.002696 -0.697614 0
0.011047 0.000312 -1.263153 0
0.672838 0.438114 -1.093690 0
0.192348 0.001534 -0.686956 0
0.325001 0.041408 -1.649519 0
0.865610 0.037700 -0.834238 0
-0.049913 0.014156 -0.981993 0
0.542730 0.494251 -1.283693 0
0.432773 0.011457 -0.599355 0
0.026345 0.106423 -1.401833 0
1.003154 0.139324 -1.100723 0
0.037472 -0.002817 -0.738886 0
0.450465 0.229147 -1.632179 0
0.756159 0.008558 -0.661855 0
-0.106102 0.002719 -1.165412 0
0.713833 0.481947 -1.220751 0
0.251065 -0.001458 -0.571895 0
0.110510 0.237706 -1.510368 0
1.045690 0.056510 -0.901774 0
-0.094328 0.005771 -0.854138 0
0.506065 0.505115 -1.419624 0
0.566106 0.007337 -0.535727 0
-0.098317 0.027496 -1.380903 0
0.897362 0.397182 -1.115898 0
0.068009 -0.005497 -0.612657 0
0.299089 0.262462 -1.675977 0
0.927130 0.033745 -0.680595 0
-0.181962 0.011822 -1.030927 0
0.699264 0.522369 -1.357133 0
0.351757 0.004338 -0.480562 0
-0.044246 0.290877 -1.426201 0
1.252759 0.047783 -1.048142 0
-0.093422 -0.002972 -0.719456 0
0.430710 0.486095 -1.554545 0
0.741930 -0.002582 -0.513460 0
-0.208420 0.017282 -1.263620 0
0.875813 0.499964 -1.224783 0
0.138558 0.003278 -0.498377 0
0.116070 0.326457 -1.617664 0
1.141394 0.030542 -0.764289 0
-0.215533 -0.000039 -0.889397 0
0.651913 0.531743 -1.511169 0
0.494096 0.002643 -0.418183 0
-0.165990 0.217842 -1.394175 0
1.166278 0.288973 -1.119400 0
-0.052556 -0.004593 -0.586825 0
0.299955 0.475881 -1.630875 0
0.936835 0.009326 -0.535563 0
-0.282541 0.009553 -1.116425 0
0.898991 0.507891 -1.417882 0
0.251103 -0.003507 -0.404038 0
-0.050729 0.370068 -1.520501 0
1.372739 0.025401 -0.915943 0
-0.210216 0.005329 -0.738310 0
0.534714 0.552476 -1.617916 0
0.668571 0.008166 -0.389167 0
-0.275461 0.013990 -1.401153 0
1.063267 0.474714 -1.209889 0
0.024996 -0.002949 -0.465057 0
0.155502 0.423892 -1.695453 0
1.174403 0.002970 -0.614260 0
-0.317687 0.007784 -0.953434 0
0.829714 0.540695 -1.580291 0
0.393905 0.005682 -0.333120 0
-0.184942 0.297665 -1.484834 0
-0.167394 -0.002799 -0.595320 0
0.344455 0.616043 -1.610715 0
0.871351 0.020137 -0.400664 0
-0.359722 0.011261 -1.229449 0
1.098965 0.493387 -1.428126 0
0.135902 0.004043 -0.360056 0
-0.014786 0.403001 -1.660402 0
1.380362 0.047996 -0.746947 0
-0.314539 0.008390 -0.788284 0
0.423322 -0.004930 -1.076309 0
0.511737 0.017705 -1.065145 0
0.306342 0.004531 -0.982229 0
0.464987 0.005970 -1.250325 0
0.510998 0.000243 -0.917248 0
0.217341 0.008697 -1.109471 0
0.561301 0.170914 -1.120583 0
0.317422 0.001531 -0.837999 0
0.330693 0.009291 -1.328583 0
0.683732 0.004104 -0.964145 0
0.139164 0.002746 -0.965202 0
0.555277 0.132331 -1.316953 0
0.459920 0.006111 -0.761509 0
0.151749 0.004040 -1.251541 0
0.662331 0.236733 -1.038622 0
0.177894 0.003142 -0.794044 0
0.404106 0.082276 -1.446569 0
0.680274 0.002881 -0.806659 0
0.035696 0.014590 -1.055342 0
0.536953 0.417786 -1.141184 0
0.330538 0.008814 -0.673348 0
0.187395 0.005666 -1.433269 0
0.891953 0.010987 -0.997456 0
0.044866 -0.001689 -0.839800 0
0.553578 0.146498 -1.506050 0
0.581619 -0.003520 -0.664159 0
-0.001146 -0.001056 -1.224825 0
0.676161 0.401257 -1.077061 0
0.175631 0.004276 -0.656207 0
0.311843 0.027513 -1.606421 0
0.856433 0.011417 -0.803877 0
-0.060722 0.002322 -0.953986 0
0.530882 0.477163 -1.253051 0
0.416731 0.004573 -0.569419 0
0.021599 0.070023 -1.384556 0
1.054548 0.040806 -1.103646 0
0.024481 -0.009268 -0.710488 0
0.473040 0.143847 -1.653982 0
0.732855 0.006184 -0.628211 0
-0.117249 0.004621 -1.128947 0
0.677953 0.488766 -1.171161 0
0.236193 -0.007317 -0.543084 0
0.111585 0.187814 -1.505459 0
1.018335 0.049416 -0.863575 0
-0.106521 0.004423 -0.824440 0
0.496718 0.484188 -1.389569 0
0.546838 0.004191 -0.504988 0
-0.105981 0.002597 -1.356200 0
0.909759 0.349622 -1.102003 0
0.053088 -0.004689 -0.583928 0
0.293129 0.235145 -1.646714 0
0.914514 0.012933 -0.649004 0
-0.192532 0.012232 -0.998742 0
0.683202 0.505610 -1.322034 0
0.333278 0.006053 -0.451379 0
-0.049297 0.268134 -1.403170 0
1.245326 0.013728 -1.015954 0
-0.106319 -0.003439 -0.691046 0
0.431743 0.449226 -1.538843 0
0.715409 0.001775 -0.481150 0
-0.217100 0.002175 -1.235624 0
0.845022 0.494664 -1.181966 0
0.123015 0.003266 -0.470444 0
0.109275 0.308566 -1.584220 0
1.134914 -0.000540 -0.732817 0
-0.226652 0.003762 -0.858617 0
0.628004 0.523591 -1.462658 0
0.474904 0.001942 -0.388742 0
-0.169896 0.164870 -1.394406 0
1.262134 0.163787 -1.142497 0
-0.065687 -0.010000 -0.559925 0
0.306686 0.427199 -1.629369 0
0.906371 0.013053 -0.501886 0
-0.291632 0.007052 -1.084987 0
0.858937 0.507963 -1.361692 0
0.234589 -0.004245 -0.375984 0
-0.056689 0.359512 -1.485676 0
1.346853 0.009219 -0.877040 0
-0.222020 0.003519 -0.711043 0
0.516648 0.540409 -1.571102 0
0.650591 0.001510 -0.358985 0
-0.282852 0.013195 -1.362717 0
1.020721 0.474073 -1.161734 0
0.010444 -0.003922 -0.437997 0
0.155676 0.386632 -1.681515 0
1.142286 0.001210 -0.578147 0
-0.327642 0.003117 -0.925608 0
0.824211 0.507927 -1.553547 0
0.377674 0.001114 -0.304661 0
-0.189187 0.271885 -1.465623 0
-0.180212 -0.005143 -0.568846 0
0.351327 0.572459 -1.607172 0
0.853427 0.009887 -0.369458 0
-0.367259 0.010123 -1.196072 0
1.032216 0.507768 -1.355037 0
0.119713 0.006076 -0.333089 0
-0.023851 0.407821 -1.603900 0
1.382241 0.007747 -0.715861 0
-0.325257 0.009997 -0.760573 0
0.433611 0.003944 -1.034550 0
0.531722 0.004632 -1.031165 0
0.318846 0.007169 -0.947009 0
0.484238 0.000411 -1.212091 0
0.514667 0.015150 -0.874436 0
0.232394 0.012672 -1.073797 0
0.603160 0.123176 -1.104998 0
0.330058 -0.002879 -0.806164 0
0.348968 0.011337 -1.287757 0
0.691465 0.008965 -0.920278 0
0.154013 0.000589 -0.935497 0
0.576505 0.123622 -1.279062 0
0.466490 0.011279 -0.724923 0
0.169109 0.011473 -1.212925 0
0.657288 0.259106 -0.987560 0
0.190894 -0.004052 -0.766187 0
0.432308 0.064384 -1.416243 0
0.692279 -0.002768 -0.767507 0
0.052730 0.012714 -1.026924 0
0.547628 0.419842 -1.101694 0
0.340209 0.004815 -0.642042 0
0.208719 0.008931 -1.392687 0
0.899911 0.013359 -0.949642 0
0.058226 -0.005957 -0.813754 0
0.563549 0.161389 -1.447427 0
0.586517 0.000309 -0.626072 0
0.018135 0.004426 -1.191013 0
0.706082 0.377135 -1.050906 0
0.184405 0.003227 -0.627780 0
0.336225 0.026062 -1.563107 0
0.870209 0.002909 -0.761745 0
-0.045074 0.000177 -0.928681 0
0.552024 0.466422 -1.221392 0
0.423774 0.002436 -0.536315 0
0.052779 0.028677 -1.378292 0
1.073272 0.030419 -1.056842 0
0.033588 -0.003573 -0.683522 0
0.508894 0.117728 -1.628218 0
0.737125 0.008641 -0.587467 0
-0.098348 0.008539 -1.100112 0
0.712282 0.461866 -1.148955 0
0.237916 0.006971 -0.512417 0
0.146279 0.149717 -1.498666 0
1.055947 0.013947 -0.826082 0
-0.092427 -0.006159 -0.803552 0
0.513661 0.481752 -1.349163 0
0.550739 0.005733 -0.469037 0
-0.082872 0.008769 -1.321621 0
0.957469 0.309711 -1.078838 0
0.060672 -0.004603 -0.558257 0
0.328718 0.207691 -1.627770 0
0.921927 0.010310 -0.605021 0
-0.174901 0.001935 -0.979104 0
0.699425 0.500520 -1.281539 0
0.338721 0.003322 -0.420384 0
-0.022008 0.247836 -1.387425 0
1.262871 0.003552 -0.965121 0
-0.095677 -0.006640 -0.668805 0
0.474100 0.411962 -1.531800 0
0.714103 0.010051 -0.441382 0
-0.194889 0.005129 -1.207602 0
0.888342 0.461587 -1.160763 0
0.129806 -0.003016 -0.444079 0
0.143991 0.276860 -1.575034 0
1.126900 0.014348 -0.680088 0
-0.212234 0.003467 -0.837188 0
0.634801 0.531327 -1.407258 0
0.476584 0.004908 -0.354767 0
-0.141484 0.120117 -1.397293 0
-0.058407 -0.007962 -0.536671 0
0.335235 0.414387 -1.598208 0
0.913121 0.008975 -0.458589 0
-0.271897 0.009187 -1.061398 0
0.896059 0.482471 -1.335125 0
0.235863 0.002211 -0.347237 0
-0.028388 0.342760 -1.467694 0
1.346000 0.015426 -0.819792 0
-0.210632 -0.002244 -0.691801 0
0.537995 0.534115 -1.529860 0
0.645678 0.013857 -0.321694 0
-0.257313 0.001529 -1.342986 0
1.096302 0.416471 -1.152811 0
0.015421 -0.004321 -0.413824 0
0.209499 0.310472 -1.721672 0
1.138893 0.009138 -0.528348 0
-0.311171 0.003322 -0.905516 0
0.841017 0.502924 -1.504752 0
0.376119 0.009513 -0.273412 0
-0.162365 0.270350 -1.436895 0
-0.172192 -0.003723 -0.548128 0
0.391731 0.539742 -1.600853 0
0.857197 0.007624 -0.327299 0
-0.345359 -0.002970 -1.180320 0
1.079213 0.475774 -1.330517 0
0.122605 0.005315 -0.306818 0
0.009405 0.378877 -1.597117 0
1.390981 0.003435 -0.661722 0
