ply
format ascii 1.0
element vertex 1625
property float x
property float y
property float z
property uchar label
end_header
0.747354 0.768977 0.189509 1
0.723720 0.684863 0.146574 1
0.754149 0.776414 0.130817 1
0.730391 0.731737 0.201340 1
0.729024 0.713303 0.110870 1
0.754193 0.786823 0.171418 1
0.723217 0.684553 0.175403 1
0.747251 0.758562 0.109188 1
0.743170 0.758129 0.203759 1
0.724574 0.680985 0.126374 1
0.760334 0.788285 0.143860 1
0.731308 0.701200 0.201496 1
0.733654 0.730836 0.099627 1
0.754273 0.783150 0.189778 1
0.720868 0.668118 0.157389 1
0.757369 0.775182 0.114887 1
0.734781 0.741593 0.213251 1
0.723870 0.693843 0.107085 1
0.758032 0.799420 0.162870 1
0.730948 0.669652 0.192158 1
0.742460 0.751335 0.095374 1
0.751296 0.771082 0.207343 1
0.719145 0.663294 0.133905 1
0.762859 0.792349 0.129206 1
0.727846 0.716390 0.215729 1
0.727882 0.714047 0.092063 1
0.759597 0.797269 0.184006 1
0.723996 0.651475 0.173107 1
0.755839 0.769896 0.098988 1
0.742250 0.754185 0.220660 1
0.720910 0.669887 0.109204 1
0.766238 0.803634 0.149505 1
0.723203 0.685077 0.209165 1
0.732941 0.741844 0.085291 1
0.758627 0.785924 0.205228 1
0.723317 0.636947 0.146427 1
0.765671 0.789222 0.112126 1
0.732816 0.729296 0.227214 1
0.721153 0.694190 0.089731 1
0.763807 0.809312 0.173430 1
0.723844 0.648792 0.192246 1
0.747152 0.763845 0.085512 1
0.749684 0.770150 0.222996 1
0.714916 0.651048 0.118512 1
0.771609 0.804713 0.132886 1
0.726198 0.695826 0.224988 1
0.723845 0.726539 0.078567 1
0.765366 0.800316 0.197961 1
0.727112 0.617933 0.164765 1
0.764106 0.782725 0.094754 1
0.736904 0.748349 0.234201 1
0.714840 0.671846 0.092938 1
0.768275 0.817060 0.158940 1
0.724250 0.655450 0.212068 1
0.735703 0.754270 0.074938 1
0.759624 0.784984 0.220466 1
0.720200 0.619729 0.131923 1
0.771997 0.803557 0.114629 1
0.726397 0.717171 0.237032 1
0.716231 0.705488 0.075716 1
0.769247 0.814313 0.186140 1
0.727874 0.612921 0.187067 1
0.754024 0.776770 0.079951 1
0.744460 0.766754 0.236779 1
0.711305 0.646093 0.101579 1
0.775610 0.817786 0.140917 1
0.720394 0.677106 0.229550 1
0.724693 0.739136 0.067379 1
0.768666 0.799961 0.212855 1
0.724937 0.595455 0.151835 1
0.771504 0.796531 0.095271 1
0.734459 0.734568 0.245869 1
0.712906 0.676262 0.076635 1
0.770693 0.826107 0.170683 1
0.730702 0.615813 0.210634 1
0.741159 0.767372 0.067899 1
0.753994 0.784430 0.234587 1
0.720063 0.604546 0.113933 1
0.725711 0.713478 0.143446 1
0.730115 0.719191 0.149985 1
0.722964 0.695683 0.142651 1
0.733112 0.723436 0.132340 1
0.727168 0.709482 0.162434 1
0.725472 0.693316 0.124722 1
0.735509 0.736511 0.148142 1
0.722625 0.683595 0.156246 1
0.730029 0.719011 0.117162 1
0.728965 0.729498 0.169125 1
0.718571 0.676444 0.130910 1
0.739771 0.740877 0.132200 1
0.722912 0.695307 0.173432 1
0.724177 0.698941 0.108776 1
0.736130 0.746753 0.161977 1
0.714991 0.668065 0.150066 1
0.737280 0.733091 0.112643 1
0.726337 0.720631 0.182512 1
0.723032 0.665971 0.112774 1
0.743481 0.753947 0.142947 1
0.723599 0.667532 0.173419 1
0.730261 0.711091 0.098236 1
0.732719 0.747159 0.177858 1
0.716446 0.649240 0.133841 1
0.743562 0.749634 0.118178 1
0.726474 0.696923 0.190392 1
0.722223 0.678364 0.096747 1
0.742063 0.762640 0.159507 1
0.725097 0.637230 0.163231 1
0.736509 0.730801 0.096151 1
0.732072 0.732729 0.192310 1
0.716591 0.645477 0.112960 1
0.747650 0.764002 0.131676 1
0.724535 0.667675 0.190473 1
0.723662 0.700666 0.086103 1
0.740403 0.760789 0.177985 1
0.722561 0.618570 0.144021 1
0.745176 0.749515 0.102257 1
0.727846 0.711176 0.202385 1
0.712503 0.663301 0.093976 1
0.749314 0.772430 0.150558 1
0.725869 0.631195 0.180868 1
0.731326 0.723404 0.082144 1
0.736302 0.749884 0.195556 1
0.719654 0.614091 0.119090 1
0.752364 0.765948 0.116457 1
0.722073 0.683027 0.205233 1
0.719184 0.681039 0.077788 1
0.746365 0.774460 0.172099 1
0.725734 0.600636 0.160716 1
0.740804 0.746504 0.086882 1
0.728214 0.732084 0.209113 1
0.709882 0.637289 0.095892 1
0.755406 0.778213 0.137081 1
0.728441 0.634210 0.199296 1
0.720751 0.714498 0.072214 1
0.742463 0.765858 0.193239 1
0.716505 0.596591 0.133395 1
0.753145 0.764138 0.099485 1
0.721903 0.703102 0.216291 1
0.708326 0.665167 0.076641 1
0.747537 0.789029 0.161604 1
0.726766 0.596474 0.181139 1
0.732935 0.739394 0.073115 1
0.735292 0.748692 0.211215 1
0.713773 0.602184 0.102947 1
0.756343 0.782586 0.120909 1
0.723481 0.657205 0.215214 1
0.713357 0.696230 0.064640 1
0.750118 0.779352 0.185907 1
0.722007 0.573850 0.152261 1
0.747582 0.760772 0.082989 1
0.723710 0.725591 0.222865 1
0.702630 0.640593 0.079572 1
0.758114 0.791655 0.146556 1
0.732928 0.596174 0.202685 1
0.722619 0.728251 0.062055 1
0.743480 0.765111 0.208312 1
0.716045 0.572901 0.117616 1
0.760594 0.777901 0.101750 1
0.719078 0.686287 0.226938 1
0.706934 0.672125 0.061044 1
0.754511 0.792871 0.174075 1
0.730826 0.556313 0.175499 1
0.737646 0.754580 0.068219 1
0.729516 0.746203 0.224964 1
0.700072 0.611669 0.087961 1
0.763437 0.793516 0.128468 1
0.726867 0.623984 0.221379 1
0.713541 0.710114 0.053514 1
0.752151 0.780177 0.200553 1
0.729781 0.531942 0.137296 1
0.755830 0.773944 0.083235 1
0.723349 0.709243 0.235009 1
0.700784 0.644707 0.062783 1
0.755810 0.804713 0.158681 1
0.729328 0.567325 0.200405 1
0.725211 0.744623 0.056062 1
0.739238 0.763737 0.222557 1
0.710322 0.564753 0.099898 1
0.727049 0.691695 0.114726 1
0.728835 0.700941 0.121832 1
0.722820 0.674655 0.114008 1
0.727076 0.710134 0.104501 1
0.724566 0.692684 0.134768 1
0.722066 0.675639 0.095994 1
0.733086 0.720193 0.120134 1
0.718966 0.666854 0.128402 1
0.729086 0.699423 0.087797 1
0.730992 0.708589 0.141408 1
0.720466 0.651232 0.101256 1
0.733512 0.728267 0.104402 1
0.724205 0.673508 0.145747 1
0.723376 0.677809 0.078914 1
0.734836 0.730010 0.134294 1
0.721142 0.637171 0.120682 1
0.731704 0.719052 0.084265 1
0.727514 0.700562 0.155295 1
0.715914 0.651581 0.084342 1
0.740985 0.738250 0.114768 1
0.719526 0.651336 0.145777 1
0.722017 0.698965 0.070201 1
0.734402 0.727762 0.150533 1
0.721357 0.618121 0.103427 1
0.737966 0.736246 0.089954 1
0.724977 0.679190 0.163208 1
0.713661 0.665682 0.068573 1
0.743881 0.743526 0.131415 1
0.722726 0.617144 0.134813 1
0.725915 0.721600 0.068870 1
0.727035 0.720216 0.165354 1
0.713390 0.624780 0.083390 1
0.744163 0.749337 0.103376 1
0.724280 0.647110 0.163046 1
0.712773 0.691087 0.058785 1
0.739553 0.744539 0.150677 1
0.719226 0.598195 0.115023 1
0.736261 0.739002 0.074535 1
0.726836 0.693804 0.175552 1
0.708323 0.643988 0.064340 1
0.748083 0.756401 0.122431 1
0.729766 0.602656 0.152541 1
0.718305 0.716436 0.055598 1
0.735041 0.734051 0.168660 1
0.708273 0.604542 0.091286 1
0.745571 0.754043 0.088406 1
0.732592 0.650009 0.178794 1
0.707814 0.671418 0.050373 1
0.745543 0.758570 0.144595 1
0.724578 0.576900 0.131650 1
0.729532 0.737960 0.059782 1
0.733205 0.709190 0.182872 1
0.706477 0.615586 0.065759 1
0.751249 0.764684 0.108948 1
0.728347 0.612270 0.171643 1
0.713703 0.700281 0.043429 1
0.741261 0.750467 0.166242 1
0.720346 0.563158 0.102482 1
0.742534 0.755319 0.072134 1
0.726531 0.679039 0.190264 1
0.702114 0.648014 0.047244 1
0.752317 0.768665 0.133418 1
0.725364 0.573814 0.152666 1
0.722110 0.730024 0.045829 1
0.734042 0.733189 0.184618 1
0.701801 0.592636 0.075158 1
0.752926 0.768233 0.092288 1
0.727574 0.631208 0.188634 1
0.703873 0.684154 0.036588 1
0.747179 0.765770 0.158687 1
0.729621 0.533838 0.121449 1
0.735121 0.753362 0.056214 1
0.730270 0.700858 0.197374 1
0.698813 0.618751 0.049090 1
0.757330 0.775885 0.118205 1
0.730567 0.576011 0.174549 1
0.710561 0.719845 0.035269 1
0.739719 0.752413 0.181425 1
0.713327 0.547811 0.087126 1
0.749807 0.769344 0.074396 1
0.729165 0.654645 0.201827 1
0.700610 0.654805 0.031250 1
0.753354 0.777937 0.146561 1
0.729668 0.531061 0.146270 1
0.725099 0.747013 0.041599 1
0.732761 0.726313 0.199186 1
0.697987 0.585702 0.056826 1
0.759269 0.780229 0.100090 1
0.730260 0.597391 0.194538 1
0.703218 0.699098 0.025777 1
0.747395 0.768468 0.173424 1
0.718988 0.520031 0.108184 1
0.743401 0.766488 0.056345 1
0.724372 0.690363 0.209146 1
0.695868 0.623964 0.032107 1
0.759334 0.786203 0.130422 1
0.731826 0.537885 0.172136 1
0.716245 0.733003 0.027971 1
0.736734 0.750159 0.196006 1
0.704948 0.542653 0.069509 1
0.726389 0.688228 0.103950 1
0.728206 0.697593 0.111121 1
0.722092 0.671102 0.103215 1
0.727486 0.705538 0.093492 1
0.725706 0.687320 0.123950 1
0.721491 0.671701 0.085023 1
0.732395 0.717058 0.109452 1
0.720651 0.660314 0.117384 1
0.727430 0.696888 0.077058 1
0.727150 0.709013 0.131138 1
0.718679 0.648702 0.090523 1
0.733101 0.724769 0.093573 1
0.720155 0.674381 0.135424 1
0.715655 0.682433 0.069873 1
0.735210 0.725989 0.123597 1
0.721032 0.632524 0.109702 1
0.728668 0.718072 0.073933 1
0.723562 0.701295 0.144977 1
0.714737 0.648023 0.073381 1
0.739492 0.736006 0.104173 1
0.719564 0.646939 0.135074 1
0.719260 0.697512 0.059767 1
0.735000 0.723626 0.139954 1
0.709626 0.629502 0.094746 1
0.735856 0.734401 0.079401 1
0.723213 0.677464 0.152729 1
0.711975 0.662708 0.057718 1
0.740810 0.742936 0.121066 1
0.724017 0.610503 0.123695 1
0.723171 0.720187 0.058480 1
0.725842 0.718015 0.154993 1
0.712349 0.620762 0.072290 1
0.743093 0.746667 0.092646 1
0.722646 0.645102 0.152451 1
0.711992 0.687086 0.047632 1
0.740547 0.740218 0.140078 1
0.717096 0.596029 0.104220 1
0.732773 0.738404 0.064343 1
0.725753 0.691460 0.165115 1
0.707679 0.639318 0.053033 1
0.747030 0.753900 0.111795 1
0.722754 0.607976 0.142031 1
0.717675 0.712529 0.044416 1
0.732354 0.733432 0.158280 1
0.705754 0.602653 0.080625 1
0.743272 0.752421 0.077881 1
0.722396 0.659041 0.167973 1
0.706254 0.668084 0.039383 1
0.746068 0.754812 0.133963 1
0.726151 0.569200 0.120272 1
0.725050 0.738274 0.049985 1
0.725466 0.714205 0.172222 1
0.701056 0.617730 0.056057 1
0.749886 0.762409 0.098292 1
0.728514 0.607696 0.160872 1
0.709507 0.700273 0.033549 1
0.738954 0.749430 0.155847 1
0.708582 0.575989 0.093627 1
0.738889 0.754825 0.061977 1
0.726733 0.675239 0.179866 1
0.701772 0.642681 0.035652 1
0.752220 0.765486 0.122724 1
0.727064 0.566194 0.141543 1
0.716769 0.731193 0.036438 1
0.733153 0.730894 0.174257 1
0.701421 0.587019 0.063726 1
0.750152 0.767074 0.081860 1
0.727115 0.627866 0.178011 1
0.703136 0.679696 0.025167 1
0.745182 0.764392 0.148275 1
0.716519 0.549426 0.112044 1
0.730916 0.753312 0.046313 1
0.726211 0.702091 0.186719 1
0.698674 0.612687 0.037328 1
0.754606 0.774842 0.107778 1
0.731576 0.569866 0.163638 1
0.709950 0.715698 0.023889 1
0.737212 0.751684 0.171018 1
0.708925 0.548725 0.076667 1
0.746163 0.768826 0.064209 1
0.729981 0.650005 0.191416 1
0.696029 0.655246 0.021479 1
0.754275 0.774072 0.135900 1
0.730064 0.524870 0.134955 1
0.723227 0.744582 0.030829 1
0.727360 0.728779 0.188467 1
0.698607 0.578008 0.044739 1
0.757024 0.778687 0.089540 1
0.729464 0.594380 0.183758 1
0.702770 0.694335 0.014130 1
0.745078 0.767469 0.163009 1
0.712969 0.524070 0.097837 1
0.739608 0.766009 0.046252 1
0.725277 0.686017 0.198973 1
0.690820 0.625167 0.022482 1
0.758205 0.783969 0.119821 1
0.723569 0.546183 0.161082 1
0.711825 0.733065 0.018276 1
0.735406 0.748437 0.185654 1
0.698194 0.547458 0.059955 1
0.720459 0.690555 0.086395 1
0.720638 0.701797 0.093845 1
0.713350 0.677081 0.086253 1
0.719576 0.709749 0.076539 1
0.719873 0.689891 0.106262 1
0.710607 0.680006 0.068894 1
0.725283 0.720425 0.092131 1
0.713252 0.665063 0.099954 1
0.714115 0.707100 0.061775 1
0.723941 0.708604 0.113169 1
0.708234 0.657136 0.074112 1
0.724663 0.729177 0.076729 1
0.720569 0.669649 0.116983 1
0.709258 0.684889 0.052775 1
0.730039 0.727427 0.105846 1
0.710378 0.641908 0.092814 1
0.717014 0.725801 0.058322 1
0.720072 0.701456 0.127044 1
0.703533 0.657270 0.057597 1
0.731353 0.739986 0.087060 1
0.711851 0.652654 0.117402 1
0.706635 0.706910 0.044898 1
0.732083 0.722997 0.121881 1
0.704782 0.630759 0.076974 1
0.724117 0.741712 0.063613 1
0.715998 0.682344 0.134851 1
0.701493 0.670458 0.042109 1
0.737193 0.742694 0.103081 1
0.710130 0.625172 0.106789 1
0.711967 0.727301 0.043160 1
0.726233 0.714098 0.136889 1
0.700073 0.632241 0.056772 1
0.734912 0.750331 0.075653 1
0.711678 0.655396 0.134621 1
0.700859 0.694966 0.032571 1
0.737686 0.739505 0.121988 1
0.704261 0.609530 0.087793 1
0.721415 0.745118 0.048826 1
0.718544 0.696280 0.147069 1
0.696491 0.648556 0.037740 1
0.740486 0.756153 0.094252 1
0.711004 0.620133 0.124331 1
0.707220 0.718889 0.029122 1
0.731595 0.730888 0.140208 1
0.695968 0.611277 0.064248 1
0.732855 0.757883 0.061673 1
0.719716 0.658738 0.149716 1
0.696290 0.674850 0.023985 1
0.742776 0.754387 0.115895 1
0.710279 0.588099 0.103501 1
0.715568 0.743070 0.034209 1
0.724415 0.712090 0.154218 1
0.695076 0.619900 0.038754 1
0.743097 0.764607 0.080884 1
0.717339 0.619208 0.142488 1
0.697934 0.708221 0.019043 1
0.739943 0.745299 0.137652 1
0.701546 0.580935 0.076113 1
0.729380 0.759294 0.045833 1
0.717505 0.682977 0.161397 1
0.690644 0.651586 0.020790 1
0.748455 0.765302 0.104664 1
0.718387 0.574567 0.123237 1
0.710303 0.732833 0.019664 1
0.730444 0.730538 0.156183 1
0.688527 0.600665 0.048730 1
0.741053 0.771029 0.065168 1
0.720660 0.632877 0.159370 1
0.692136 0.687402 0.010571 1
0.746331 0.760215 0.129964 1
0.709598 0.554778 0.094017 1
0.723878 0.755384 0.029580 1
0.725489 0.699809 0.168656 1
0.687449 0.622527 0.022395 1
0.750223 0.774979 0.089837 1
0.724825 0.575653 0.144793 1
0.700802 0.720352 0.008438 1
0.738376 0.747592 0.152999 1
0.694440 0.566113 0.061406 1
0.737299 0.772417 0.047742 1
0.723905 0.654430 0.172652 1
0.684550 0.664265 0.007238 1
0.752109 0.772671 0.117667 1
0.717774 0.539677 0.116867 1
0.714681 0.748105 0.014896 1
0.727686 0.725522 0.170593 1
0.687303 0.588923 0.029517 1
0.749891 0.780843 0.072209 1
0.726684 0.594622 0.164928 1
0.693205 0.699764 -0.000990 1
0.745711 0.763941 0.144871 1
0.700018 0.539932 0.081295 1
0.731201 0.769118 0.029906 1
0.720458 0.688705 0.180481 1
0.684156 0.627647 0.005704 1
0.756645 0.781939 0.101433 1
0.727387 0.535299 0.141946 1
0.705131 0.734704 0.001694 1
0.734167 0.746779 0.167652 1
0.683624 0.565256 0.045543 1
0.717369 0.690138 0.074921 1
0.717717 0.701271 0.082377 1
0.710019 0.676987 0.074881 1
0.714074 0.711920 0.065746 1
0.717580 0.688772 0.094667 1
0.706622 0.680519 0.057740 1
0.721802 0.720463 0.080777 1
0.710502 0.664409 0.088432 1
0.709333 0.708366 0.050915 1
0.724168 0.704802 0.101245 1
0.704858 0.656970 0.062743 1
0.719578 0.730715 0.065821 1
0.718616 0.668204 0.105287 1
0.705007 0.685529 0.041745 1
0.729685 0.724355 0.093936 1
0.707213 0.641708 0.081330 1
0.712366 0.726775 0.047450 1
0.724571 0.692853 0.114847 1
0.698766 0.658776 0.046722 1
0.727402 0.740374 0.075796 1
0.709765 0.651351 0.105779 1
0.702089 0.707770 0.034091 1
0.730506 0.721326 0.110178 1
0.701655 0.630291 0.065496 1
0.718865 0.743221 0.052860 1
0.715955 0.678834 0.123139 1
0.696808 0.671613 0.031299 1
0.734131 0.742331 0.091560 1
0.706652 0.625624 0.095304 1
0.708110 0.727286 0.032094 1
0.725971 0.711140 0.125178 1
0.696008 0.632845 0.045622 1
0.729747 0.751711 0.064693 1
0.711100 0.652344 0.122916 1
0.696485 0.695540 0.021730 1
0.735635 0.738338 0.110319 1
0.700859 0.609628 0.076331 1
0.717383 0.745270 0.037763 1
0.718972 0.692489 0.135430 1
0.692477 0.648810 0.026652 1
0.736915 0.756151 0.082830 1
0.708100 0.620026 0.112716 1
0.703069 0.719081 0.018180 1
0.733724 0.725675 0.128373 1
0.692583 0.611010 0.052866 1
0.728092 0.758742 0.050713 1
0.716722 0.659018 0.138055 1
0.692201 0.674998 0.012991 1
0.740425 0.753452 0.104238 1
0.705164 0.591069 0.092188 1
0.714116 0.740465 0.022181 1
0.724142 0.709311 0.142610 1
0.690721 0.620707 0.027722 1
0.738707 0.765186 0.069653 1
0.715318 0.618091 0.130712 1
0.698574 0.702574 0.005912 1
0.740004 0.742284 0.125853 1
0.698064 0.580976 0.064602 1
0.725141 0.759544 0.034779 1
0.714281 0.683644 0.149786 1
0.686645 0.651594 0.009734 1
0.745334 0.764935 0.093078 1
0.713636 0.577258 0.111588 1
0.706097 0.732949 0.008732 1
0.730713 0.727352 0.144560 1
0.684723 0.600828 0.037520 1
0.738023 0.770295 0.053651 1
0.718010 0.632865 0.147583 1
0.687963 0.687496 -0.000323 1
0.746156 0.757469 0.118104 1
0.704549 0.557682 0.082648 1
0.719937 0.755242 0.018457 1
0.722913 0.699710 0.156976 1
0.683196 0.622960 0.011400 1
0.746414 0.775053 0.078400 1
0.724759 0.571507 0.132708 1
0.697005 0.719929 -0.002649 1
0.738384 0.744773 0.141314 1
0.691090 0.565689 0.049866 1
0.732839 0.772799 0.036697 1
0.721257 0.654547 0.160839 1
0.680506 0.664168 -0.003724 1
0.750474 0.771139 0.105868 1
0.714053 0.540737 0.105021 1
0.710233 0.748378 0.004058 1
0.727824 0.722569 0.159059 1
0.683567 0.588630 0.018186 1
0.745765 0.781033 0.060895 1
0.726736 0.590781 0.152990 1
0.688431 0.700455 -0.011574 1
0.746704 0.760317 0.133065 1
0.695159 0.542484 0.070026 1
0.727025 0.769146 0.018825 1
0.719822 0.686508 0.168916 1
0.679681 0.628169 -0.005168 1
0.753578 0.781450 0.089789 1
0.726665 0.531847 0.129719 1
0.700302 0.735330 -0.008897 1
0.734563 0.743705 0.156092 1
0.680309 0.564501 0.034066 1
0.709130 0.691638 0.047948 1
0.709643 0.702724 0.055402 1
0.703009 0.677118 0.047735 1
0.705442 0.713517 0.039134 1
0.713104 0.686393 0.066858 1
0.698924 0.680992 0.030875 1
0.713554 0.721884 0.053831 1
0.705780 0.662041 0.060698 1
0.701703 0.708459 0.024084 1
0.716534 0.706179 0.073927 1
0.697409 0.657354 0.035728 1
0.711604 0.731421 0.038951 1
0.709562 0.671793 0.078151 1
0.697262 0.685554 0.014898 1
0.720710 0.726734 0.066849 1
0.701984 0.639683 0.053627 1
0.705068 0.726346 0.020501 1
0.715869 0.695918 0.087512 1
0.691263 0.658723 0.019844 1
0.718407 0.742209 0.048989 1
0.705601 0.648777 0.077998 1
0.694827 0.706982 0.007221 1
0.725642 0.719855 0.082304 1
0.695222 0.629377 0.038115 1
0.711828 0.742600 0.025754 1
0.714661 0.673409 0.095086 1
0.689954 0.670171 0.004156 1
0.726231 0.743362 0.064236 1
0.702159 0.622999 0.067458 1
0.700592 0.726707 0.005249 1
0.723814 0.707144 0.097123 1
0.689091 0.631915 0.018436 1
0.721580 0.752368 0.037679 1
0.708817 0.647863 0.094964 1
0.689021 0.694630 -0.005089 1
0.729727 0.737878 0.082536 1
0.695814 0.606995 0.048533 1
0.709755 0.744882 0.010828 1
0.719522 0.685458 0.107360 1
0.686074 0.646480 -0.000773 1
0.728271 0.757547 0.055692 1
0.703291 0.618491 0.084939 1
0.695454 0.718242 -0.008662 1
0.729503 0.723993 0.100378 1
0.685526 0.610566 0.025763 1
0.720650 0.758380 0.023536 1
0.716374 0.652643 0.109961 1
0.684820 0.673652 -0.013987 1
0.733715 0.753520 0.076527 1
0.698676 0.591239 0.064592 1
0.702413 0.743951 -0.003035 1
0.725349 0.702086 0.114550 1
0.677139 0.629354 0.003436 1
0.730571 0.765755 0.042422 1
0.709813 0.618173 0.102787 1
0.685680 0.707836 -0.018339 1
0.736213 0.740127 0.097718 1
0.684083 0.592297 0.039411 1
0.716712 0.759773 0.007976 1
0.714690 0.677027 0.122005 1
0.679476 0.649751 -0.017392 1
0.737720 0.765465 0.065470 1
0.703603 0.583684 0.084180 1
0.697138 0.733323 -0.017566 1
0.731995 0.720479 0.116430 1
0.677533 0.599973 0.010505 1
0.728400 0.771812 0.026926 1
0.712995 0.632824 0.119567 1
0.678983 0.687871 -0.026412 1
0.740468 0.756851 0.090068 1
0.689529 0.571751 0.056983 1
0.710117 0.756503 -0.007697 1
0.723110 0.693859 0.129102 1
0.675189 0.622372 -0.015349 1
0.737882 0.775991 0.051061 1
0.718394 0.572927 0.104304 1
0.687707 0.720483 -0.028666 1
0.739458 0.738382 0.113015 1
0.685270 0.562891 0.022035 1
0.723464 0.773789 0.010086 1
0.715582 0.655712 0.132758 1
0.671927 0.663927 -0.030003 1
0.743351 0.771416 0.078005 1
0.701933 0.550842 0.077835 1
0.699567 0.750313 -0.021459 1
0.726709 0.718462 0.131174 1
0.676167 0.587228 -0.009019 1
0.737143 0.781672 0.033672 1
0.724967 0.586197 0.124405 1
0.678597 0.701534 -0.037223 1
0.745371 0.756174 0.104661 1
0.688147 0.542630 0.042513 1
0.716713 0.770691 -0.007266 1
0.717443 0.683863 0.141077 1
0.671464 0.627252 -0.031901 1
0.745488 0.782117 0.062121 1
0.715061 0.541811 0.101525 1
0.691088 0.735545 -0.035034 1
0.736349 0.736927 0.128086 1
0.673962 0.561866 0.006536 1
0.700915 0.698528 0.037273 1
0.704535 0.705893 0.043833 1
0.701348 0.676152 0.035252 1
0.704313 0.711936 0.026514 1
0.711545 0.685575 0.054342 1
0.697737 0.679208 0.018186 1
0.712186 0.720784 0.041306 1
0.704375 0.660887 0.048137 1
0.698041 0.709618 0.012293 1
0.714275 0.706260 0.061586 1
0.692094 0.661108 0.024397 1
0.710869 0.729521 0.026192 1
0.708444 0.670537 0.065594 1
0.692007 0.688704 0.003733 1
0.718413 0.726760 0.054513 1
0.693725 0.647889 0.042848 1
0.704351 0.724165 0.007614 1
0.714442 0.695207 0.075033 1
0.686274 0.661878 0.008571 1
0.716995 0.741172 0.036451 1
0.704614 0.647267 0.065397 1
0.693531 0.705142 -0.005522 1
0.720793 0.722698 0.070311 1
0.688455 0.635579 0.027198 1
0.710596 0.741138 0.013078 1
0.713816 0.672045 0.082501 1
0.688039 0.668895 -0.008400 1
0.722031 0.745191 0.052286 1
0.695578 0.629310 0.056012 1
0.699166 0.725119 -0.007459 1
0.722186 0.706773 0.084623 1
0.682671 0.637400 0.007697 1
0.717977 0.753359 0.025726 1
0.708113 0.646218 0.082358 1
0.686623 0.693926 -0.017410 1
0.727240 0.738214 0.070161 1
0.693829 0.606350 0.036028 1
0.707374 0.744444 -0.001491 1
0.719548 0.683267 0.094717 1
0.677864 0.654143 -0.010422 1
0.725123 0.758228 0.043535 1
0.702083 0.617297 0.072348 1
0.693131 0.717468 -0.021049 1
0.727435 0.724104 0.087904 1
0.683260 0.609977 0.013376 1
0.718399 0.757955 0.011143 1
0.711278 0.656880 0.097682 1
0.681378 0.674190 -0.025849 1
0.730373 0.754550 0.064296 1
0.691957 0.598262 0.053178 1
0.699117 0.744326 -0.014941 1
0.722140 0.703639 0.102125 1
0.674977 0.628256 -0.008990 1
0.727943 0.765831 0.030111 1
0.708435 0.617500 0.090187 1
0.682815 0.707566 -0.030438 1
0.731978 0.742241 0.085447 1
0.681894 0.591795 0.027030 1
0.713418 0.760198 -0.004035 1
0.716061 0.673317 0.109416 1
0.670720 0.658091 -0.026382 1
0.731616 0.768749 0.053811 1
0.701009 0.584560 0.071713 1
0.692024 0.735566 -0.028571 1
0.728894 0.721803 0.103956 1
0.675129 0.599318 -0.001852 1
0.725320 0.772157 0.014765 1
0.712489 0.631220 0.106943 1
0.675610 0.688145 -0.038259 1
0.736612 0.758406 0.077786 1
0.687661 0.571003 0.044455 1
0.704333 0.759244 -0.018544 1
0.719078 0.696564 0.116617 1
0.666800 0.630845 -0.024549 1
0.733301 0.777758 0.039186 1
0.703455 0.592924 0.092789 1
0.684930 0.719998 -0.040879 1
0.735160 0.740680 0.100590 1
0.676358 0.573737 0.012114 1
0.719273 0.774989 -0.001622 1
0.709947 0.660913 0.120240 1
0.668542 0.664183 -0.041848 1
0.739947 0.772394 0.065706 1
0.692556 0.563091 0.066581 1
0.695341 0.751464 -0.032911 1
0.726460 0.717001 0.118649 1
0.665350 0.600604 -0.017166 1
0.733500 0.782499 0.021606 1
0.722519 0.587379 0.111580 1
0.674922 0.702050 -0.048909 1
0.741532 0.757806 0.092233 1
0.679185 0.554275 0.032118 1
0.712808 0.771528 -0.019024 1
0.714475 0.685596 0.128545 1
0.663118 0.635404 -0.040823 1
0.739588 0.784935 0.050383 1
0.707790 0.550691 0.089270 1
0.686335 0.737227 -0.046143 1
0.735261 0.736321 0.115503 1
0.671588 0.561002 -0.005934 1
0.695778 0.697763 0.008205 1
0.698634 0.706235 0.015002 1
0.695554 0.676062 0.006209 1
0.699432 0.710637 -0.002776 1
0.698448 0.694837 0.027066 1
0.688356 0.683206 -0.009520 1
0.706320 0.721005 0.012319 1
0.698389 0.661417 0.019055 1
0.692411 0.708771 -0.016747 1
0.707353 0.708191 0.032789 1
0.686671 0.660118 -0.004731 1
0.704969 0.729413 -0.002813 1
0.702933 0.670996 0.036425 1
0.685916 0.688060 -0.025210 1
0.711730 0.728147 0.025662 1
0.688332 0.647437 0.013777 1
0.694760 0.727664 -0.019925 1
0.708306 0.696640 0.045995 1
0.680297 0.661107 -0.020379 1
0.709669 0.742758 0.007873 1
0.699012 0.647841 0.036207 1
0.686531 0.705408 -0.034102 1
0.713944 0.724643 0.041401 1
0.684186 0.632841 -0.002396 1
0.703256 0.742228 -0.015423 1
0.709601 0.671386 0.053010 1
0.675023 0.677212 -0.034138 1
0.715436 0.746363 0.023420 1
0.689736 0.629922 0.026986 1
0.691871 0.725692 -0.035949 1
0.716129 0.708277 0.055406 1
0.677384 0.635425 -0.021647 1
0.711561 0.753776 -0.003153 1
0.703530 0.645968 0.052926 1
0.679281 0.694248 -0.045862 1
0.717482 0.742888 0.041725 1
0.689038 0.604528 0.006396 1
0.697900 0.747403 -0.029060 1
0.714857 0.683541 0.065235 1
0.670717 0.654342 -0.038904 1
0.717900 0.759748 0.014809 1
0.696951 0.617419 0.042962 1
0.681894 0.722313 -0.047511 1
0.720901 0.726075 0.058703 1
0.679096 0.606214 -0.016563 1
0.710070 0.759880 -0.017113 1
0.707817 0.655683 0.068134 1
0.667603 0.683080 -0.050762 1
0.722331 0.757237 0.035561 1
0.686688 0.597828 0.023875 1
0.692949 0.743533 -0.043949 1
0.717231 0.704342 0.072722 1
0.668781 0.626925 -0.038051 1
0.717576 0.769863 0.002305 1
0.704079 0.617126 0.060552 1
0.674349 0.708944 -0.058236 1
0.725032 0.744416 0.056294 1
0.677782 0.588299 -0.002757 1
0.703796 0.763067 -0.031638 1
0.713655 0.671249 0.079792 1
0.662453 0.659395 -0.054231 1
0.723038 0.771577 0.025295 1
0.695753 0.584783 0.042164 1
0.685347 0.734922 -0.057424 1
0.723311 0.723176 0.074529 1
0.671405 0.593923 -0.032224 1
0.715964 0.774951 -0.013219 1
0.709174 0.630019 0.077218 1
0.666010 0.690851 -0.065384 1
0.728089 0.761693 0.048891 1
0.684490 0.566503 0.014355 1
0.698954 0.757667 -0.048050 1
0.717198 0.694245 0.087058 1
0.660085 0.629700 -0.053378 1
0.724256 0.780613 0.010849 1
0.698819 0.593021 0.063188 1
0.676293 0.721261 -0.068699 1
0.728796 0.742604 0.071186 1
0.672740 0.568418 -0.018174 1
0.711353 0.776209 -0.030032 1
0.709985 0.655954 0.090658 1
0.659590 0.665944 -0.069387 1
0.728898 0.777411 0.037389 1
0.687185 0.563271 0.037141 1
0.690953 0.748384 -0.063120 1
0.724270 0.715214 0.089030 1
0.661529 0.594516 -0.047687 1
0.721704 0.787290 -0.005751 1
0.713052 0.595139 0.081741 1
0.665956 0.703539 -0.076466 1
0.733475 0.760906 0.062993 1
0.676362 0.548223 0.001759 1
0.706959 0.770502 -0.048447 1
0.715266 0.680360 0.099061 1
0.655693 0.634756 -0.069412 1
0.728457 0.789547 0.022365 1
0.697559 0.559772 0.060083 1
0.679174 0.736657 -0.074890 1
0.731942 0.735663 0.085797 1
0.667457 0.555473 -0.036406 1
0.694971 0.698096 -0.003262 1
0.697886 0.706593 0.003540 1
0.695023 0.675998 -0.005395 1
0.698712 0.710777 -0.014365 1
0.696675 0.696557 0.015929 1
0.687225 0.683692 -0.020923 1
0.702771 0.724435 0.001655 1
0.691669 0.669645 0.009320 1
0.691224 0.709269 -0.028181 1
0.705785 0.709699 0.021528 1
0.685522 0.660680 -0.016113 1
0.704086 0.729787 -0.014371 1
0.701385 0.672615 0.025156 1
0.683840 0.689558 -0.036257 1
0.710560 0.729125 0.014265 1
0.687241 0.648178 0.002437 1
0.693825 0.727873 -0.031487 1
0.706682 0.698384 0.034732 1
0.678879 0.661810 -0.031676 1
0.709003 0.743048 -0.003716 1
0.697539 0.649422 0.024926 1
0.681964 0.709802 -0.043953 1
0.712563 0.726002 0.030065 1
0.682667 0.633979 -0.013635 1
0.701118 0.743789 -0.026528 1
0.708441 0.672718 0.041609 1
0.673276 0.678159 -0.045288 1
0.714762 0.746832 0.011870 1
0.688194 0.631525 0.015783 1
0.688239 0.728759 -0.046305 1
0.711194 0.713705 0.044629 1
0.675901 0.636209 -0.032926 1
0.710724 0.754163 -0.014760 1
0.702247 0.647514 0.041573 1
0.675644 0.697487 -0.056085 1
0.716836 0.743498 0.030227 1
0.679872 0.617712 -0.002234 1
0.698178 0.746320 -0.041255 1
0.714411 0.684149 0.053712 1
0.668806 0.655476 -0.049980 1
0.717215 0.760180 0.003210 1
0.695125 0.619703 0.031741 1
0.680106 0.723147 -0.058748 1
0.720132 0.726973 0.047217 1
0.677763 0.606871 -0.027935 1
0.708275 0.761065 -0.028414 1
0.707366 0.656318 0.056648 1
0.665525 0.684240 -0.061753 1
0.721890 0.757629 0.023963 1
0.684809 0.600013 0.012748 1
0.692614 0.742885 -0.055995 1
0.717301 0.704464 0.061171 1
0.666976 0.627945 -0.049191 1
0.716566 0.770501 -0.009247 1
0.702649 0.619071 0.049172 1
0.671575 0.710872 -0.068905 1
0.724140 0.745410 0.044808 1
0.676066 0.589835 -0.013912 1
0.704859 0.761355 -0.044247 1
0.713224 0.672006 0.068292 1
0.660091 0.660958 -0.065044 1
0.722654 0.771863 0.013641 1
0.693736 0.587505 0.030947 1
0.683315 0.735934 -0.068618 1
0.723338 0.723414 0.062957 1
0.669891 0.594606 -0.043547 1
0.715313 0.775145 -0.024982 1
0.708274 0.631405 0.065736 1
0.663592 0.692270 -0.076238 1
0.727477 0.762374 0.037331 1
0.682501 0.568857 0.003230 1
0.699228 0.756488 -0.060489 1
0.717351 0.694413 0.075534 1
0.658287 0.630438 -0.064538 1
0.723199 0.781386 -0.000696 1
0.697424 0.595051 0.051820 1
0.670968 0.726112 -0.077818 1
0.728380 0.743284 0.059627 1
0.671233 0.569368 -0.029461 1
0.712364 0.774754 -0.042627 1
0.709950 0.656339 0.079164 1
0.657629 0.666669 -0.080533 1
0.728278 0.778023 0.025802 1
0.685216 0.565982 0.025981 1
0.689425 0.748816 -0.074692 1
0.724811 0.715048 0.077449 1
0.659803 0.595267 -0.058902 1
0.720510 0.788053 -0.017304 1
0.701256 0.612578 0.071097 1
0.659940 0.709548 -0.084920 1
0.732649 0.761900 0.051447 1
0.674784 0.549708 -0.009474 1
0.706968 0.769729 -0.060798 1
0.715388 0.680677 0.087566 1
0.652942 0.636777 -0.080010 1
0.727153 0.790619 0.010906 1
0.695595 0.562827 0.048765 1
0.676593 0.738095 -0.085803 1
0.732407 0.735628 0.074162 1
0.666360 0.555334 -0.047989 1
0.689612 0.703546 -0.026322 1
0.693078 0.711446 -0.019759 1
0.684721 0.687969 -0.026672 1
0.689446 0.720310 -0.035973 1
0.691992 0.701656 -0.007387 1
0.679695 0.691697 -0.042915 1
0.697622 0.729441 -0.021616 1
0.686052 0.676115 -0.013630 1
0.684559 0.715578 -0.050613 1
0.700837 0.715054 -0.001906 1
0.678586 0.668449 -0.038364 1
0.695552 0.738019 -0.036388 1
0.695569 0.679610 0.001969 1
0.674917 0.698903 -0.057419 1
0.705658 0.734058 -0.009253 1
0.680948 0.655755 -0.020192 1
0.688975 0.731822 -0.054795 1
0.700864 0.705166 0.011420 1
0.670388 0.671396 -0.052964 1
0.703175 0.748436 -0.026876 1
0.688010 0.661836 0.002775 1
0.674778 0.716436 -0.065891 1
0.707164 0.731801 0.006598 1
0.675648 0.642454 -0.035824 1
0.697940 0.746007 -0.050673 1
0.697600 0.686223 0.019175 1
0.664498 0.687524 -0.066162 1
0.710160 0.751248 -0.011800 1
0.682631 0.638697 -0.007190 1
0.682178 0.733741 -0.068979 1
0.705650 0.720133 0.021126 1
0.667212 0.646689 -0.054052 1
0.705992 0.758156 -0.038371 1
0.696535 0.655188 0.018182 1
0.664762 0.708843 -0.075758 1
0.711378 0.749122 0.006709 1
0.673658 0.625649 -0.024735 1
0.695279 0.747932 -0.065664 1
0.702175 0.699024 0.031085 1
0.660481 0.664630 -0.070971 1
0.711657 0.765222 -0.020208 1
0.689755 0.627164 0.008446 1
0.673445 0.728635 -0.080957 1
0.714441 0.733353 0.023542 1
0.670279 0.616231 -0.049764 1
0.706714 0.761732 -0.053400 1
0.702337 0.663292 0.032923 1
0.658801 0.690310 -0.083585 1
0.715285 0.764013 0.000660 1
0.679191 0.607720 -0.010173 1
0.687603 0.746396 -0.079394 1
0.711741 0.711346 0.037379 1
0.659468 0.636445 -0.070621 1
0.711385 0.774891 -0.032778 1
0.691416 0.635307 0.026655 1
0.665795 0.715183 -0.091518 1
0.718547 0.751371 0.021080 1
0.670760 0.596411 -0.036713 1
0.703651 0.761349 -0.069637 1
0.709491 0.677400 0.044228 1
0.653929 0.666446 -0.087125 1
0.717681 0.776434 -0.010056 1
0.682724 0.604365 0.009027 1
0.677494 0.740098 -0.091469 1
0.718103 0.729664 0.039015 1
0.663117 0.602638 -0.065503 1
0.713382 0.776343 -0.049871 1
0.696500 0.648165 0.042716 1
0.654972 0.700458 -0.096825 1
0.721957 0.767907 0.013587 1
0.677846 0.575154 -0.020003 1
0.695452 0.758623 -0.084751 1
0.713443 0.699902 0.051420 1
0.650744 0.638593 -0.085698 1
0.718418 0.785485 -0.024473 1
0.690722 0.605534 0.028510 1
0.664435 0.731001 -0.100004 1
0.723078 0.749237 0.035652 1
0.665777 0.575993 -0.052134 1
0.711813 0.774377 -0.068405 1
0.707122 0.661051 0.054999 1
0.650846 0.672568 -0.102250 1
0.722455 0.783444 0.002187 1
0.680904 0.572499 0.002558 1
0.682438 0.754001 -0.097028 1
0.721241 0.719963 0.053184 1
0.652531 0.603773 -0.080296 1
0.720147 0.788155 -0.042752 1
0.696516 0.620309 0.047247 1
0.652634 0.715488 -0.106342 1
0.727978 0.766903 0.027368 1
0.669835 0.556401 -0.032449 1
0.704341 0.770837 -0.085824 1
0.713253 0.684531 0.063279 1
0.644109 0.646512 -0.100132 1
0.723787 0.793686 -0.013320 1
0.689595 0.572830 0.025328 1
0.668751 0.744177 -0.107313 1
0.724621 0.744298 0.050194 1
0.661101 0.561140 -0.070747 1
0.686396 0.705480 -0.035464 1
0.690497 0.712656 -0.029155 1
0.681238 0.690330 -0.035674 1
0.686780 0.721446 -0.045322 1
0.689752 0.702607 -0.016873 1
0.675339 0.695015 -0.051458 1
0.695173 0.730442 -0.031090 1
0.682862 0.678292 -0.022778 1
0.680817 0.717861 -0.059458 1
0.699061 0.715506 -0.011588 1
0.674648 0.671441 -0.047109 1
0.696131 0.735633 -0.047082 1
0.692943 0.681181 -0.007455 1
0.671381 0.700992 -0.066268 1
0.703316 0.735040 -0.018814 1
0.678100 0.657497 -0.029422 1
0.685859 0.733259 -0.063970 1
0.698794 0.706092 0.001832 1
0.665928 0.674992 -0.061325 1
0.701230 0.748847 -0.036579 1
0.685400 0.663477 -0.006594 1
0.671803 0.717668 -0.075031 1
0.705200 0.732528 -0.003058 1
0.671596 0.645848 -0.044515 1
0.696212 0.745981 -0.060538 1
0.695172 0.687704 0.009683 1
0.660797 0.689845 -0.074816 1
0.707236 0.752746 -0.021216 1
0.679784 0.640653 -0.016454 1
0.679366 0.734708 -0.078277 1
0.703668 0.721025 0.011497 1
0.663453 0.649452 -0.062743 1
0.704992 0.757560 -0.048511 1
0.693720 0.657273 0.008755 1
0.661863 0.709904 -0.084881 1
0.709645 0.749606 -0.003026 1
0.670410 0.628087 -0.033764 1
0.692768 0.748586 -0.075217 1
0.699595 0.700751 0.021577 1
0.657220 0.666380 -0.079857 1
0.708983 0.766374 -0.029709 1
0.686922 0.629313 -0.000920 1
0.670406 0.729766 -0.090091 1
0.712434 0.734266 0.013848 1
0.667016 0.618411 -0.058762 1
0.705897 0.760858 -0.063745 1
0.699495 0.665513 0.023417 1
0.655583 0.691763 -0.092498 1
0.713097 0.764871 -0.008994 1
0.676483 0.609556 -0.019476 1
0.684428 0.747635 -0.088577 1
0.709477 0.712707 0.027730 1
0.655616 0.639247 -0.079175 1
0.710823 0.774023 -0.043066 1
0.688723 0.637437 0.017219 1
0.661825 0.717422 -0.100031 1
0.716409 0.752358 0.011389 1
0.667652 0.598606 -0.045795 1
0.701814 0.761314 -0.079610 1
0.707156 0.679021 0.034567 1
0.649709 0.669457 -0.095359 1
0.715097 0.777546 -0.019624 1
0.679930 0.606599 -0.000300 1
0.673616 0.742052 -0.100161 1
0.715814 0.730999 0.029325 1
0.659220 0.605763 -0.074105 1
0.713775 0.774515 -0.060728 1
0.700257 0.641634 0.032307 1
0.650090 0.704035 -0.104592 1
0.719348 0.769228 0.003978 1
0.675508 0.576335 -0.029465 1
0.691943 0.760113 -0.093836 1
0.710965 0.701666 0.041745 1
0.646323 0.642171 -0.093779 1
0.717297 0.785234 -0.034549 1
0.688418 0.607229 0.018973 1
0.659825 0.733861 -0.108067 1
0.721368 0.749934 0.025850 1
0.662663 0.578073 -0.061194 1
0.710657 0.773780 -0.078754 1
0.704764 0.662882 0.045323 1
0.643644 0.679876 -0.108288 1
0.720626 0.783981 -0.007604 1
0.678724 0.573747 -0.006949 1
0.677751 0.756684 -0.105270 1
0.719256 0.721126 0.043402 1
0.647915 0.608027 -0.088312 1
0.720193 0.786813 -0.053418 1
0.693419 0.623323 0.037741 1
0.647147 0.719660 -0.113605 1
0.725400 0.768287 0.017679 1
0.667332 0.557738 -0.041811 1
0.701142 0.771971 -0.095168 1
0.711486 0.685639 0.053507 1
0.638794 0.651377 -0.107452 1
0.721579 0.794427 -0.023047 1
0.687233 0.574687 0.015783 1
0.663487 0.747596 -0.114969 1
0.722853 0.745170 0.040386 1
0.658629 0.561796 -0.080184 1
0.677947 0.710806 -0.054749 1
0.682968 0.716869 -0.048880 1
0.675528 0.692388 -0.056021 1
0.680905 0.723423 -0.065622 1
0.682753 0.706500 -0.036842 1
0.667152 0.699987 -0.070589 1
0.688745 0.733203 -0.051249 1
0.679550 0.677471 -0.044027 1
0.673330 0.721544 -0.078952 1
0.692551 0.718742 -0.031860 1
0.665903 0.677543 -0.066078 1
0.688740 0.739150 -0.066867 1
0.685268 0.686254 -0.027407 1
0.665204 0.703057 -0.086335 1
0.697088 0.737707 -0.039176 1
0.669021 0.664572 -0.048504 1
0.678915 0.736100 -0.083789 1
0.692559 0.709303 -0.018573 1
0.659612 0.677452 -0.081287 1
0.696908 0.749260 -0.057604 1
0.681579 0.663635 -0.027633 1
0.665900 0.719188 -0.095257 1
0.699083 0.735320 -0.023503 1
0.663452 0.651503 -0.063805 1
0.690008 0.747981 -0.080855 1
0.692792 0.686451 -0.011673 1
0.655350 0.690778 -0.095217 1
0.702413 0.753886 -0.042045 1
0.672338 0.645846 -0.036324 1
0.672623 0.737109 -0.098135 1
0.697873 0.723773 -0.009066 1
0.656356 0.653174 -0.082356 1
0.700604 0.757897 -0.069654 1
0.686537 0.662269 -0.011542 1
0.657519 0.709202 -0.106020 1
0.703631 0.752173 -0.023514 1
0.661159 0.635951 -0.052678 1
0.685447 0.751537 -0.094967 1
0.699517 0.697104 -0.000148 1
0.648369 0.672282 -0.098268 1
0.705367 0.766264 -0.050990 1
0.680115 0.633930 -0.021249 1
0.660652 0.735627 -0.108006 1
0.706812 0.736746 -0.006871 1
0.659168 0.623613 -0.078187 1
0.700302 0.762161 -0.084493 1
0.693141 0.669562 0.002777 1
0.645027 0.699525 -0.109627 1
0.708524 0.765926 -0.029896 1
0.668188 0.616396 -0.039091 1
0.674854 0.752868 -0.106897 1
0.703207 0.716249 0.007059 1
0.646401 0.646109 -0.097437 1
0.708866 0.772277 -0.065146 1
0.687434 0.634469 -0.004413 1
0.650779 0.725076 -0.116870 1
0.710946 0.754541 -0.009362 1
0.659251 0.605262 -0.065072 1
0.693647 0.764910 -0.099074 1
0.699889 0.684192 0.013912 1
0.637333 0.680491 -0.111132 1
0.710398 0.778576 -0.040524 1
0.678189 0.603512 -0.022042 1
0.662690 0.748862 -0.117330 1
0.710260 0.733634 0.008481 1
0.650213 0.612775 -0.092740 1
0.709666 0.774512 -0.082206 1
0.694073 0.645829 0.011473 1
0.640407 0.710238 -0.122080 1
0.713765 0.771341 -0.016729 1
0.667042 0.583656 -0.049073 1
0.679808 0.767610 -0.110778 1
0.703620 0.706728 0.021055 1
0.634361 0.653380 -0.109854 1
0.715884 0.783286 -0.056736 1
0.681841 0.612143 -0.001627 1
0.648394 0.741585 -0.124454 1
0.715438 0.752740 0.005055 1
0.655351 0.582693 -0.080977 1
0.703170 0.776606 -0.098708 1
0.697931 0.667929 0.024491 1
0.631934 0.689558 -0.124154 1
0.714775 0.786123 -0.028206 1
0.671695 0.579189 -0.027257 1
0.665684 0.764316 -0.121721 1
0.712632 0.725122 0.022528 1
0.637278 0.617772 -0.105533 1
0.716342 0.786747 -0.074974 1
0.687252 0.627848 0.016929 1
0.634938 0.728932 -0.129001 1
0.719247 0.771050 -0.003048 1
0.659418 0.564124 -0.061491 1
0.687335 0.780607 -0.111359 1
0.704293 0.690913 0.032600 1
0.628197 0.660019 -0.124132 1
0.718625 0.793995 -0.044574 1
0.681149 0.579024 -0.005029 1
0.650797 0.756320 -0.130456 1
0.719566 0.745663 0.019140 1
0.651104 0.566416 -0.099888 1
0.670685 0.716784 -0.063691 1
0.675444 0.723016 -0.057842 1
0.668915 0.697836 -0.065251 1
0.675361 0.727086 -0.075216 1
0.675737 0.712288 -0.046169 1
0.663186 0.701910 -0.080832 1
0.682927 0.737101 -0.060876 1
0.671720 0.684750 -0.053023 1
0.670006 0.722541 -0.089519 1
0.685666 0.724076 -0.041379 1
0.660702 0.681296 -0.075798 1
0.683331 0.742450 -0.076560 1
0.678497 0.692047 -0.037027 1
0.662289 0.703478 -0.097147 1
0.689796 0.743102 -0.048474 1
0.662539 0.670374 -0.057863 1
0.676145 0.736426 -0.094660 1
0.685823 0.714685 -0.028319 1
0.656623 0.677985 -0.092074 1
0.690904 0.753070 -0.067166 1
0.674855 0.669738 -0.037296 1
0.661421 0.721501 -0.105164 1
0.692175 0.740408 -0.033137 1
0.658205 0.655573 -0.073573 1
0.686575 0.749048 -0.091441 1
0.685870 0.692417 -0.021534 1
0.649664 0.694962 -0.104375 1
0.696520 0.757571 -0.051807 1
0.664968 0.653243 -0.045595 1
0.667311 0.740251 -0.107577 1
0.694704 0.725028 -0.019799 1
0.650923 0.657414 -0.091857 1
0.695545 0.760596 -0.079569 1
0.680280 0.667807 -0.021581 1
0.650222 0.715230 -0.114078 1
0.697122 0.756574 -0.033261 1
0.655646 0.640709 -0.062406 1
0.681381 0.753186 -0.105206 1
0.692942 0.702477 -0.010273 1
0.641718 0.678146 -0.106770 1
0.700214 0.769062 -0.060958 1
0.673608 0.640204 -0.031133 1
0.654960 0.739270 -0.117033 1
0.700463 0.741224 -0.016921 1
0.652058 0.630823 -0.086957 1
0.695570 0.764438 -0.094513 1
0.687017 0.674849 -0.007495 1
0.638898 0.704264 -0.118249 1
0.702628 0.769500 -0.039777 1
0.661207 0.623717 -0.048512 1
0.669685 0.755671 -0.116383 1
0.697191 0.720747 -0.003231 1
0.637882 0.655375 -0.104824 1
0.704482 0.774241 -0.075397 1
0.681541 0.639874 -0.014720 1
0.643886 0.730397 -0.124929 1
0.704330 0.759000 -0.019311 1
0.653374 0.610797 -0.074641 1
0.687895 0.768129 -0.108450 1
0.693720 0.689339 0.003502 1
0.630298 0.686934 -0.119045 1
0.706729 0.779988 -0.051042 1
0.671967 0.609759 -0.032085 1
0.656263 0.753155 -0.125824 1
0.704560 0.737532 -0.001898 1
0.642603 0.621053 -0.100949 1
0.704892 0.776731 -0.092273 1
0.687983 0.651411 0.001009 1
0.633425 0.716020 -0.129898 1
0.707651 0.775069 -0.026703 1
0.661066 0.589628 -0.058894 1
0.674497 0.770412 -0.120185 1
0.697193 0.711888 0.010639 1
0.626875 0.661045 -0.117496 1
0.711482 0.785225 -0.067026 1
0.675703 0.618301 -0.011916 1
0.641181 0.747073 -0.132124 1
0.710206 0.755926 -0.005371 1
0.649359 0.588533 -0.090415 1
0.697281 0.779785 -0.108099 1
0.692692 0.672205 0.013802 1
0.624677 0.696202 -0.131650 1
0.711187 0.787486 -0.038769 1
0.665467 0.585813 -0.037249 1
0.659081 0.768571 -0.130067 1
0.706493 0.729620 0.012020 1
0.631066 0.623691 -0.114287 1
0.711718 0.788779 -0.085146 1
0.689068 0.622318 0.005122 1
0.629375 0.732578 -0.137714 1
0.713932 0.774082 -0.013378 1
0.654068 0.569144 -0.071480 1
0.681616 0.783658 -0.120575 1
0.697293 0.697027 0.022038 1
0.619857 0.669026 -0.130800 1
0.715835 0.794609 -0.055414 1
0.675658 0.584486 -0.015547 1
0.644958 0.759907 -0.139101 1
0.714066 0.749203 0.008575 1
0.644919 0.572610 -0.109103 1
0.668853 0.716800 -0.079516 1
0.672449 0.724517 -0.073145 1
0.663964 0.701782 -0.079788 1
0.671708 0.729196 -0.090308 1
0.670779 0.716286 -0.060743 1
0.660212 0.703110 -0.096283 1
0.679505 0.739063 -0.076038 1
0.663543 0.693186 -0.066393 1
0.665162 0.725951 -0.104025 1
0.680646 0.728037 -0.056024 1
0.658850 0.680968 -0.091847 1
0.681953 0.742069 -0.092733 1
0.672716 0.697322 -0.051498 1
0.653295 0.712360 -0.109285 1
0.686200 0.745339 -0.063575 1
0.661325 0.669332 -0.074060 1
0.669816 0.741375 -0.108401 1
0.681908 0.717549 -0.043382 1
0.647517 0.687759 -0.104209 1
0.690165 0.752238 -0.083504 1
0.670210 0.673749 -0.052217 1
0.650976 0.731766 -0.116220 1
0.688706 0.742634 -0.048284 1
0.653398 0.659576 -0.088248 1
0.679957 0.754116 -0.105155 1
0.682628 0.694621 -0.036907 1
0.640095 0.705060 -0.115806 1
0.695375 0.757335 -0.067818 1
0.662397 0.654290 -0.061243 1
0.656835 0.749905 -0.118636 1
0.687828 0.731139 -0.034152 1
0.640901 0.669213 -0.103435 1
0.693084 0.761472 -0.095308 1
0.677367 0.669645 -0.037112 1
0.640996 0.724285 -0.125518 1
0.696040 0.756401 -0.049105 1
0.653466 0.640864 -0.078317 1
0.671152 0.761954 -0.116737 1
0.690632 0.703657 -0.025882 1
0.631951 0.689155 -0.117912 1
0.700923 0.767125 -0.077770 1
0.669693 0.643448 -0.046445 1
0.644662 0.748978 -0.127727 1
0.696859 0.743701 -0.032113 1
0.642405 0.642735 -0.098993 1
0.688238 0.769943 -0.107934 1
0.684977 0.675700 -0.023238 1
0.628997 0.714772 -0.128918 1
0.702701 0.768320 -0.056043 1
0.659132 0.623912 -0.064496 1
0.658572 0.765516 -0.126893 1
0.694481 0.722434 -0.018681 1
0.628712 0.666150 -0.116398 1
0.702263 0.775000 -0.091226 1
0.674204 0.648194 -0.029271 1
0.636298 0.737050 -0.137187 1
0.701528 0.760625 -0.034658 1
0.646059 0.619383 -0.088207 1
0.677229 0.776840 -0.119771 1
0.691477 0.690574 -0.012158 1
0.621316 0.696741 -0.130212 1
0.707244 0.778493 -0.067605 1
0.668684 0.612158 -0.047751 1
0.646719 0.761546 -0.136879 1
0.700485 0.740605 -0.017075 1
0.634030 0.631484 -0.113252 1
0.697779 0.781813 -0.105914 1
0.685724 0.652655 -0.014801 1
0.626017 0.722756 -0.142110 1
0.705922 0.775682 -0.042320 1
0.657830 0.591596 -0.074651 1
0.663187 0.779932 -0.130566 1
0.695224 0.712872 -0.004959 1
0.617824 0.671677 -0.128664 1
0.710486 0.785051 -0.083276 1
0.672729 0.620471 -0.027628 1
0.635139 0.751525 -0.145381 1
0.704976 0.759951 -0.020277 1
0.640864 0.599454 -0.103216 1
0.685111 0.789423 -0.118778 1
0.690198 0.673877 -0.001878 1
0.618420 0.701591 -0.144683 1
0.711409 0.786433 -0.055049 1
0.662385 0.587875 -0.053048 1
0.650612 0.775382 -0.141825 1
0.702847 0.732390 -0.003331 1
0.623082 0.633159 -0.126565 1
0.706480 0.792124 -0.099718 1
0.677907 0.636587 -0.009205 1
0.624357 0.735789 -0.151682 1
0.709160 0.777478 -0.028298 1
0.649432 0.573515 -0.086639 1
0.670392 0.792590 -0.131132 1
0.695100 0.698377 0.006414 1
0.611269 0.678725 -0.141956 1
0.714587 0.794791 -0.071425 1
0.672487 0.587031 -0.031404 1
0.639698 0.763244 -0.152987 1
0.709737 0.752489 -0.006650 1
0.636708 0.583137 -0.121866 1
0.668433 0.716202 -0.084995 1
0.672079 0.723911 -0.078618 1
0.666981 0.696672 -0.086819 1
0.673535 0.726001 -0.096897 1
0.668983 0.717411 -0.065634 1
0.657674 0.705161 -0.100743 1
0.679720 0.737876 -0.081765 1
0.669242 0.684416 -0.074291 1
0.660816 0.730029 -0.107507 1
0.678625 0.729384 -0.060867 1
0.655502 0.684274 -0.095921 1
0.681282 0.741832 -0.098152 1
0.670626 0.698882 -0.056318 1
0.649820 0.715595 -0.113126 1
0.685278 0.745446 -0.068814 1
0.661522 0.667709 -0.079805 1
0.664943 0.745818 -0.111587 1
0.679278 0.719660 -0.048077 1
0.642630 0.693288 -0.107251 1
0.689373 0.752186 -0.088847 1
0.670059 0.672751 -0.057710 1
0.645256 0.737644 -0.118625 1
0.687350 0.743232 -0.053366 1
0.648867 0.664893 -0.091732 1
0.675830 0.757496 -0.108840 1
0.681241 0.695324 -0.041994 1
0.635260 0.710382 -0.118652 1
0.694950 0.756967 -0.073261 1
0.662840 0.652280 -0.067012 1
0.652433 0.753853 -0.121864 1
0.690277 0.727604 -0.040244 1
0.635951 0.675232 -0.106392 1
0.690838 0.762842 -0.100019 1
0.676249 0.670015 -0.042277 1
0.637424 0.727630 -0.129094 1
0.696010 0.755677 -0.054604 1
0.649825 0.645048 -0.082332 1
0.665614 0.766807 -0.119457 1
0.689307 0.704300 -0.031000 1
0.628023 0.693481 -0.121249 1
0.700869 0.766431 -0.083399 1
0.668776 0.643493 -0.051684 1
0.641390 0.751704 -0.131505 1
0.696034 0.743784 -0.037346 1
0.638537 0.647352 -0.102645 1
0.683251 0.773928 -0.111212 1
0.684193 0.675680 -0.028485 1
0.627230 0.715753 -0.133664 1
0.702750 0.767580 -0.061601 1
0.658348 0.623651 -0.069813 1
0.654160 0.769262 -0.130044 1
0.693213 0.723013 -0.023808 1
0.624973 0.670471 -0.119856 1
0.700962 0.775453 -0.096381 1
0.677521 0.642236 -0.035592 1
0.634533 0.737956 -0.141954 1
0.701321 0.760134 -0.040053 1
0.641463 0.625455 -0.091620 1
0.671924 0.781157 -0.122640 1
0.691018 0.690211 -0.017453 1
0.619104 0.698453 -0.134610 1
0.708060 0.777112 -0.073491 1
0.667188 0.613098 -0.052820 1
0.644634 0.762774 -0.141445 1
0.698489 0.741918 -0.022059 1
0.630282 0.636094 -0.116797 1
0.693187 0.785205 -0.109477 1
0.685511 0.651863 -0.020167 1
0.624615 0.723173 -0.147133 1
0.706841 0.774225 -0.048052 1
0.655413 0.594070 -0.079294 1
0.658888 0.783345 -0.133791 1
0.694323 0.713074 -0.010155 1
0.614382 0.675571 -0.132142 1
0.709966 0.784852 -0.088746 1
0.670613 0.622413 -0.032551 1
0.633463 0.752280 -0.150210 1
0.703514 0.760685 -0.025366 1
0.636689 0.605081 -0.106668 1
0.680898 0.792482 -0.122327 1
0.689470 0.673850 -0.007113 1
0.616614 0.702622 -0.149378 1
0.711516 0.785748 -0.060620 1
0.660400 0.589679 -0.057938 1
0.647441 0.777733 -0.145631 1
0.701058 0.733533 -0.008392 1
0.619414 0.637739 -0.129963 1
0.703124 0.794300 -0.103953 1
0.683622 0.627117 -0.015669 1
0.622132 0.737300 -0.156042 1
0.708946 0.777075 -0.033671 1
0.645188 0.579463 -0.090304 1
0.665907 0.795981 -0.134294 1
0.694276 0.698510 0.001209 1
0.609692 0.679436 -0.146823 1
0.713075 0.795447 -0.076502 1
0.670419 0.589009 -0.036353 1
0.637897 0.764113 -0.157737 1
0.707816 0.753693 -0.011690 1
0.633110 0.587861 -0.125497 1
0.668167 0.710004 -0.095871 1
0.670713 0.719272 -0.088929 1
0.661047 0.697497 -0.095111 1
0.666474 0.727891 -0.104711 1
0.668860 0.711287 -0.076233 1
0.651582 0.706090 -0.108835 1
0.677254 0.734664 -0.091692 1
0.664146 0.684286 -0.082973 1
0.653671 0.732043 -0.115060 1
0.674186 0.728571 -0.069901 1
0.648610 0.686478 -0.103580 1
0.674539 0.743157 -0.106215 1
0.665555 0.698919 -0.065034 1
0.640688 0.720430 -0.119328 1
0.682545 0.742734 -0.078564 1
0.659190 0.663588 -0.089631 1
0.655774 0.749926 -0.118064 1
0.672838 0.721319 -0.056473 1
0.636874 0.693845 -0.115353 1
0.685430 0.750576 -0.098264 1
0.664814 0.673029 -0.066338 1
0.638703 0.738953 -0.126275 1
0.682908 0.742482 -0.062473 1
0.644301 0.663849 -0.100502 1
0.667774 0.760068 -0.116118 1
0.674395 0.697673 -0.050308 1
0.630089 0.709997 -0.127057 1
0.693396 0.753142 -0.083556 1
0.661473 0.646752 -0.077082 1
0.645560 0.755333 -0.129403 1
0.683875 0.729130 -0.048817 1
0.632212 0.672762 -0.115612 1
0.685193 0.762841 -0.108711 1
0.670967 0.670493 -0.050970 1
0.629673 0.730562 -0.135801 1
0.694059 0.752417 -0.064578 1
0.647738 0.640152 -0.092236 1
0.657590 0.769299 -0.126518 1
0.683543 0.705316 -0.039753 1
0.624055 0.691250 -0.130400 1
0.698398 0.763511 -0.093479 1
0.664233 0.642843 -0.060516 1
0.637628 0.749427 -0.140969 1
0.691514 0.743241 -0.046497 1
0.631209 0.650673 -0.109789 1
0.674817 0.776569 -0.118388 1
0.683182 0.670705 -0.038306 1
