ply
format ascii 1.0
element vertex 1619
property float x
property float y
property float z
property uchar label
end_header
0.535754 0.465567 0.721795 0
-0.037153 0.850917 1.557230 0
-0.152652 0.043810 0.744075 0
0.859539 0.465265 1.472711 0
-0.436080 0.614028 1.273450 0
0.381086 0.132382 0.661226 0
-0.452023 0.078802 0.990696 0
0.722946 0.457882 0.932519 0
-0.237433 0.847191 1.422679 0
0.044123 0.053873 0.630213 0
-0.541546 0.403628 1.195432 0
0.466279 0.459974 0.591842 0
0.094109 0.899488 1.656398 0
-0.305003 0.037856 0.779583 0
0.886618 0.472404 1.247144 0
-0.401686 0.766296 1.301556 0
0.268840 0.063305 0.594320 0
-0.598013 0.084813 1.131641 0
0.659405 0.468249 0.748371 0
-0.144177 0.940882 1.483536 0
-0.105776 0.039850 0.620811 0
-0.532417 0.601175 1.202700 0
0.412489 0.352846 0.527990 0
0.271110 0.910249 1.777702 0
-0.460648 0.046849 0.857030 0
0.861122 0.472613 1.020526 0
-0.336687 0.896558 1.340477 0
0.121997 0.059163 0.535678 0
-0.633035 0.319761 1.137863 0
0.576254 0.462685 0.598737 0
-0.017957 0.998806 1.580565 0
-0.265231 0.037282 0.648559 0
-0.494900 0.767555 1.231615 0
0.370595 0.079158 0.533098 0
0.098533 0.462091 1.097705 0
0.045942 0.469124 1.168767 0
0.101076 0.408335 1.000107 0
0.202088 0.458658 1.256320 0
-0.055208 0.321628 1.201416 0
0.222292 0.477167 0.954466 0
0.067369 0.484786 1.360740 0
0.007701 0.046124 1.195421 0
0.320917 0.479880 1.177995 0
-0.119552 0.393042 1.315296 0
0.179485 0.384409 0.876611 0
0.225174 0.472324 1.484451 0
-0.161988 0.036833 1.288378 0
0.357471 0.459974 1.004071 0
-0.060576 0.441438 1.521090 0
0.063038 0.055585 1.017605 0
0.403930 0.458893 1.408433 0
-0.258522 0.201122 1.394297 0
0.279568 0.453636 0.808782 0
0.131338 0.480528 1.667247 0
-0.146982 0.050424 1.078380 0
0.473899 0.460066 1.148952 0
-0.207524 0.479736 1.421690 0
0.189304 0.062439 0.919628 0
0.395353 0.457421 1.675645 0
-0.330127 0.063269 1.303926 0
0.404726 0.469602 0.862887 0
-0.041338 0.598460 1.562863 0
-0.055138 0.052656 0.913197 0
0.549361 0.473534 1.373580 0
-0.334487 0.405283 1.344422 0
0.279147 0.358639 0.733898 0
0.247617 0.567128 1.742041 0
-0.296074 0.051461 1.078372 0
0.539483 0.465535 1.019061 0
-0.206404 0.638527 1.437222 0
0.089634 0.064078 0.802709 0
-0.426556 0.236836 1.274660 0
0.394620 0.464983 0.730045 0
0.038995 0.700865 1.624860 0
-0.192007 0.038099 0.889505 0
0.653399 0.468078 1.267778 0
-0.350129 0.581528 1.337990 0
0.271581 0.068512 0.768016 0
-0.442791 0.056606 1.151353 0
0.546195 0.469541 0.865015 0
-0.155284 0.765037 1.471635 0
-0.034819 0.043417 0.749482 0
-0.461041 0.445616 1.243228 0
0.360153 0.414463 0.635205 0
0.166769 0.757054 1.705272 0
-0.335649 0.053749 0.908048 0
0.696988 0.467463 1.102988 0
-0.323176 0.730047 1.358945 0
0.156721 0.061429 0.675189 0
-0.538538 0.192678 1.184720 0
0.510144 0.468587 0.716654 0
-0.065500 0.851324 1.538249 0
-0.176417 0.045315 0.732656 0
0.816750 0.467220 1.458445 0
-0.458753 0.621206 1.250653 0
0.366251 0.100155 0.670664 0
0.343824 0.758876 1.818591 0
-0.479902 0.075807 0.978519 0
0.681940 0.474543 0.914832 0
-0.261693 0.851203 1.399704 0
0.021947 0.045647 0.625171 0
-0.564202 0.413312 1.171666 0
0.447987 0.453064 0.592641 0
0.062879 0.902140 1.628351 0
-0.327869 0.046412 0.763099 0
0.852653 0.467557 1.244668 0
-0.425904 0.767195 1.286634 0
0.247517 0.055825 0.591378 0
-0.624827 0.090637 1.111688 0
0.632117 0.470348 0.744509 0
-0.169718 0.941902 1.463640 0
-0.128065 0.039996 0.610876 0
-0.558042 0.600621 1.189978 0
0.399450 0.331937 0.533587 0
0.234799 0.912507 1.745587 0
-0.487874 0.041300 0.846066 0
0.834192 0.464258 1.023593 0
-0.362273 0.892665 1.333792 0
0.100788 0.057328 0.529203 0
-0.658457 0.323713 1.119560 0
0.547778 0.473558 0.591358 0
-0.045589 1.001046 1.552955 0
-0.287735 0.038551 0.636429 0
-0.517715 0.769650 1.215525 0
0.349479 0.074692 0.530309 0
0.084020 0.447010 1.081685 0
0.031555 0.445543 1.160439 0
0.094132 0.331222 1.035234 0
0.182785 0.458517 1.221808 0
-0.075736 0.067824 1.401332 0
0.209096 0.461993 0.940547 0
0.048789 0.493522 1.312211 0
-0.010190 0.039130 1.166724 0
0.304299 0.467389 1.158493 0
-0.143458 0.274569 1.405625 0
0.179461 0.296060 0.913174 0
0.200045 0.486415 1.423890 0
-0.178230 0.045223 1.245414 0
0.335551 0.467473 0.970074 0
-0.077666 0.436247 1.484840 0
0.045393 0.061755 0.983318 0
0.375154 0.469195 1.356272 0
-0.275227 0.192344 1.364547 0
0.269631 0.431543 0.800630 0
0.112231 0.463346 1.643193 0
-0.162348 0.056300 1.042390 0
0.450210 0.461410 1.116246 0
-0.224402 0.460037 1.406472 0
0.172850 0.054132 0.896172 0
0.367874 0.456760 1.626881 0
-0.346959 0.055252 1.273833 0
0.383770 0.476066 0.834023 0
-0.057985 0.593420 1.523875 0
-0.070570 0.058516 0.880861 0
0.525553 0.466195 1.343665 0
-0.349500 0.395081 1.318613 0
0.300388 0.214940 0.793219 0
0.228360 0.546070 1.722334 0
-0.308193 0.066013 1.036156 0
0.515716 0.467754 0.989426 0
-0.220749 0.627954 1.410772 0
0.073366 0.069901 0.773019 0
-0.442431 0.226342 1.248737 0
0.377311 0.466570 0.707720 0
0.021296 0.692633 1.587245 0
-0.206720 0.036145 0.861343 0
0.633941 0.453332 1.248905 0
-0.364254 0.569690 1.315659 0
0.252487 0.078711 0.737552 0
-0.459017 0.047854 1.123690 0
0.528237 0.464303 0.845103 0
-0.169755 0.750999 1.449885 0
-0.049431 0.058269 0.715929 0
-0.478243 0.427402 1.228086 0
0.362928 0.361184 0.642426 0
0.150089 0.732536 1.695123 0
-0.350740 0.046453 0.882349 0
0.668252 0.470231 1.070462 0
-0.335800 0.719681 1.334800 0
0.141199 0.063237 0.649579 0
-0.553982 0.183528 1.158279 0
0.486449 0.479937 0.688986 0
-0.080579 0.831836 1.525006 0
-0.190364 0.042604 0.706812 0
0.774026 0.476986 1.404130 0
-0.479622 0.592914 1.251263 0
0.350441 0.096384 0.648726 0
0.323570 0.738361 1.795663 0
-0.494148 0.071505 0.950096 0
0.655770 0.478199 0.887187 0
-0.276052 0.833386 1.387841 0
0.007942 0.043086 0.601117 0
-0.581499 0.396583 1.155114 0
0.431557 0.454668 0.573030 0
0.047097 0.882529 1.612110 0
-0.341385 0.044370 0.736062 0
0.811421 0.478360 1.198728 0
-0.436845 0.758693 1.261973 0
0.229648 0.069968 0.562727 0
-0.645818 0.069094 1.093605 0
0.608977 0.474920 0.720661 0
-0.183027 0.926809 1.444653 0
-0.141370 0.039295 0.585530 0
-0.569018 0.594193 1.164467 0
0.437265 0.180999 0.574398 0
0.218012 0.889262 1.732660 0
-0.502869 0.033975 0.820241 0
0.799194 0.472601 0.988810 0
-0.372945 0.882857 1.309614 0
0.086990 0.057804 0.505483 0
-0.678558 0.303397 1.104853 0
0.530946 0.473266 0.573239 0
-0.059892 0.980530 1.543223 0
-0.300389 0.039261 0.609586 0
0.963155 0.477237 1.394078 0
-0.528652 0.760631 1.193715 0
0.336112 0.066898 0.510638 0
0.087185 0.457297 1.053556 0
0.037800 0.426096 1.159963 0
0.098650 0.333134 1.015505 0
0.182081 0.479236 1.179212 0
-0.068597 0.078248 1.367936 0
0.212811 0.461595 0.924406 0
0.054271 0.483778 1.301206 0
-0.003811 0.038922 1.145990 0
0.302534 0.481692 1.124623 0
-0.138744 0.241285 1.416492 0
0.169986 0.373034 0.843387 0
0.204713 0.480230 1.407496 0
-0.168838 0.068154 1.205307 0
0.335407 0.476274 0.945956 0
-0.070884 0.465519 1.421765 0
0.050163 0.078679 0.953960 0
0.371973 0.482656 1.317685 0
-0.275293 0.140427 1.390706 0
0.272269 0.434969 0.783365 0
0.119273 0.443641 1.642554 0
-0.155774 0.049894 1.027098 0
0.449475 0.467679 1.091661 0
-0.223219 0.418953 1.432054 0
0.174914 0.076170 0.865774 0
0.363732 0.472226 1.577079 0
-0.337963 0.056326 1.250413 0
0.384727 0.481048 0.815384 0
-0.052582 0.569768 1.531672 0
-0.064262 0.058163 0.863195 0
0.517418 0.483793 1.300950 0
-0.345664 0.376058 1.316092 0
0.314829 0.176013 0.798921 0
-0.299267 0.072220 1.012511 0
0.510283 0.482442 0.960049 0
-0.216647 0.609922 1.410823 0
0.078663 0.073576 0.754366 0
0.526416 0.483115 1.598138 0
-0.446448 0.179954 1.268349 0
0.381462 0.464213 0.695329 0
0.027226 0.672248 1.592310 0
-0.197622 0.057338 0.832096 0
0.613937 0.487397 1.191868 0
-0.362968 0.545472 1.322588 0
0.258038 0.076138 0.722268 0
-0.445007 0.066087 1.089975 0
0.520622 0.483664 0.815879 0
-0.167014 0.723782 1.467965 0
-0.043394 0.052996 0.701783 0
0.671141 0.483372 1.526796 0
-0.481512 0.392551 1.242414 0
0.362647 0.373184 0.622421 0
0.154829 0.721995 1.681766 0
-0.341104 0.056085 0.858950 0
0.662681 0.480609 1.043213 0
-0.332228 0.704364 1.332473 0
0.144943 0.076017 0.628347 0
-0.563286 0.129802 1.180657 0
0.492126 0.474415 0.678775 0
-0.075697 0.821790 1.513070 0
-0.183455 0.046115 0.688705 0
0.775066 0.474452 1.384797 0
-0.476028 0.578270 1.246463 0
0.357154 0.089408 0.635840 0
0.330907 0.720818 1.795820 0
-0.486865 0.066304 0.934569 0
0.653666 0.484426 0.867038 0
-0.270430 0.825104 1.374308 0
0.013258 0.054668 0.580962 0
-0.576339 0.385055 1.145325 0
0.437930 0.447915 0.563452 0
0.052127 0.868147 1.608918 0
-0.335012 0.039338 0.721574 0
0.812932 0.476392 1.181770 0
-0.434809 0.742005 1.262519 0
0.235455 0.066597 0.548422 0
-0.635777 0.068019 1.073901 0
0.609178 0.479016 0.704337 0
-0.179206 0.911989 1.444345 0
-0.135143 0.039593 0.569642 0
-0.574618 0.563289 1.178697 0
0.446873 0.166403 0.565299 0
0.223816 0.873943 1.730801 0
-0.491051 0.045532 0.796746 0
0.787871 0.488727 0.958525 0
-0.369872 0.868757 1.307862 0
0.092517 0.057269 0.490385 0
-0.668734 0.301187 1.086597 0
0.531472 0.478443 0.557982 0
-0.055468 0.969826 1.532801 0
-0.293044 0.042463 0.592472 0
-0.526463 0.745749 1.191783 0
0.341009 0.067551 0.495144 0
0.111836 0.456987 1.055887 0
0.060385 0.455101 1.132746 0
0.123673 0.343596 1.008785 0
0.209979 0.468546 1.194390 0
-0.037298 0.112911 1.337068 0
0.234874 0.472832 0.917964 0
0.078418 0.491625 1.294443 0
0.027268 0.043379 1.143444 0
0.335117 0.463604 1.148071 0
-0.106362 0.309102 1.344967 0
0.198394 0.358862 0.854901 0
0.237560 0.455297 1.444640 0
-0.139208 0.046098 1.222146 0
0.361992 0.475054 0.951098 0
-0.045410 0.462848 1.425932 0
0.082436 0.051635 0.971704 0
0.407136 0.465291 1.345898 0
-0.246457 0.125845 1.402850 0
0.293366 0.448966 0.776259 0
0.148033 0.435689 1.658702 0
-0.126024 0.034665 1.036744 0
0.477217 0.469277 1.096520 0
-0.196293 0.422524 1.426051 0
0.206914 0.065802 0.872879 0
0.397468 0.460760 1.602584 0
-0.307128 0.050120 1.253374 0
0.415249 0.470681 0.826577 0
-0.028219 0.564224 1.541476 0
-0.034545 0.062946 0.860536 0
0.558862 0.463421 1.334592 0
-0.324718 0.348487 1.342854 0
0.295046 0.353216 0.701461 0
-0.269978 0.063941 1.016603 0
0.550503 0.461151 0.984548 0
-0.195373 0.596666 1.428135 0
0.107925 0.074814 0.754222 0
-0.414405 0.184715 1.260609 0
0.406517 0.466214 0.696656 0
0.051128 0.664938 1.608807 0
-0.168794 0.046386 0.837351 0
0.659456 0.465820 1.225118 0
-0.340163 0.538320 1.327637 0
0.286604 0.083707 0.719720 0
-0.416212 0.053953 1.096024 0
0.557426 0.468233 0.831919 0
-0.145525 0.722912 1.468427 0
-0.014055 0.045846 0.704933 0
-0.454758 0.389352 1.241078 0
0.374482 0.413860 0.603466 0
0.179694 0.717353 1.698666 0
-0.312449 0.046389 0.862990 0
0.698069 0.476047 1.056020 0
-0.313784 0.691868 1.347037 0
0.175438 0.066707 0.632474 0
-0.528252 0.138155 1.169889 0
0.519960 0.473590 0.682373 0
-0.055765 0.808628 1.540703 0
-0.154220 0.045275 0.688575 0
0.819926 0.463770 1.412605 0
-0.450034 0.580167 1.238453 0
0.386312 0.094253 0.634747 0
-0.454854 0.068296 0.931040 0
0.701915 0.459182 0.893208 0
-0.254743 0.808978 1.399794 0
0.042377 0.048744 0.583072 0
-0.557311 0.362310 1.161594 0
0.457507 0.462907 0.557866 0
0.074062 0.858224 1.637240 0
-0.304002 0.045037 0.717955 0
0.867277 0.454725 1.217123 0
-0.421095 0.722062 1.285955 0
0.264564 0.068572 0.547945 0
-0.607690 0.053588 1.080111 0
0.637792 0.480778 0.707304 0
-0.161934 0.904748 1.458310 0
-0.106170 0.042415 0.568262 0
-0.548229 0.563112 1.172272 0
0.423536 0.310705 0.509953 0
0.248749 0.868341 1.757243 0
-0.462227 0.036570 0.799503 0
0.838901 0.468678 0.984903 0
-0.353876 0.859052 1.319291 0
0.121018 0.058403 0.489872 0
-0.650610 0.274088 1.103942 0
0.562977 0.471308 0.563664 0
-0.037492 0.960128 1.559850 0
-0.263303 0.045634 0.590610 0
-0.510292 0.732413 1.202952 0
0.370003 0.071754 0.493927 0
0.149846 0.469352 1.071829 0
0.097893 0.473547 1.142843 0
0.149106 0.444567 0.951731 0
0.255016 0.463037 1.234229 0
0.001560 0.369513 1.131517 0
0.275947 0.473601 0.943189 0
0.121777 0.474348 1.349866 0
0.072273 0.097487 1.131205 0
0.378981 0.471409 1.174525 0
-0.061731 0.435497 1.240144 0
0.225142 0.425376 0.831466 0
0.281002 0.468110 1.470997 0
-0.091747 0.031342 1.262079 0
0.414497 0.457228 0.995377 0
-0.004181 0.427777 1.506914 0
0.131206 0.047853 0.999949 0
0.462067 0.458098 1.398489 0
-0.198915 0.137793 1.420850 0
0.330965 0.461350 0.790403 0
0.196947 0.426842 1.720549 0
-0.078684 0.045111 1.054746 0
0.537386 0.451778 1.149673 0
-0.156447 0.430692 1.447262 0
0.252713 0.082279 0.888169 0
0.455283 0.453334 1.667970 0
-0.259771 0.051966 1.278202 0
0.463332 0.465006 0.856391 0
0.011014 0.555885 1.595818 0
0.011451 0.059644 0.885416 0
0.623576 0.451775 1.395677 0
-0.287434 0.336394 1.382689 0
0.316265 0.422861 0.682323 0
-0.226876 0.043736 1.053497 0
0.609257 0.450552 1.026574 0
-0.160206 0.602820 1.451857 0
0.156932 0.054174 0.786838 0
-0.374093 0.171207 1.297041 0
0.451936 0.462361 0.720821 0
0.091629 0.654739 1.676909 0
-0.124080 0.036346 0.864779 0
0.732065 0.448773 1.288640 0
-0.307169 0.532633 1.360677 0
0.332586 0.094134 0.737096 0
-0.373221 0.039253 1.129489 0
0.612438 0.460897 0.864852 0
-0.113363 0.725117 1.502500 0
0.031281 0.045484 0.726196 0
-0.417850 0.385499 1.266974 0
0.403818 0.447398 0.605198 0
0.223291 0.716510 1.762276 0
-0.269589 0.031140 0.892870 0
0.779019 0.447475 1.121969 0
-0.284383 0.688382 1.379971 0
0.224397 0.051800 0.659414 0
-0.487816 0.124285 1.202846 0
0.574710 0.459923 0.713203 0
-0.023792 0.816955 1.571061 0
-0.110088 0.039604 0.711476 0
0.892077 0.464123 1.469190 0
-0.425644 0.557364 1.287919 0
0.369902 0.298492 0.567890 0
-0.411465 0.060864 0.956253 0
0.759976 0.458903 0.924697 0
-0.224634 0.819083 1.414061 0
0.086855 0.052577 0.601374 0
-0.523002 0.350033 1.192411 0
0.503370 0.458311 0.578655 0
0.106290 0.876612 1.655791 0
-0.261983 0.028527 0.745707 0
0.935936 0.458296 1.261154 0
-0.389680 0.727701 1.300113 0
0.310896 0.070940 0.566683 0
-0.564099 0.043386 1.108019 0
0.700908 0.464260 0.742222 0
-0.134424 0.911361 1.486056 0
-0.062342 0.040970 0.588158 0
-0.518150 0.554948 1.199384 0
0.438062 0.385498 0.497547 0
0.285101 0.887749 1.787576 0
-0.417758 0.032410 0.821536 0
0.909642 0.463432 1.026779 0
-0.325120 0.867925 1.329780 0
0.165849 0.056771 0.509119 0
-0.610491 0.269563 1.125674 0
0.614113 0.464577 0.586309 0
-0.009133 0.975158 1.578659 0
-0.221721 0.028081 0.616571 0
-0.481802 0.731254 1.222716 0
0.416260 0.078046 0.510738 0
0.176091 0.458346 1.127580 0
0.120424 0.476200 1.187099 0
0.168567 0.468030 0.971572 0
0.276498 0.485922 1.262079 0
0.020310 0.431023 1.117175 0
0.305232 0.465992 0.991280 0
0.146984 0.469158 1.413795 0
0.070456 0.405664 0.935807 0
0.413524 0.465030 1.234808 0
-0.041995 0.463040 1.257802 0
0.240830 0.463806 0.839831 0
0.310107 0.472492 1.532228 0
-0.065693 0.042642 1.301166 0
0.447226 0.454955 1.042909 0
0.016975 0.436495 1.557273 0
0.159409 0.054386 1.038670 0
0.494806 0.467311 1.453217 0
-0.171916 0.189309 1.421032 0
0.361727 0.452372 0.833317 0
0.218323 0.459767 1.748698 0
-0.053040 0.027854 1.109369 0
0.574249 0.453386 1.202472 0
-0.136229 0.461708 1.463033 0
0.214999 0.396582 0.737426 0
-0.236380 0.054923 1.322423 0
0.501850 0.451635 0.907354 0
0.027938 0.603820 1.589437 0
0.038369 0.054917 0.927077 0
0.669004 0.449982 1.467630 0
-0.263960 0.371897 1.391964 0
0.330526 0.460486 0.692524 0
0.320476 0.598971 1.752161 0
-0.203723 0.036556 1.099403 0
0.648656 0.450243 1.076500 0
-0.143034 0.630622 1.468650 0
0.186393 0.049415 0.827109 0
-0.348577 0.199289 1.315813 0
0.487108 0.452321 0.762735 0
0.106701 0.698554 1.677538 0
-0.098247 0.050296 0.894201 0
0.777862 0.451801 1.350459 0
-0.288357 0.558629 1.375975 0
0.319898 0.254834 0.692540 0
-0.351574 0.035711 1.173390 0
0.657685 0.448233 0.917505 0
-0.097397 0.765424 1.497220 0
0.057458 0.056644 0.756356 0
-0.395562 0.411359 1.282016 0
0.427808 0.457459 0.630909 0
0.231244 0.777972 1.729660 0
-0.244732 0.037825 0.925766 0
0.826634 0.447708 1.178712 0
-0.266361 0.721409 1.381728 0
0.254832 0.046520 0.697173 0
-0.465085 0.135361 1.234593 0
0.616022 0.447880 0.757324 0
-0.010181 0.852284 1.576851 0
-0.084941 0.030413 0.750216 0
-0.403529 0.589542 1.290861 0
0.377564 0.359287 0.571616 0
0.418047 0.778812 1.870050 0
-0.391152 0.052421 0.998208 0
0.814734 0.444838 0.983771 0
-0.211057 0.844684 1.427814 0
0.114691 0.046688 0.637186 0
-0.501046 0.369442 1.212106 0
0.532436 0.461377 0.608175 0
0.118907 0.913072 1.665424 0
-0.236707 0.035929 0.776156 0
1.002710 0.448955 1.339955 0
-0.370643 0.758779 1.299632 0
0.339770 0.076050 0.598479 0
-0.539892 0.052915 1.139535 0
0.746683 0.454882 0.787260 0
-0.121330 0.947119 1.480948 0
-0.036536 0.034557 0.623201 0
-0.498180 0.577043 1.211927 0
0.447034 0.431831 0.506879 0
0.295602 0.932807 1.787422 0
-0.393392 0.037422 0.853017 0
0.960336 0.465694 1.078892 0
-0.312423 0.890376 1.342756 0
0.194220 0.053863 0.542287 0
-0.583925 0.294066 1.140419 0
0.648409 0.464306 0.618675 0
0.002001 1.008375 1.586309 0
-0.196317 0.034182 0.646341 0
-0.464135 0.754828 1.229983 0
0.444062 0.089861 0.539695 0
0.150303 0.466321 1.179119 0
0.092289 0.486090 1.238069 0
0.145692 0.474845 1.017701 0
0.254035 0.481645 1.336560 0
-0.008218 0.434183 1.170132 0
0.286329 0.466059 1.047125 0
0.119557 0.448193 1.517342 0
0.046073 0.416155 0.976195 0
0.387796 0.480766 1.286918 0
-0.075988 0.434261 1.353921 0
0.221638 0.469202 0.883941 0
0.289941 0.449633 1.652139 0
-0.101241 0.043742 1.363248 0
0.429192 0.458795 1.100311 0
-0.022383 0.504264 1.543369 0
0.134418 0.050161 1.099105 0
0.479416 0.457990 1.550941 0
-0.204485 0.258584 1.414507 0
0.341285 0.466608 0.872993 0
0.164763 0.555737 1.692741 0
-0.083729 0.040248 1.156081 0
0.557947 0.455755 1.271387 0
-0.168490 0.536522 1.434986 0
0.195052 0.410401 0.773332 0
0.441288 0.519127 1.749700 0
-0.272226 0.082369 1.358376 0
0.485520 0.457239 0.958983 0
-0.012354 0.679767 1.551197 0
0.013071 0.054155 0.978892 0
0.660006 0.440765 1.569071 0
-0.290485 0.448964 1.365150 0
0.315163 0.464682 0.734829 0
0.273595 0.654751 1.757529 0
-0.236815 0.041425 1.148195 0
0.639167 0.445829 1.147574 0
-0.175387 0.695408 1.443574 0
0.165032 0.051591 0.877419 0
-0.372214 0.276136 1.298327 0
0.470076 0.462531 0.806153 0
0.060442 0.783165 1.614422 0
-0.125645 0.040311 0.947818 0
0.768232 0.450430 1.435987 0
-0.313668 0.627316 1.347338 0
0.260774 0.420437 0.649902 0
0.443011 0.675119 1.863424 0
-0.389445 0.039189 1.222812 0
0.648351 0.445959 0.979318 0
-0.131816 0.822714 1.477027 0
0.035588 0.064053 0.799416 0
-0.416587 0.480605 1.260327 0
0.413573 0.463691 0.672420 0
0.182960 0.842605 1.703047 0
-0.273216 0.048688 0.964751 0
0.821095 0.443704 1.258317 0
-0.295077 0.775206 1.365779 0
0.235159 0.056731 0.742005 0
-0.483851 0.211739 1.219453 0
0.599556 0.458886 0.802728 0
-0.048148 0.913837 1.543613 0
-0.108365 0.030038 0.794590 0
-0.424647 0.651968 1.266845 0
0.363475 0.364377 0.613155 0
0.358188 0.852089 1.828454 0
-0.423621 0.061278 1.037128 0
0.809391 0.441240 1.052850 0
-0.240578 0.900316 1.401994 0
0.096204 0.047819 0.682107 0
-0.518572 0.435977 1.194088 0
0.523001 0.460496 0.655291 0
0.075607 0.972282 1.636323 0
-0.263787 0.029799 0.820951 0
1.001672 0.445304 1.432011 0
-0.394703 0.811446 1.280356 0
0.326094 0.070632 0.649505 0
-0.561049 0.111545 1.141600 0
0.735308 0.459602 0.840517 0
-0.154214 1.000362 1.454881 0
-0.056498 0.030918 0.666897 0
-0.516872 0.634344 1.193456 0
0.435382 0.435481 0.547910 0
0.243058 0.997410 1.747383 0
-0.423486 0.039854 0.892111 0
0.971903 0.447468 1.170414 0
-0.338465 0.940666 1.321091 0
0.178386 0.054983 0.586885 0
-0.605056 0.345299 1.138969 0
0.644371 0.457293 0.672017 0
-0.036150 1.065686 1.548157 0
-0.219738 0.025560 0.689412 0
-0.487398 0.801266 1.218114 0
0.430922 0.090441 0.588990 0
0.086992 0.481985 1.232280 0
0.027435 0.488298 1.308632 0
0.089877 0.473755 1.080113 0
0.193113 0.471259 1.432048 0
-0.074963 0.416000 1.255982 0
0.231119 0.470929 1.108211 0
0.045412 0.446606 1.612085 0
-0.008098 0.292610 1.140807 0
0.335370 0.463704 1.389077 0
-0.153357 0.415961 1.453628 0
0.172592 0.463426 0.945460 0
0.212248 0.471551 1.723937 0
-0.181207 0.075055 1.408950 0
0.372943 0.467397 1.162986 0
-0.097620 0.598701 1.496471 0
0.067184 0.049222 1.167603 0
0.418394 0.451648 1.660305 0
-0.271333 0.360231 1.378100 0
0.290121 0.476973 0.923620 0
0.075564 0.654230 1.634076 0
-0.158882 0.027762 1.230790 0
0.500929 0.459635 1.349942 0
-0.234109 0.620609 1.399398 0
0.165095 0.299548 0.901946 0
0.346588 0.586808 1.750274 0
-0.336844 0.192220 1.325823 0
0.442204 0.444880 1.036089 0
-0.085998 0.754472 1.520554 0
-0.052283 0.025818 1.057849 0
0.594473 0.450047 1.659175 0
-0.347827 0.545246 1.319496 0
0.274579 0.451072 0.797467 0
0.178419 0.746250 1.700022 0
-0.313157 0.050681 1.201973 0
0.580504 0.458728 1.211945 0
-0.236684 0.781037 1.390709 0
0.105078 0.058586 0.933828 0
-0.430286 0.367099 1.270745 0
0.423811 0.465859 0.863300 0
-0.016370 0.858476 1.573652 0
-0.192623 0.042538 1.001863 0
0.713188 0.450025 1.532897 0
-0.367980 0.710746 1.303694 0
0.242799 0.308507 0.765329 0
0.334696 0.768024 1.800522 0
-0.456884 0.105618 1.229268 0
0.596914 0.452321 1.044175 0
-0.195770 0.895440 1.435123 0
-0.022468 0.052977 0.859946 0
-0.468171 0.564149 1.227032 0
0.372959 0.460345 0.728371 0
0.098146 0.920866 1.649440 0
-0.344426 0.048638 1.016915 0
0.754391 0.464603 1.321077 0
-0.346917 0.856162 1.311867 0
0.179614 0.067966 0.794771 0
-0.532186 0.315136 1.183074 0
0.553548 0.462619 0.862663 0
-0.116358 0.981528 1.504457 0
-0.169264 0.032418 0.844191 0
-0.470359 0.735418 1.220245 0
0.319688 0.367863 0.664025 0
0.256350 0.940431 1.747875 0
-0.508255 0.040083 1.103163 0
0.756651 0.447411 1.124013 0
-0.295980 0.971018 1.354722 0
0.042183 0.055371 0.731765 0
-0.565702 0.519160 1.162933 0
0.480132 0.464577 0.709062 0
0.000071 1.045678 1.575548 0
-0.329267 0.028655 0.868967 0
0.946641 0.447943 1.528115 0
-0.444806 0.878432 1.246392 0
0.279088 0.056980 0.714340 0
0.472570 0.897654 1.904375 0
-0.610429 0.205002 1.119445 0
0.697260 0.450051 0.915320 0
-0.213232 1.067267 1.405307 0
-0.112004 0.027787 0.716987 0
-0.559383 0.712807 1.154320 0
0.396018 0.436055 0.599321 0
0.156965 1.067392 1.694144 0
-0.490707 0.056798 0.927439 0
0.915692 0.455470 1.247203 0
-0.389059 1.004729 1.282447 0
0.129105 0.054137 0.640466 0
-0.643257 0.442084 1.099191 0
0.600719 0.461605 0.729279 0
-0.102473 1.127716 1.506096 0
-0.278420 0.028269 0.732797 0
-0.530191 0.871971 1.177390 0
0.384849 0.086379 0.650701 0
0.008854 0.489806 1.282420 0
-0.055117 0.435114 1.435730 0
0.020774 0.443303 1.162497 0
0.116599 0.421056 1.571152 0
-0.167073 0.327019 1.409599 0
0.161935 0.468510 1.167842 0
-0.051544 0.567729 1.514328 0
-0.093066 0.063757 1.399904 0
0.254477 0.470123 1.454052 0
-0.232779 0.517555 1.388230 0
0.111459 0.443262 1.011912 0
0.099186 0.585313 1.632240 0
-0.267728 0.162682 1.382995 0
0.305437 0.460564 1.233739 0
-0.179509 0.686072 1.433463 0
-0.015989 0.039783 1.231026 0
0.324960 0.467312 1.726772 0
-0.344241 0.455661 1.324288 0
0.231477 0.466641 0.984196 0
-0.020568 0.743916 1.560523 0
-0.249070 0.035455 1.275812 0
0.420522 0.472350 1.409263 0
-0.306654 0.698714 1.347766 0
0.121730 0.113109 1.085402 0
0.238877 0.645211 1.743339 0
-0.403944 0.307585 1.263632 0
0.373381 0.455802 1.086182 0
-0.166634 0.835830 1.450168 0
-0.133048 0.029130 1.104206 0
0.502354 0.465076 1.729955 0
-0.411129 0.632482 1.260702 0
0.219452 0.443102 0.850641 0
0.075308 0.828588 1.628700 0
-0.405257 0.055332 1.243418 0
0.511026 0.459001 1.282619 0
-0.307250 0.848451 1.342530 0
0.032931 0.053966 0.986727 0
0.412287 0.642207 1.815581 0
-0.492195 0.458798 1.219324 0
0.370870 0.452222 0.928194 0
-0.101229 0.935836 1.497312 0
-0.272777 0.046269 1.041380 0
0.637505 0.444757 1.629400 0
-0.432576 0.777459 1.260508 0
0.217973 0.124996 0.926566 0
0.220822 0.843460 1.741746 0
-0.525561 0.192877 1.197217 0
0.533603 0.451477 1.110101 0
-0.266418 0.963075 1.375085 0
-0.093497 0.049959 0.905306 0
-0.530829 0.631177 1.191033 0
0.317927 0.465090 0.773816 0
0.005150 0.988207 1.588395 0
-0.430361 0.043433 1.057717 0
0.687615 0.457412 1.409920 0
-0.411216 0.915617 1.270221 0
0.116205 0.049396 0.853874 0
0.408097 0.811681 1.848635 0
-0.587749 0.406431 1.134841 0
0.501973 0.450423 0.930510 0
-0.191843 1.046653 1.439548 0
-0.241737 0.035819 0.880533 0
-0.531559 0.794190 1.185405 0
0.272860 0.343520 0.724483 0
0.152977 1.003342 1.696961 0
-0.590929 0.070893 1.115860 0
0.685651 0.455171 1.188414 0
-0.361472 1.027506 1.310216 0
-0.021972 0.045840 0.779281 0
-0.622811 0.588840 1.124403 0
0.430572 0.458155 0.765036 0
-0.083211 1.103367 1.523091 0
-0.403671 0.041072 0.895191 0
0.862609 0.456522 1.609889 0
-0.502482 0.937818 1.201452 0
0.217469 0.056916 0.765468 0
0.348713 0.967993 1.839632 0
-0.671868 0.279422 1.090560 0
0.629705 0.463427 0.968155 0
-0.282615 1.119049 1.364406 0
-0.177485 0.035637 0.750472 0
-0.614904 0.773486 1.116162 0
0.347355 0.434798 0.646925 0
0.061544 1.128431 1.628166 0
-0.577479 0.047493 0.962303 0
0.844410 0.458040 1.325281 0
-0.449052 1.058412 1.239596 0
0.070512 0.041742 0.690061 0
0.594219 0.878508 1.989042 0
-0.701796 0.505194 1.069488 0
0.551716 0.453972 0.790752 0
-0.176613 1.184425 1.443108 0
-0.347987 0.027878 0.764390 0
-0.586919 0.925626 1.141131 0
0.332858 0.062252 0.715115 0
-0.065512 0.492847 1.323727 0
-0.137768 0.444259 1.473108 0
-0.048778 0.442450 1.203781 0
0.028712 0.452446 1.587420 0
-0.244607 0.382199 1.390345 0
0.093541 0.478217 1.202472 0
-0.132085 0.630578 1.474580 0
-0.177177 0.098445 1.411633 0
0.181531 0.450653 1.538732 0
-0.302070 0.583442 1.344740 0
0.052212 0.417464 1.073483 0
0.008775 0.646306 1.596467 0
-0.334485 0.268168 1.317539 0
0.237882 0.459757 1.286178 0
-0.249411 0.750882 1.380058 0
-0.094365 0.040959 1.271697 0
0.228059 0.506274 1.738175 0
-0.406495 0.527515 1.275414 0
0.171143 0.474316 1.018640 0
-0.101434 0.810075 1.500558 0
-0.329282 0.059136 1.291292 0
0.347342 0.473644 1.468994 0
-0.371133 0.753439 1.307507 0
0.056301 0.061025 1.166656 0
0.136068 0.721228 1.676422 0
-0.464157 0.382049 1.219846 0
0.304701 0.477944 1.113190 0
-0.236039 0.894002 1.395426 0
-0.206987 0.036812 1.133011 0
0.400019 0.509525 1.736847 0
-0.471951 0.683893 1.226708 0
0.169710 0.421828 0.904359 0
-0.011626 0.889276 1.571606 0
-0.472609 0.121288 1.218437 0
0.443066 0.460442 1.340153 0
-0.369298 0.899302 1.298797 0
-0.034076 0.052102 1.025074 0
0.301625 0.707207 1.772308 0
-0.546734 0.525159 1.174420 0
0.308149 0.473965 0.954371 0
-0.174596 0.986819 1.449118 0
-0.346785 0.045231 1.069863 0
0.551147 0.459362 1.683807 0
-0.489843 0.827655 1.220091 0
0.165373 0.062890 1.008674 0
0.122123 0.906918 1.677238 0
-0.575437 0.283420 1.142750 0
0.467260 0.462615 1.153369 0
-0.329969 1.009739 1.331715 0
-0.158934 0.043538 0.940042 0
0.493649 0.632845 1.849884 0
-0.581551 0.690228 1.144720 0
0.268546 0.463510 0.813941 0
-0.075041 1.042588 1.526541 0
-0.506243 0.048900 1.076676 0
0.616252 0.459209 1.476259 0
-0.467650 0.962093 1.228017 0
0.055364 0.051558 0.890073 0
0.293393 0.880399 1.776500 0
-0.640293 0.466298 1.097480 0
0.440512 0.465097 0.966925 0
-0.257460 1.095626 1.383155 0
-0.308825 0.029254 0.909437 0
-0.584479 0.841403 1.146500 0
0.244767 0.246512 0.820206 0
0.061463 1.058849 1.630478 0
-0.650422 0.130624 1.090631 0
0.620019 0.459583 1.244978 0
-0.419315 1.071304 1.266387 0
-0.080838 0.040358 0.813167 0
0.520049 0.768515 1.945436 0
-0.672968 0.641982 1.085378 0
0.376417 0.471123 0.798740 0
-0.155845 1.150237 1.466717 0
-0.470717 0.049271 0.910005 0
0.777348 0.469590 1.671495 0
-0.554736 0.981788 1.160596 0
0.159003 0.072408 0.797000 0
0.236511 1.034534 1.745651 0
-0.713193 0.359416 1.039261 0
0.568198 0.473903 1.012555 0
-0.343514 1.160671 1.319447 0
-0.238025 0.024822 0.780656 0
-0.665461 0.818113 1.079902 0
0.303894 0.428700 0.688413 0
-0.020986 1.175604 1.568185 0
-0.655089 0.042557 0.980333 0
0.769593 0.468933 1.382175 0
-0.503625 1.098377 1.200591 0
0.015966 0.047338 0.720564 0
0.456592 0.953465 1.887066 0
-0.752114 0.555357 1.034914 0
0.500135 0.457506 0.835664 0
-0.243010 1.224341 1.398383 0
-0.411837 0.020892 0.786725 0
-0.635693 0.968852 1.100357 0
0.279266 0.062106 0.758139 0
-0.141147 0.414661 1.442954 0
-0.206942 0.516963 1.404975 0
-0.115492 0.420634 1.248728 0
-0.053138 0.526166 1.517815 0
-0.311480 0.430624 1.354124 0
0.029367 0.481913 1.225277 0
-0.201815 0.682458 1.423112 0
-0.253127 0.121513 1.410769 0
0.108712 0.423234 1.613621 0
-0.362757 0.630486 1.300595 0
-0.006492 0.401708 1.110731 0
-0.070852 0.709758 1.525310 0
-0.396545 0.321252 1.278946 0
0.166491 0.485140 1.290272 0
-0.313207 0.788029 1.343503 0
-0.166390 0.046974 1.288041 0
0.129665 0.581850 1.660637 0
-0.460479 0.579537 1.225895 0
0.114887 0.477650 1.041422 0
-0.171515 0.857909 1.443035 0
-0.395954 0.100303 1.270036 0
0.277941 0.464551 1.522160 0
-0.427104 0.795052 1.261165 0
-0.009949 0.053060 1.197695 0
0.047199 0.783168 1.600904 0
-0.521421 0.422622 1.187285 0
0.245632 0.479926 1.143276 0
-0.298946 0.929674 1.354010 0
-0.273667 0.043720 1.143004 0
0.309097 0.535882 1.743993 0
-0.525742 0.720907 1.188225 0
0.121512 0.399916 0.945505 0
-0.087460 0.935020 1.511678 0
-0.526543 0.183153 1.174499 0
0.368892 0.479795 1.357903 0
-0.428056 0.928672 1.266430 0
-0.095705 0.038725 1.053682 0
0.202864 0.761005 1.715607 0
-0.592338 0.576818 1.123311 0
0.252445 0.485741 0.973692 0
-0.238846 1.025794 1.394041 0
-0.412921 0.045733 1.078477 0
0.465633 0.473348 1.715108 0
-0.541078 0.862764 1.178030 0
0.108206 0.043570 1.048233 0
0.035961 0.956193 1.607303 0
-0.629884 0.322181 1.111394 0
0.401148 0.478716 1.174876 0
-0.386955 1.042245 1.287828 0
-0.216426 0.057257 0.945672 0
0.389499 0.675707 1.824277 0
-0.635257 0.718361 1.114657 0
0.223695 0.454634 0.846580 0
-0.144833 1.084462 1.458092 0
-0.575661 0.045888 1.082027 0
0.542156 0.465364 1.517541 0
-0.518572 0.994093 1.185375 0
-0.000190 0.060238 0.906249 0
0.195398 0.929110 1.712339 0
-0.691830 0.499471 1.065231 0
0.389838 0.460835 1.004994 0
-0.316796 1.127599 1.335051 0
-0.364573 0.045838 0.907903 0
0.581451 0.551083 1.870345 0
-0.634775 0.870647 1.110710 0
0.224144 0.096879 0.939269 0
-0.018142 1.095237 1.576957 0
-0.699395 0.179501 1.052908 0
0.551151 0.471578 1.276440 0
-0.471078 1.101946 1.220994 0
-0.133204 0.052498 0.822126 0
0.393538 0.839312 1.841837 0
-0.722918 0.671715 1.051733 0
0.334372 0.459682 0.836836 0
-0.221423 1.179884 1.421998 0
-0.528860 0.057169 0.907377 0
0.698543 0.472339 1.726261 0
-0.606421 1.007138 1.127682 0
0.108416 0.071640 0.821386 0
0.142143 1.080069 1.667631 0
-0.771446 0.378059 1.019079 0
0.519815 0.463631 1.061462 0
-0.399363 1.188072 1.277706 0
-0.287334 0.049034 0.777784 0
0.631986 0.674764 1.986791 0
-0.717688 0.841047 1.051268 0
0.271462 0.393095 0.735989 0
-0.093974 1.209349 1.506785 0
-0.712994 0.061920 0.964538 0
0.714631 0.451651 1.456321 0
-0.555014 1.123835 1.164351 0
-0.032539 0.052206 0.736269 0
0.348745 0.996484 1.830036 0
-0.801143 0.584307 1.001428 0
0.450362 0.462698 0.866465 0
-0.301258 1.254122 1.343143 0
-0.460578 0.043931 0.777986 0
-0.684823 0.993598 1.066514 0
0.229483 0.067053 0.783831 0
-0.195062 0.448215 1.420475 0
-0.257148 0.553712 1.373998 0
-0.177860 0.276696 1.417894 0
-0.110084 0.566868 1.483208 0
-0.354456 0.484122 1.304503 0
-0.018561 0.471445 1.256410 0
-0.252515 0.712724 1.395407 0
-0.301920 0.182196 1.366487 0
0.044387 0.463542 1.586316 0
-0.406868 0.661481 1.270735 0
-0.051273 0.357667 1.168417 0
-0.127478 0.733702 1.509810 0
-0.439750 0.361555 1.246941 0
0.116320 0.490740 1.308072 0
-0.359393 0.814678 1.315814 0
-0.221740 0.034120 1.313205 0
0.063022 0.626796 1.618433 0
-0.504093 0.603473 1.204270 0
0.074534 0.465014 1.072231 0
-0.222359 0.885951 1.412663 0
-0.443774 0.130101 1.252563 0
0.227238 0.446141 1.578692 0
-0.471616 0.815895 1.240138 0
-0.059984 0.052103 1.216140 0
-0.012893 0.806155 1.587814 0
-0.564256 0.447405 1.166078 0
0.204008 0.469488 1.178137 0
-0.343398 0.957841 1.317762 0
-0.322099 0.054761 1.144428 0
0.240419 0.560622 1.740629 0
-0.563925 0.748316 1.157348 0
0.084924 0.377827 0.980975 0
-0.141066 0.968254 1.466666 0
-0.572364 0.203842 1.160178 0
0.318968 0.480387 1.388043 0
-0.468103 0.954782 1.232102 0
-0.141691 0.040245 1.066264 0
0.136149 0.788322 1.697855 0
-0.635265 0.593555 1.106473 0
0.212325 0.490240 0.991542 0
-0.285141 1.052625 1.356075 0
-0.461808 0.046960 1.082393 0
0.398619 0.491166 1.727772 0
-0.580678 0.884095 1.151894 0
0.063096 0.048511 1.064273 0
-0.024176 0.987670 1.566100 0
-0.669935 0.347422 1.088690 0
0.356451 0.480167 1.202074 0
-0.429486 1.063798 1.258998 0
-0.259777 0.056449 0.955085 0
0.310928 0.715628 1.788363 0
-0.669482 0.745572 1.081903 0
0.189987 0.446783 0.871979 0
-0.195727 1.107504 1.427988 0
-0.624969 0.049991 1.079322 0
0.486697 0.469788 1.549685 0
-0.561657 1.009533 1.167554 0
-0.040742 0.053746 0.924910 0
0.126922 0.962618 1.669918 0
-0.733826 0.515009 1.047480 0
0.342547 0.482229 1.011850 0
-0.361161 1.148377 1.305651 0
-0.405432 0.056158 0.906133 0
0.491061 0.601466 1.826349 0
-0.668509 0.894970 1.077635 0
0.187134 0.076501 0.973698 0
-0.075114 1.125586 1.525192 0
-0.738814 0.203470 1.031439 0
0.502474 0.476202 1.305409 0
-0.511348 1.120969 1.194004 0
-0.172568 0.042875 0.837419 0
0.312570 0.879308 1.792780 0
-0.758827 0.693198 1.024820 0
0.294983 0.474189 0.848543 0
-0.267705 1.204306 1.378835 0
-0.571233 0.063194 0.903263 0
0.643468 0.467707 1.779790 0
-0.646875 1.022909 1.106522 0
0.071725 0.063561 0.842960 0
0.079409 1.102275 1.645863 0
-0.810959 0.396187 0.997887 0
0.477256 0.468043 1.087638 0
-0.441981 1.206032 1.252006 0
-0.327031 0.040018 0.787522 0
0.535940 0.722447 1.936625 0
-0.757546 0.855835 1.030428 0
0.242949 0.378245 0.765131 0
-0.146270 1.232655 1.466369 0
-0.757057 0.070675 0.953799 0
0.648837 0.475215 1.467228 0
-0.593790 1.141335 1.138365 0
-0.067987 0.039706 0.754665 0
0.267749 1.035595 1.764887 0
-0.834675 0.607205 0.972530 0
0.410273 0.474381 0.883518 0
-0.347850 1.270053 1.324317 0
-0.502139 0.036171 0.781952 0
-0.728861 1.004060 1.052554 0
0.191575 0.078885 0.798136 0
-0.251268 0.465182 1.396247 0
-0.310800 0.569310 1.348362 0
-0.234621 0.294881 1.395221 0
-0.168539 0.590707 1.449178 0
-0.406605 0.494020 1.283972 0
-0.070977 0.467799 1.262372 0
-0.304321 0.735452 1.355643 0
-0.351645 0.221666 1.321001 0
-0.021015 0.489413 1.555379 0
-0.457284 0.670151 1.248861 0
-0.105827 0.093624 1.415861 0
-0.185141 0.762384 1.460528 0
-0.492021 0.364994 1.231017 0
0.062833 0.486893 1.319235 0
-0.406887 0.832986 1.277928 0
-0.275322 0.050856 1.293823 0
-0.004660 0.663724 1.563604 0
-0.550434 0.615261 1.176178 0
0.031115 0.440519 1.099822 0
-0.275541 0.903302 1.376624 0
-0.487360 0.166273 1.209144 0
0.172406 0.404449 1.646910 0
-0.514373 0.834266 1.199867 0
-0.112289 0.035310 1.229104 0
-0.076502 0.840303 1.524743 0
-0.604257 0.470820 1.126061 0
0.152318 0.481298 1.174944 0
-0.394984 0.965434 1.296619 0
-0.372645 0.051017 1.137881 0
0.160790 0.605400 1.677926 0
-0.604826 0.763819 1.121074 0
0.045217 0.347800 1.009556 0
-0.196968 0.987029 1.425164 0
-0.618989 0.214725 1.133711 0
0.267750 0.462770 1.423564 0
-0.511922 0.968326 1.196268 0
-0.188137 0.044178 1.060307 0
0.062287 0.826299 1.628614 0
-0.681687 0.597920 1.082808 0
0.171841 0.480773 1.008998 0
-0.336542 1.063178 1.327865 0
-0.500737 0.079397 1.045963 0
0.324429 0.506821 1.720531 0
-0.620095 0.898837 1.113389 0
0.016193 0.057367 1.061941 0
-0.086444 1.001025 1.538467 0
-0.713122 0.357907 1.058893 0
0.309862 0.470381 1.226976 0
-0.475493 1.074526 1.226698 0
-0.301762 0.062865 0.943592 0
0.227859 0.751994 1.730267 0
-0.714047 0.750832 1.055841 0
0.157323 0.417427 0.902138 0
-0.249604 1.120356 1.393060 0
-0.667456 0.065037 1.049252 0
0.419864 0.480359 1.554636 0
-0.601689 1.022373 1.129430 0
-0.082266 0.048122 0.928167 0
0.056083 0.987018 1.617454 0
-0.777456 0.520734 1.019281 0
0.299504 0.481728 1.025726 0
-0.409364 1.158180 1.274409 0
-0.448761 0.048319 0.897937 0
0.404700 0.631460 1.792134 0
-0.716042 0.896266 1.057142 0
0.147116 0.056157 0.994581 0
-0.134273 1.141191 1.482223 0
-0.788662 0.197395 1.012097 0
0.454190 0.465004 1.337996 0
-0.554674 1.130291 1.161571 0
-0.211167 0.042712 0.832702 0
0.233448 0.900836 1.756059 0
-0.808974 0.689069 1.006229 0
0.257643 0.473699 0.860370 0
-0.317818 1.216204 1.339664 0
-0.613520 0.061643 0.885715 0
0.571721 0.470418 1.800820 0
-0.690390 1.029149 1.078536 0
0.033245 0.064077 0.846335 0
0.011511 1.120868 1.596581 0
-0.861690 0.388593 0.978033 0
0.427122 0.477560 1.096511 0
-0.487836 1.214474 1.220864 0
-0.364948 0.035376 0.779571 0
0.435213 0.764742 1.866133 0
-0.799099 0.861929 1.000118 0
0.250759 0.195410 0.889768 0
-0.201370 1.245474 1.422964 0
-0.800904 0.071225 0.928757 0
0.594587 0.466862 1.502944 0
-0.636236 1.148863 1.107748 0
-0.103353 0.047282 0.749706 0
0.190815 1.053730 1.725461 0
-0.885737 0.599952 0.953112 0
0.367148 0.485591 0.890075 0
-0.395190 1.279740 1.287304 0
-0.539696 0.035098 0.766135 0
0.631119 0.593645 1.898754 0
-0.767537 1.012734 1.018012 0
0.156169 0.070222 0.810433 0
-0.294635 0.477362 1.356653 0
-0.355988 0.563258 1.329971 0
-0.286332 0.258398 1.409218 0
-0.214955 0.598631 1.414035 0
-0.443828 0.506828 1.241813 0
-0.114802 0.441548 1.272992 0
-0.346700 0.738261 1.324411 0
-0.397874 0.210054 1.305278 0
-0.073101 0.503821 1.514290 0
-0.492994 0.678617 1.208870 0
-0.154556 0.076804 1.410427 0
-0.229647 0.777192 1.409249 0
-0.526071 0.381289 1.185866 0
0.016883 0.489700 1.300659 0
-0.447690 0.830866 1.252364 0
-0.315971 0.070348 1.253425 0
-0.056793 0.663402 1.541850 0
-0.584549 0.621333 1.138842 0
-0.004712 0.390456 1.133300 0
-0.317697 0.906759 1.341552 0
-0.526003 0.170652 1.176247 0
0.110526 0.437341 1.585096 0
-0.551421 0.834016 1.169794 0
-0.154583 0.041608 1.204934 0
-0.125964 0.848703 1.482587 0
-0.643422 0.464874 1.100645 0
0.110191 0.481792 1.163564 0
-0.433283 0.967687 1.261493 0
-0.405434 0.079339 1.091847 0
0.105059 0.596939 1.672403 0
-0.645354 0.755052 1.101157 0
0.028923 0.068075 1.219698 0
-0.242842 0.984295 1.402163 0
-0.652514 0.223776 1.094386 0
0.214304 0.473946 1.398529 0
-0.551839 0.962755 1.174951 0
-0.223374 0.067278 1.024972 0
0.006492 0.835557 1.585175 0
-0.717935 0.594672 1.053489 0
0.134644 0.481018 1.000459 0
-0.376620 1.063480 1.295166 0
-0.542194 0.060062 1.030373 0
0.268312 0.493720 1.725813 0
-0.664975 0.884803 1.102741 0
-0.021781 0.049596 1.053072 0
-0.135313 1.011705 1.481740 0
-0.750574 0.352278 1.029817 0
0.261665 0.481465 1.207831 0
-0.512847 1.072737 1.197687 0
-0.336091 0.058227 0.924206 0
0.164689 0.763176 1.686688 0
-0.758024 0.736158 1.040122 0
0.133886 0.357325 0.939740 0
-0.291831 1.121434 1.356383 0
-0.706012 0.056889 1.021355 0
0.364625 0.478434 1.547975 0
-0.640614 1.016030 1.108263 0
-0.116186 0.049623 0.911399 0
0.001874 0.985918 1.591913 0
-0.813144 0.516045 0.988794 0
0.258916 0.488570 1.014533 0
-0.447302 1.156856 1.242943 0
-0.478254 0.057488 0.866729 0
0.342645 0.627593 1.783245 0
-0.752902 0.890607 1.031538 0
0.111290 0.047736 0.990053 0
-0.181460 1.139962 1.451170 0
-0.828227 0.185906 0.984152 0
0.403752 0.467303 1.330471 0
-0.593777 1.124337 1.141138 0
-0.241177 0.049911 0.810038 0
0.168365 0.911510 1.704422 0
-0.841271 0.687802 0.972304 0
0.227383 0.463159 0.863979 0
-0.359685 1.212302 1.314834 0
-0.642220 0.067985 0.851591 0
0.497558 0.487278 1.764438 0
-0.723140 1.027498 1.047064 0
0.000818 0.072521 0.829795 0
-0.041721 1.123436 1.553630 0
-0.905334 0.370784 0.954777 0
0.384822 0.479212 1.092617 0
-0.523869 1.212238 1.190117 0
-0.391640 0.045969 0.751463 0
0.368242 0.764426 1.847233 0
-0.837312 0.853780 0.975674 0
0.237972 0.095054 0.947151 0
-0.246423 1.241288 1.398389 0
-0.841095 0.053827 0.902727 0
0.531261 0.480204 1.481706 0
-0.674780 1.142503 1.087073 0
-0.132021 0.047751 0.734183 0
0.128754 1.058393 1.679505 0
-0.915699 0.600161 0.915988 0
0.333910 0.481637 0.891630 0
-0.433783 1.276559 1.257768 0
-0.569501 0.029235 0.740987 0
0.553783 0.605270 1.865134 0
-0.802985 1.007562 0.991427 0
0.125339 0.066237 0.804321 0
-0.337655 0.481861 1.324840 0
-0.392570 0.582998 1.277458 0
-0.327908 0.284741 1.355221 0
-0.258656 0.609826 1.372596 0
-0.483450 0.507760 1.212282 0
-0.167501 0.286136 1.420047 0
-0.385673 0.745440 1.285408 0
-0.439362 0.216825 1.270653 0
-0.122457 0.522619 1.464893 0
-0.529310 0.681877 1.175278 0
-0.202380 0.077467 1.386096 0
-0.271813 0.787654 1.364132 0
-0.565606 0.379270 1.157849 0
-0.028432 0.499132 1.271755 0
-0.488498 0.825889 1.230410 0
-0.358659 0.070796 1.226997 0
-0.106819 0.681297 1.487653 0
-0.625952 0.611429 1.119486 0
-0.036068 0.134419 1.353514 0
-0.359644 0.904555 1.316039 0
-0.568697 0.160944 1.153669 0
0.053993 0.458800 1.535841 0
-0.586818 0.834152 1.138870 0
-0.195747 0.058034 1.170958 0
-0.173267 0.848924 1.454178 0
-0.684782 0.454039 1.079106 0
0.068567 0.481458 1.150264 0
-0.470931 0.967341 1.230963 0
-0.452736 0.039802 1.092771 0
0.044440 0.630413 1.593805 0
-0.682620 0.750310 1.075561 0
-0.014461 0.062315 1.207353 0
-0.284405 0.988624 1.361454 0
-0.695029 0.210472 1.072015 0
0.158739 0.501394 1.350073 0
-0.585037 0.964353 1.140290 0
-0.259957 0.070868 1.001132 0
-0.045714 0.840037 1.548542 0
-0.764181 0.575482 1.040157 0
0.100821 0.460881 1.007417 0
-0.415521 1.061796 1.266343 0
-0.582459 0.046875 1.009053 0
0.212771 0.478091 1.729926 0
-0.696835 0.885962 1.068574 0
-0.060856 0.070553 1.022502 0
-0.181397 1.013746 1.444689 0
-0.791083 0.341043 1.004707 0
0.212145 0.500904 1.176508 0
-0.549486 1.069712 1.171231 0
-0.370847 0.053456 0.903333 0
0.107600 0.762555 1.662586 0
-0.796282 0.728736 1.015302 0
0.112025 0.264781 0.998547 0
-0.333522 1.117868 1.331311 0
-0.732594 0.077820 0.973842 0
0.304554 0.491413 1.516334 0
-0.673951 1.014431 1.078286 0
-0.150232 0.056759 0.889471 0
-0.050285 0.992068 1.544352 0
-0.864817 0.488237 0.978563 0
0.223163 0.478713 1.015586 0
-0.485598 1.152595 1.219133 0
-0.512769 0.048170 0.844804 0
0.277548 0.634389 1.749587 0
-0.787274 0.886978 1.003296 0
0.071183 0.072058 0.962216 0
-0.225175 1.140778 1.411551 0
-0.873241 0.165287 0.961565 0
0.345877 0.489339 1.295821 0
-0.627137 1.122492 1.111074 0
-0.272981 0.044092 0.792633 0
0.109395 0.914980 1.666259 0
-0.886252 0.671282 0.954523 0
0.200515 0.434986 0.878317 0
-0.397668 1.210421 1.282141 0
-0.678868 0.053727 0.828044 0
0.427116 0.501539 1.726664 0
-0.761192 1.020393 1.026001 0
-0.031352 0.064610 0.820037 0
-0.091285 1.125035 1.510781 0
-0.943948 0.361299 0.924534 0
0.337735 0.492813 1.073670 0
-0.560163 1.208129 1.165151 0
-0.423225 0.034599 0.732766 0
0.294826 0.781812 1.783868 0
-0.877912 0.843286 0.954401 0
0.202074 0.089628 0.941908 0
-0.288940 1.237010 1.371879 0
-0.868848 0.062717 0.860891 0
0.480418 0.471050 1.485061 0
-0.706884 1.140356 1.057047 0
-0.161466 0.046025 0.718002 0
0.070275 1.064027 1.626419 0
-0.966202 0.576167 0.900794 0
0.301448 0.473189 0.893889 0
-0.471827 1.271809 1.233703 0
-0.596558 0.033989 0.710014 0
0.477847 0.618738 1.821823 0
-0.843531 0.998008 0.972580 0
0.093027 0.066557 0.793629 0
-0.372878 0.494361 1.292969 0
-0.432717 0.572937 1.271842 0
-0.368562 0.280397 1.342284 0
-0.297139 0.614112 1.350669 0
-0.527393 0.485756 1.216726 0
-0.212211 0.253278 1.440913 0
-0.427366 0.731806 1.287456 0
-0.475564 0.222229 1.246376 0
-0.163977 0.535248 1.434012 0
-0.570509 0.667458 1.173211 0
-0.244049 0.074620 1.373652 0
-0.313208 0.776982 1.365079 0
-0.610750 0.353412 1.160694 0
-0.065931 0.470480 1.294442 0
-0.518611 0.833907 1.197980 0
-0.398301 0.058718 1.218948 0
-0.148929 0.688819 1.461332 0
-0.665047 0.600224 1.109968 0
-0.076609 0.091196 1.382103 0
-0.395575 0.906034 1.294796 0
-0.616479 0.124853 1.160317 0
0.010689 0.438217 1.552650 0
-0.626928 0.822766 1.134333 0
-0.233565 0.040943 1.170135 0
-0.212247 0.860859 1.415212 0
-0.731800 0.426942 1.080777 0
0.033349 0.478423 1.146278 0
-0.505541 0.966334 1.212873 0
-0.481978 0.058623 1.060610 0
-0.003111 0.645739 1.556691 0
-0.726341 0.733089 1.074179 0
-0.051693 0.047975 1.208776 0
-0.319434 0.995449 1.328275 0
-0.736981 0.190539 1.062933 0
0.121107 0.484008 1.364531 0
-0.625559 0.953640 1.137817 0
-0.293355 0.060289 0.993675 0
-0.089751 0.847650 1.518343 0
-0.793716 0.577599 1.013460 0
0.072362 0.434362 1.025380 0
-0.450960 1.060238 1.249886 0
-0.608048 0.065672 0.975283 0
0.152001 0.522413 1.652535 0
-0.739461 0.872210 1.065824 0
-0.093818 0.048105 1.027557 0
-0.219533 1.022457 1.405697 0
-0.839283 0.311194 1.002302 0
0.180982 0.477499 1.197330 0
-0.582417 1.068527 1.152425 0
-0.401615 0.047464 0.890264 0
0.055343 0.785908 1.603927 0
-0.821905 0.733857 0.984657 0
0.104363 0.070641 1.137856 0
-0.366394 1.123189 1.296645 0
-0.767812 0.068162 0.954858 0
0.271008 0.451829 1.564967 0
-0.709268 1.009345 1.064871 0
-0.180118 0.050545 0.881660 0
-0.093771 1.001120 1.504872 0
-0.896928 0.485220 0.954375 0
0.187632 0.489606 1.003026 0
-0.518245 1.152396 1.198055 0
-0.538760 0.055461 0.821293 0
0.220717 0.650173 1.711757 0
-0.825361 0.878058 0.991258 0
0.040810 0.055845 0.965852 0
-0.262120 1.144595 1.379735 0
-0.904265 0.164317 0.934274 0
0.309618 0.477214 1.307682 0
-0.660637 1.119577 1.095295 0
-0.300045 0.043993 0.778787 0
0.057416 0.932708 1.608926 0
-0.917422 0.668687 0.930507 0
0.174552 0.420013 0.887198 0
-0.430960 1.210933 1.258301 0
-0.704487 0.058890 0.801938 0
0.373554 0.504712 1.716540 0
-0.792088 1.018734 1.005027 0
-0.059067 0.049307 0.819840 0
-0.132923 1.128920 1.478928 0
-0.974234 0.359735 0.896907 0
0.303441 0.491376 1.074477 0
-0.589744 1.208928 1.140079 0
-0.447302 0.040977 0.712583 0
0.231470 0.808007 1.716046 0
-0.906800 0.842735 0.929100 0
0.175649 0.059794 0.957105 0
-0.323429 1.239774 1.338530 0
-0.902767 0.052304 0.838675 0
0.429472 0.481052 1.470740 0
-0.738581 1.138269 1.038392 0
-0.186641 0.049239 0.705481 0
0.022733 1.068365 1.595645 0
-0.982965 0.589078 0.861319 0
0.272066 0.471122 0.895370 0
-0.504016 1.271349 1.211503 0
-0.620514 0.036993 0.687428 0
0.414259 0.634809 1.785832 0
-0.874749 0.995519 0.951401 0
0.065129 0.069206 0.786940 0
-0.413465 0.491314 1.293811 0
-0.468663 0.582134 1.256657 0
-0.403615 0.307135 1.312309 0
-0.336549 0.618717 1.343853 0
-0.557220 0.506486 1.187859 0
-0.251298 0.289491 1.402949 0
-0.458716 0.750760 1.256475 0
-0.510981 0.235957 1.228444 0
-0.205941 0.538117 1.432483 0
-0.601173 0.679928 1.150743 0
-0.283844 0.095191 1.354857 0
-0.347866 0.796089 1.333470 0
-0.639994 0.372703 1.134203 0
-0.104585 0.487962 1.277831 0
-0.551447 0.842056 1.180539 0
-0.435665 0.066419 1.208751 0
-0.189968 0.702020 1.443478 0
-0.696516 0.608595 1.091294 0
-0.118836 0.086784 1.389500 0
-0.429009 0.917997 1.271468 0
-0.641195 0.160563 1.123361 0
-0.034325 0.439671 1.556871 0
-0.651672 0.839489 1.102654 0
-0.270389 0.047021 1.164843 0
-0.251828 0.868260 1.403918 0
-0.753756 0.452054 1.046370 0
-0.000044 0.458606 1.171606 0
-0.537303 0.975324 1.192533 0
-0.521355 0.044241 1.063992 0
-0.048057 0.657466 1.544012 0
-0.749449 0.750005 1.043012 0
-0.089813 0.059247 1.203273 0
-0.355728 1.002837 1.313610 0
-0.773149 0.190604 1.050905 0
0.079313 0.494941 1.358683 0
-0.652156 0.965826 1.110236 0
-0.328657 0.046957 0.999725 0
-0.131947 0.865692 1.487650 0
-0.826968 0.579935 0.998381 0
0.042886 0.410344 1.052030 0
-0.481310 1.071753 1.222714 0
-0.652006 0.036944 0.983883 0
0.103694 0.530945 1.648988 0
-0.762040 0.886872 1.034704 0
-0.127190 0.067757 1.016387 0
-0.257435 1.032196 1.386356 0
-0.862464 0.330874 0.972813 0
0.143185 0.485632 1.196771 0
-0.608873 1.079895 1.124080 0
-0.433525 0.043625 0.887210 0
0.009569 0.793314 1.597856 0
-0.856569 0.733693 0.971853 0
0.067678 0.075847 1.140443 0
-0.401137 1.130080 1.280419 0
-0.811585 0.046603 0.955011 0
0.228782 0.442699 1.588888 0
-0.736348 1.017884 1.041675 0
-0.211342 0.039399 0.887675 0
-0.134928 1.018491 1.468291 0
-0.918249 0.502328 0.924365 0
0.156139 0.489913 1.010466 0
-0.545456 1.163443 1.168081 0
-0.573895 0.037846 0.822095 0
0.171793 0.655206 1.714245 0
-0.853553 0.884621 0.970201 0
0.008613 0.056900 0.969907 0
-0.297230 1.156086 1.350562 0
-0.925297 0.186177 0.904018 0
0.269570 0.481685 1.313619 0
-0.691011 1.125206 1.077570 0
