ply
format ascii 1.0
element vertex 1595
property float x
property float y
property float z
property uchar label
end_header
-0.729058 0.972234 0.436707 1
-0.718807 0.990631 0.505900 1
-0.739425 1.026153 0.443354 1
-0.723508 0.947500 0.466077 1
-0.728727 1.026541 0.498214 1
-0.736316 0.992270 0.423898 1
-0.719483 0.961155 0.504098 1
-0.740722 1.041134 0.463304 1
-0.725323 0.952213 0.439101 1
-0.721329 1.006614 0.515723 1
-0.744165 1.018913 0.426063 1
-0.721898 0.936690 0.484816 1
-0.735121 1.043100 0.490664 1
-0.733992 0.972082 0.417689 1
-0.717913 0.973384 0.520743 1
-0.746646 1.043111 0.444565 1
-0.722851 0.932521 0.452442 1
-0.724887 1.027870 0.515991 1
-0.743809 1.003278 0.411196 1
-0.717975 0.938975 0.506692 1
-0.744132 1.054000 0.475123 1
-0.726517 0.950560 0.420586 1
-0.716005 0.995988 0.530295 1
-0.750850 1.035439 0.423965 1
-0.719373 0.920122 0.474123 1
-0.732181 1.047788 0.507414 1
-0.738302 0.981741 0.402542 1
-0.715590 0.952822 0.527245 1
-0.751174 1.057803 0.453379 1
-0.720802 0.928319 0.434011 1
-0.719963 1.021045 0.532266 1
-0.754106 1.017374 0.405512 1
-0.713320 0.920846 0.499671 1
-0.742784 1.062301 0.490915 1
-0.732200 0.955167 0.403214 1
-0.715698 0.976187 0.541974 1
-0.756880 1.051881 0.429110 1
-0.718189 0.909378 0.457393 1
-0.726316 1.046120 0.524562 1
-0.752625 0.991852 0.392618 1
-0.714633 0.929532 0.526923 1
-0.752179 1.069737 0.467435 1
-0.723800 0.929171 0.414502 1
-0.715958 1.006867 0.546577 1
-0.761770 1.034957 0.406037 1
-0.723063 0.895077 0.489455 1
-0.736790 1.066025 0.508459 1
-0.744956 0.962720 0.388611 1
-0.713964 0.953010 0.547613 1
-0.759136 1.067811 0.439977 1
-0.712615 0.909864 0.435924 1
-0.722364 1.036609 0.542113 1
-0.761334 1.009475 0.387590 1
-0.710653 0.909302 0.518203 1
-0.748138 1.078505 0.484689 1
-0.729300 0.936287 0.395518 1
-0.716762 0.984115 0.559363 1
-0.765852 1.054103 0.412513 1
-0.714914 0.889543 0.468285 1
-0.731088 1.063086 0.527435 1
-0.756898 0.976967 0.377654 1
-0.709678 0.929615 0.545744 1
-0.761189 1.080224 0.456083 1
-0.715630 0.911637 0.414174 1
-0.719087 1.020360 0.558310 1
-0.766980 1.030621 0.388328 1
-0.734415 0.869019 0.511293 1
-0.742954 1.081874 0.504458 1
-0.744350 0.944059 0.379067 1
-0.713809 0.959222 0.565668 1
-0.767148 1.072412 0.424495 1
-0.971348 0.667025 0.491152 1
-0.727517 1.052714 0.547232 1
-0.765898 0.997171 0.371680 1
-0.706355 0.905943 0.537193 1
-0.756133 1.090502 0.474985 1
-0.728837 0.913583 0.393291 1
-0.717711 0.997265 0.572304 1
-0.768037 1.053655 0.394848 1
-0.999395 0.620216 0.560377 1
-0.736530 1.079521 0.525346 1
-0.759236 0.958473 0.366024 1
-0.708023 0.933930 0.564460 1
-0.771442 1.086204 0.442065 1
-0.720199 1.037823 0.564160 1
-0.765535 1.024122 0.371466 1
-0.716400 0.873575 0.526307 1
-0.725005 0.997295 0.483067 1
-0.726110 1.005160 0.474297 1
-0.724301 0.979617 0.486185 1
-0.725502 1.014104 0.493044 1
-0.727565 0.991543 0.462153 1
-0.716818 0.986700 0.503777 1
-0.729651 1.023897 0.474218 1
-0.725267 0.966879 0.472365 1
-0.720730 1.011736 0.510126 1
-0.733086 1.007121 0.452882 1
-0.715819 0.965624 0.499901 1
-0.730600 1.033103 0.491243 1
-0.728704 0.973084 0.452330 1
-0.715657 0.992665 0.521256 1
-0.736365 1.028688 0.458423 1
-0.718123 0.951390 0.480833 1
-0.722630 1.030298 0.512552 1
-0.733584 0.994742 0.439063 1
-0.712469 0.965723 0.518313 1
-0.738530 1.043181 0.478655 1
-0.725107 0.952820 0.454818 1
-0.715015 1.010439 0.530023 1
-0.738469 1.022912 0.440792 1
-0.712908 0.943035 0.498610 1
-0.730852 1.045982 0.505569 1
-0.731895 0.974211 0.432991 1
-0.715190 0.974961 0.536536 1
-0.743914 1.045521 0.459768 1
-0.723943 0.931913 0.468679 1
-0.720903 1.030426 0.531096 1
-0.738212 1.007414 0.426061 1
-0.710267 0.944158 0.520766 1
-0.740601 1.056651 0.490249 1
-0.726618 0.951128 0.436195 1
-0.714557 0.996820 0.546575 1
-0.746122 1.038892 0.438900 1
-0.718256 0.920803 0.490128 1
-0.729030 1.050069 0.522753 1
-0.736780 0.983660 0.417879 1
-0.710042 0.956197 0.542092 1
-0.747972 1.060419 0.468561 1
-0.722572 0.927353 0.450080 1
-0.719414 1.021621 0.548880 1
-0.746080 1.022671 0.420283 1
-0.711292 0.921885 0.515611 1
-0.737265 1.065746 0.505520 1
-0.729521 0.957802 0.418455 1
-0.712054 0.978171 0.557652 1
-0.752652 1.055043 0.444169 1
-0.722193 0.906171 0.474436 1
-0.725623 1.047119 0.540942 1
-0.743365 0.998237 0.407527 1
-0.708100 0.933692 0.541489 1
-0.747436 1.072944 0.482303 1
-0.723788 0.929762 0.430110 1
-0.717315 1.006063 0.564343 1
-0.754263 1.039789 0.420938 1
-0.712763 0.902921 0.503111 1
-0.734583 1.067994 0.524123 1
-0.738845 0.967656 0.403815 1
-0.709915 0.955133 0.563291 1
-0.755867 1.070528 0.455191 1
-0.717555 0.906092 0.452560 1
-0.721686 1.037382 0.558844 1
-0.753915 1.014633 0.402795 1
-0.706830 0.911483 0.533753 1
-0.744436 1.081245 0.499796 1
-0.726095 0.939401 0.410748 1
-0.717162 0.983467 0.577180 1
-0.760744 1.057703 0.427643 1
-0.720469 0.884535 0.486046 1
-0.730620 1.064183 0.543954 1
-0.747500 0.983745 0.392949 1
-0.705937 0.931441 0.561567 1
-0.757891 1.082926 0.471358 1
-0.715295 0.912351 0.429658 1
-0.715383 1.022465 0.574051 1
-0.761826 1.034471 0.403694 1
-0.724647 0.876424 0.525490 1
-0.742686 1.083238 0.520728 1
-0.735337 0.951206 0.394275 1
-0.713208 0.958825 0.583258 1
-0.764232 1.075058 0.439853 1
-0.725524 1.054288 0.563521 1
-0.758058 1.002777 0.387206 1
-0.701423 0.908764 0.552443 1
-0.753056 1.093086 0.490282 1
-0.723537 0.918394 0.408467 1
-0.711462 1.000661 0.587135 1
-0.766770 1.055708 0.410404 1
-0.946508 0.666331 0.570049 1
-0.737426 1.080304 0.542340 1
-0.751929 0.964339 0.381727 1
-0.702454 0.936923 0.579641 1
-0.773415 1.087118 0.458407 1
-0.709643 0.893121 0.434827 1
-0.720778 1.037846 0.581950 1
-0.763787 1.026458 0.387055 1
-0.709320 0.878484 0.541014 1
-0.720457 0.996190 0.495597 1
-0.725726 1.001772 0.487834 1
-0.719676 0.978490 0.498766 1
-0.721189 1.012825 0.505661 1
-0.726493 0.988534 0.475434 1
-0.717329 0.982227 0.517998 1
-0.728085 1.021345 0.487449 1
-0.720968 0.965646 0.485009 1
-0.716664 1.010172 0.522892 1
-0.729046 1.005992 0.465490 1
-0.716923 0.960477 0.514298 1
-0.725863 1.032103 0.503755 1
-0.725765 0.971196 0.465195 1
-0.712080 0.990610 0.534297 1
-0.732568 1.027431 0.471101 1
-0.717839 0.947220 0.494554 1
-0.719208 1.028463 0.525529 1
-0.730655 0.993061 0.451861 1
-0.714420 0.959778 0.533373 1
-0.734265 1.042046 0.491336 1
-0.722858 0.950336 0.467852 1
-0.716373 1.005589 0.545009 1
-0.734639 1.021785 0.453438 1
-0.709702 0.940647 0.511645 1
-0.726865 1.044555 0.518383 1
-0.729378 0.972250 0.445859 1
-0.712346 0.972158 0.550135 1
-0.740331 1.044187 0.472593 1
-0.721506 0.929264 0.481858 1
-0.721760 1.026219 0.545921 1
-0.735851 1.005571 0.438921 1
-0.712746 0.937364 0.536137 1
-0.735418 1.055882 0.502743 1
-0.724972 0.948425 0.449211 1
-0.713468 0.993052 0.560984 1
-0.742119 1.037872 0.451610 1
-0.713935 0.919241 0.502925 1
-0.726687 1.047776 0.536286 1
-0.733180 0.982534 0.430583 1
-0.710513 0.950816 0.557158 1
-0.742917 1.059704 0.481127 1
-0.721634 0.923779 0.463382 1
-0.716077 1.019397 0.562355 1
-0.740984 1.022323 0.432852 1
-0.707719 0.919422 0.528776 1
-0.733768 1.064184 0.518540 1
-0.726601 0.956186 0.431192 1
-0.714768 0.971555 0.574057 1
-0.748530 1.054051 0.456954 1
-0.719778 0.903246 0.487743 1
-0.723723 1.044462 0.554888 1
-0.738314 0.998023 0.420136 1
-0.703911 0.931448 0.554642 1
-0.742629 1.072060 0.494936 1
-0.724170 0.925481 0.443419 1
-0.715226 1.002852 0.578671 1
-0.748826 1.039537 0.433573 1
-0.707743 0.901686 0.515751 1
-0.731411 1.066202 0.537409 1
-0.733185 0.967941 0.416377 1
-0.707783 0.951328 0.577670 1
-0.751819 1.069458 0.468047 1
-0.719091 0.900282 0.466400 1
-0.718507 1.035131 0.572523 1
-0.746749 1.015473 0.415373 1
-0.701908 0.909789 0.546573 1
-0.741085 1.079726 0.512883 1
-0.724346 0.936980 0.423584 1
-0.714668 0.980124 0.591662 1
-0.755012 1.057469 0.440304 1
-0.716003 0.883012 0.498948 1
-0.727951 1.062030 0.557658 1
-0.741211 0.984401 0.405624 1
-0.703444 0.927624 0.575777 1
-0.751009 1.082858 0.483630 1
-0.717501 0.906389 0.443157 1
-0.715170 1.018330 0.589391 1
-0.755583 1.034693 0.416456 1
-0.716857 0.877147 0.537642 1
-0.743584 1.079990 0.535473 1
-0.734193 0.948627 0.407213 1
-0.711135 0.954820 0.598121 1
-0.760420 1.073961 0.452843 1
-0.993785 0.641776 0.540032 1
-0.724925 1.050957 0.578444 1
-0.751121 1.003669 0.400027 1
-0.703958 0.900627 0.568773 1
-0.748122 1.092224 0.502967 1
-0.720858 0.916587 0.421202 1
-0.709707 0.996953 0.602047 1
-0.761750 1.055251 0.423307 1
-0.939820 0.664657 0.588279 1
-0.737266 1.077306 0.557071 1
-0.746218 0.964814 0.394648 1
-0.705260 0.928892 0.596868 1
-0.761682 1.088752 0.470022 1
-0.714477 0.884507 0.448846 1
-0.724132 1.032124 0.599276 1
-0.760788 1.025254 0.400165 1
-0.705272 0.875756 0.554463 1
-0.717924 0.989247 0.508661 1
-0.720726 0.996403 0.500170 1
-0.713837 0.973400 0.510914 1
-0.717190 1.006821 0.518347 1
-0.721230 0.983357 0.487672 1
-0.711858 0.976728 0.530380 1
-0.723741 1.015741 0.499936 1
-0.714313 0.961170 0.496907 1
-0.716041 1.002047 0.536955 1
-0.728662 0.998224 0.478779 1
-0.710869 0.955243 0.526528 1
-0.724204 1.025066 0.517164 1
-0.723292 0.964218 0.478060 1
-0.712655 0.981240 0.549104 1
-0.730632 1.020743 0.484095 1
-0.712090 0.941914 0.506785 1
-0.719683 1.020056 0.540010 1
-0.729475 0.985699 0.464852 1
-0.708801 0.954019 0.545917 1
-0.729375 1.036793 0.503745 1
-0.721051 0.942598 0.480928 1
-0.714124 0.998109 0.558910 1
-0.733187 1.014925 0.466376 1
-0.710283 0.930410 0.526081 1
-0.725378 1.037484 0.532065 1
-0.725545 0.966364 0.458316 1
-0.708036 0.965449 0.563355 1
-0.735884 1.038844 0.485089 1
-0.715598 0.924087 0.494091 1
-0.718992 1.019317 0.559613 1
-0.732159 0.999901 0.451380 1
-0.706527 0.931809 0.548549 1
-0.732198 1.049857 0.515728 1
-0.725001 0.939606 0.462443 1
-0.716800 0.981742 0.577763 1
-0.738357 1.032315 0.464165 1
-0.708078 0.913701 0.515232 1
-0.726203 1.040126 0.550673 1
-0.729453 0.976811 0.442999 1
-0.704331 0.945091 0.569734 1
-0.739673 1.053844 0.493991 1
-0.721584 0.914365 0.476868 1
-0.713719 1.012027 0.576487 1
-0.739326 1.015738 0.445644 1
-0.705621 0.910557 0.542683 1
-0.732532 1.057263 0.532343 1
-0.727273 0.947287 0.444247 1
-0.710159 0.964750 0.587593 1
-0.744169 1.048786 0.469500 1
-0.714578 0.897226 0.500285 1
-0.721231 1.037591 0.568806 1
-0.737062 0.991067 0.432876 1
-0.700550 0.923409 0.568426 1
-0.738848 1.066433 0.507741 1
-0.721924 0.918027 0.456194 1
-0.713364 0.994752 0.593478 1
-0.743790 1.034697 0.445952 1
-0.706187 0.892233 0.529673 1
-0.729326 1.059553 0.551191 1
-0.731804 0.960752 0.429043 1
-0.703723 0.943820 0.591539 1
-0.746886 1.064407 0.480545 1
-0.724312 0.886048 0.481234 1
-0.716651 1.027653 0.587064 1
-0.742591 1.010264 0.427843 1
-0.700642 0.899765 0.561180 1
-0.738300 1.073653 0.526144 1
-0.727748 0.925842 0.436914 1
-0.712680 0.971531 0.606843 1
-0.749962 1.052591 0.452773 1
-0.930387 0.687453 0.580180 1
-0.724459 1.055820 0.571179 1
-0.737434 0.978935 0.418069 1
-0.699667 0.919547 0.589810 1
-0.746178 1.077731 0.496181 1
-0.717620 0.896779 0.456304 1
-0.709951 1.012288 0.602640 1
-0.748658 1.030824 0.428732 1
-0.710696 0.870915 0.550458 1
-0.735088 1.076034 0.546988 1
-0.729421 0.943619 0.419510 1
-0.711466 0.943982 0.614824 1
-0.753763 1.069641 0.465105 1
-1.005564 0.616340 0.563760 1
-0.722458 1.043976 0.592835 1
-0.745575 0.999271 0.412458 1
-0.697911 0.894115 0.581720 1
-0.743868 1.086835 0.515738 1
-0.718894 0.909109 0.433742 1
-0.700226 0.993185 0.613204 1
-0.755189 1.051085 0.435687 1
-0.857497 0.723478 0.580160 1
-0.731889 1.071999 0.569872 1
-0.736300 0.963198 0.406746 1
-0.700264 0.921490 0.610721 1
-0.753643 1.084819 0.481966 1
-1.018568 0.613156 0.523060 1
-0.718997 1.026060 0.612816 1
-0.753604 1.021607 0.412605 1
-0.698273 0.870026 0.566921 1
-0.715379 0.978873 0.522446 1
-0.716700 0.987139 0.513383 1
-0.710464 0.963270 0.524442 1
-0.714728 0.996581 0.532265 1
-0.717787 0.973715 0.500930 1
-0.709551 0.965687 0.544613 1
-0.719521 1.006817 0.513087 1
-0.711718 0.950504 0.510490 1
-0.712697 0.992015 0.550894 1
-0.722018 0.990735 0.491211 1
-0.708946 0.943551 0.540887 1
-0.718822 1.016672 0.530129 1
-0.715728 0.957163 0.490223 1
-0.711497 0.969284 0.564230 1
-0.724796 1.012873 0.496756 1
-0.712261 0.928705 0.521472 1
-0.717021 1.009885 0.554268 1
-0.722967 0.978217 0.477289 1
-0.706351 0.942379 0.560479 1
-0.724075 1.028570 0.516659 1
-0.713676 0.935251 0.493161 1
-0.711575 0.987251 0.573622 1
-0.729213 1.006181 0.479407 1
-0.707776 0.918621 0.540296 1
-0.722631 1.027709 0.546171 1
-0.722073 0.956880 0.471320 1
-0.706159 0.953397 0.578534 1
-0.729552 1.031282 0.497690 1
-0.713023 0.912745 0.507763 1
-0.715144 1.009559 0.573753 1
-0.729915 0.990186 0.464616 1
-0.701648 0.921500 0.562196 1
-0.728138 1.041016 0.529195 1
-0.718731 0.931685 0.474925 1
-0.713645 0.970680 0.592750 1
-0.733356 1.024248 0.477019 1
-0.706838 0.900713 0.529681 1
-0.721443 1.031193 0.564310 1
-0.727448 0.966727 0.456160 1
-0.701011 0.933520 0.584438 1
-0.733736 1.046055 0.506798 1
-0.714971 0.906259 0.489355 1
-0.712689 1.000346 0.592274 1
-0.733643 1.008105 0.458312 1
-0.696570 0.903392 0.554568 1
-0.729946 1.047672 0.546569 1
-0.726246 0.936030 0.457608 1
-0.709862 0.951236 0.604271 1
-0.738461 1.041056 0.482317 1
-0.716752 0.881279 0.515612 1
-0.715407 1.029006 0.582178 1
-0.733671 0.982107 0.445834 1
-0.701985 0.907581 0.585422 1
-0.735443 1.057515 0.521387 1
-0.719915 0.906749 0.469505 1
-0.703137 0.988099 0.605042 1
-0.738443 1.026957 0.458744 1
-0.718158 0.867072 0.549601 1
-0.725295 1.050486 0.565116 1
-0.726287 0.952920 0.441593 1
-0.705814 0.927828 0.609648 1
-0.741972 1.056296 0.493646 1
-0.720156 0.875478 0.494530 1
-0.712064 1.018117 0.601319 1
-0.738546 1.001883 0.440758 1
-0.695886 0.888553 0.575173 1
-0.734086 1.064994 0.539738 1
-0.723521 0.916655 0.449682 1
-0.703033 0.964198 0.618969 1
-0.744189 1.045012 0.465615 1
-0.857281 0.731974 0.576211 1
-0.722747 1.045457 0.586454 1
-0.734972 0.969455 0.431046 1
-0.693168 0.909636 0.603402 1
-0.741198 1.069609 0.509345 1
-0.720067 0.881409 0.470514 1
-0.705536 1.002253 0.617293 1
-0.742874 1.023409 0.441508 1
-0.702752 0.862188 0.563166 1
-0.730548 1.067376 0.560683 1
-0.728556 0.932547 0.432578 1
-0.706910 0.932579 0.630099 1
-0.748112 1.061935 0.478072 1
-1.007495 0.593203 0.586169 1
-0.722164 1.032460 0.609409 1
-0.739222 0.992245 0.425115 1
-0.686301 0.888393 0.592636 1
-0.740502 1.078024 0.529539 1
-0.719304 0.896124 0.447065 1
-0.695363 0.982984 0.627809 1
-0.748904 1.043833 0.448514 1
-0.711607 0.839796 0.544575 1
-0.729151 1.062352 0.584696 1
-0.733911 0.953622 0.419621 1
-0.684602 0.918632 0.619443 1
-0.747488 1.077234 0.494861 1
-0.716631 1.014994 0.628911 1
-0.746099 1.015142 0.425292 1
-0.689524 0.861793 0.579232 1
-0.713880 0.967430 0.538526 1
-0.715021 0.976080 0.529176 1
-0.708534 0.951764 0.540423 1
-0.713546 0.985208 0.548562 1
-0.715037 0.963224 0.516242 1
-0.709897 0.952439 0.561969 1
-0.718199 0.995928 0.528924 1
-0.710682 0.938280 0.526567 1
-0.715618 0.977825 0.569384 1
-0.718894 0.980844 0.506242 1
-0.707842 0.930794 0.557692 1
-0.718831 1.005079 0.546756 1
-0.712117 0.947113 0.505161 1
-0.708486 0.958131 0.580665 1
-0.722820 1.002603 0.512138 1
-0.710594 0.916291 0.537735 1
-0.718757 0.996914 0.572299 1
-0.719532 0.968486 0.492127 1
-0.703232 0.930792 0.576886 1
-0.723506 1.017656 0.532775 1
-0.711035 0.924101 0.508510 1
-0.714097 0.972890 0.592776 1
-0.726871 0.996157 0.494532 1
-0.704495 0.906947 0.556361 1
-0.723787 1.015618 0.563669 1
-0.718667 0.946897 0.486178 1
-0.708957 0.937599 0.598216 1
-0.726822 1.021661 0.512858 1
-0.711509 0.900047 0.523877 1
-0.713058 0.998554 0.590612 1
-0.727218 0.980278 0.479544 1
-0.703763 0.905284 0.581126 1
-0.729124 1.029480 0.546153 1
-0.716092 0.920712 0.490085 1
-0.711594 0.958571 0.610427 1
-0.731285 1.014350 0.492166 1
-0.706261 0.886587 0.546646 1
-0.717443 1.021682 0.580029 1
-0.724979 0.956434 0.471087 1
-0.702856 0.917589 0.603982 1
-0.731033 1.036530 0.522117 1
-0.713935 0.893316 0.505279 1
-0.706406 0.991445 0.607503 1
-0.731762 0.998038 0.473319 1
-0.699686 0.885758 0.573739 1
-0.726773 1.038103 0.562336 1
-0.726137 0.923539 0.473168 1
-0.711429 0.935922 0.624377 1
-0.734511 1.032218 0.497083 1
-0.720216 0.863459 0.533867 1
-0.714050 1.017937 0.599468 1
-0.731191 0.972136 0.460689 1
-0.692163 0.900335 0.599234 1
-0.735674 1.046733 0.537906 1
-0.721104 0.892373 0.485638 1
-0.695233 0.979972 0.619537 1
-0.735905 1.017462 0.473633 1
-0.709958 0.858465 0.564373 1
-0.721772 1.041004 0.580994 1
-0.724682 0.942011 0.456520 1
-0.694264 0.921696 0.622727 1
-0.738132 1.047451 0.508564 1
-0.711984 1.005910 0.619891 1
-0.736440 0.991995 0.455634 1
-0.687373 0.880206 0.589522 1
-0.731420 1.055481 0.555534 1
-0.722820 0.904290 0.465013 1
-0.695782 0.955171 0.634300 1
-0.741203 1.035852 0.480526 1
-0.713542 0.843510 0.544996 1
-0.723582 1.033638 0.604922 1
-0.732933 0.959187 0.445883 1
-0.678067 0.906618 0.614251 1
-0.737910 1.060575 0.524537 1
-0.700362 0.992485 0.633517 1
-0.740524 1.013895 0.456350 1
-0.690757 0.856896 0.576079 1
-0.729125 1.057246 0.577347 1
-0.728725 0.920120 0.447788 1
-0.690794 0.929631 0.640607 1
-0.744050 1.053297 0.492868 1
-0.737993 0.817948 0.527145 1
-1.048663 0.853446 0.805510 1
-0.736332 0.982830 0.439771 1
-0.672691 0.884392 0.604267 1
-0.738436 1.068485 0.545403 1
-0.726063 0.877281 0.463754 1
-0.689438 0.973275 0.643836 1
-0.744506 1.035402 0.463105 1
-0.687419 0.846297 0.552761 1
-0.730833 1.050601 0.603470 1
-0.730475 0.944187 0.434199 1
-0.672970 0.912613 0.632148 1
-0.742288 1.069073 0.509421 1
-0.745007 0.818079 0.499779 1
-1.021303 0.832573 0.829374 1
-0.742452 1.006323 0.439908 1
-0.675421 0.858403 0.590849 1
-0.708383 0.956886 0.560024 1
-0.713012 0.963585 0.551711 1
-0.707840 0.937534 0.563957 1
-0.713848 0.971281 0.572520 1
-0.713249 0.950424 0.538625 1
-0.708075 0.938710 0.585794 1
-0.714088 0.985167 0.550528 1
-0.710322 0.923608 0.549955 1
-0.711789 0.966025 0.592350 1
-0.715335 0.969709 0.527695 1
-0.701092 0.920168 0.579377 1
-0.717108 0.992951 0.569698 1
-0.710676 0.933803 0.527446 1
-0.711146 0.941212 0.607310 1
-0.718683 0.992142 0.533409 1
-0.701184 0.907776 0.558141 1
-0.713511 0.986358 0.594532 1
-0.714763 0.958060 0.513069 1
-0.704190 0.914008 0.602772 1
-0.721250 1.006256 0.555067 1
-0.710377 0.909503 0.531367 1
-0.707308 0.962585 0.614986 1
-0.720095 0.987268 0.514864 1
-0.701393 0.892905 0.579844 1
-0.715469 1.007143 0.584215 1
-0.715242 0.935242 0.507577 1
-0.705216 0.924256 0.622554 1
-0.723036 1.011319 0.534168 1
-0.708760 0.886131 0.546735 1
-0.702455 0.991016 0.610447 1
-0.721936 0.970463 0.500244 1
-0.691928 0.897888 0.601058 1
-0.722670 1.020320 0.567144 1
-0.714292 0.907200 0.512226 1
-0.699477 0.951388 0.630269 1
-0.726129 1.004774 0.512876 1
-0.703710 0.871660 0.570326 1
-0.711973 1.011661 0.602029 1
-0.720803 0.945655 0.492094 1
-0.690147 0.910638 0.623651 1
-0.728958 1.025515 0.544177 1
-0.717799 0.874109 0.529896 1
-0.696751 0.983122 0.628093 1
-0.726739 0.988350 0.493959 1
-0.687593 0.878544 0.593543 1
-0.720565 1.028830 0.583604 1
-0.718654 0.914553 0.493740 1
-0.695188 0.931333 0.642327 1
-0.728696 1.023134 0.517593 1
-0.730263 0.837056 0.562560 1
-0.716166 1.003528 0.626041 1
-0.724564 0.963238 0.481038 1
-0.674269 0.897832 0.615804 1
-0.731664 1.036682 0.559658 1
-0.724644 0.873847 0.509551 1
-0.688567 0.969447 0.642080 1
-0.731200 1.007823 0.494292 1
-0.690569 0.857680 0.581297 1
-0.724139 1.027498 0.606681 1
-0.723881 0.928834 0.478128 1
-0.681297 0.914763 0.642280 1
-0.732109 1.038517 0.529128 1
-0.879061 0.702889 0.588273 1
-0.712853 0.991528 0.646870 1
-0.729958 0.983212 0.475947 1
-0.670522 0.877070 0.606699 1
-0.727243 1.045564 0.577432 1
-0.727889 0.885403 0.488465 1
-0.679308 0.950898 0.651419 1
-0.734372 1.027357 0.500725 1
-0.696191 0.841197 0.563132 1
-1.053242 0.855824 0.807041 1
-0.726210 0.950384 0.466255 1
-0.664367 0.900482 0.632909 1
-0.735209 1.050266 0.546359 1
-0.899477 0.694681 0.559805 1
-0.699986 0.978127 0.660430 1
-0.734793 1.004862 0.476750 1
-0.678053 0.849961 0.595700 1
-0.733527 1.043430 0.603759 1
-0.729152 0.905624 0.469744 1
-0.673803 0.925686 0.657650 1
-0.736545 1.045119 0.512924 1
-0.699132 0.835815 0.538716 1
-0.990081 0.864663 0.813070 1
-0.732292 0.972689 0.460454 1
-0.657206 0.879973 0.621812 1
-0.733981 1.058919 0.566984 1
-1.041116 0.598057 0.557552 1
-0.684547 0.961053 0.668386 1
-0.739285 1.026236 0.483604 1
-0.682830 0.831769 0.575799 1
-1.064461 0.886173 0.803711 1
-0.732026 0.929765 0.455861 1
-0.665146 0.901175 0.654852 1
-0.738226 1.059524 0.530510 1
-0.723299 0.820081 0.518079 1
-0.966437 0.843397 0.837173 1
-0.737927 0.996705 0.460493 1
-0.658918 0.855088 0.608092 1
-0.706873 0.941764 0.583375 1
-0.707971 0.951143 0.573319 1
-0.702104 0.924788 0.585759 1
-0.710711 0.957499 0.595523 1
-0.709375 0.937064 0.560493 1
-0.710411 0.919771 0.612261 1
-0.711321 0.971829 0.572837 1
-0.702121 0.912617 0.570568 1
-0.711233 0.950110 0.617382 1
-0.709203 0.958430 0.548309 1
-0.697848 0.904781 0.602904 1
-0.713453 0.980101 0.592197 1
-0.711000 0.917126 0.550646 1
-0.705795 0.927575 0.630681 1
-0.712173 0.981392 0.553862 1
-0.703609 0.887801 0.583575 1
-0.699328 0.979460 0.612452 1
-0.709107 0.946457 0.533650 1
-0.687980 0.908253 0.620278 1
-0.716005 0.994771 0.576420 1
-0.702599 0.898249 0.551926 1
-0.693439 0.955161 0.633442 1
-0.714489 0.976112 0.535359 1
-0.689586 0.883825 0.599487 1
-0.707214 0.997073 0.604737 1
-0.710138 0.922872 0.528453 1
-0.691071 0.916604 0.641399 1
-0.718833 0.999581 0.555411 1
-0.701775 0.873457 0.568141 1
-0.696017 0.979340 0.632501 1
-0.714631 0.960260 0.520175 1
-0.672114 0.895374 0.616338 1
-0.715931 1.009760 0.588025 1
-0.707843 0.895178 0.533006 1
-0.683073 0.945551 0.647333 1
-0.719069 0.994694 0.532866 1
-0.688751 0.865236 0.588634 1
-0.708697 0.998727 0.625466 1
-0.713403 0.935288 0.512076 1
-0.674867 0.903958 0.641545 1
-0.723032 1.014796 0.565003 1
-0.714002 0.858743 0.552443 1
-0.689589 0.971507 0.650266 1
-0.718476 0.978973 0.513515 1
-0.668710 0.875506 0.609390 1
-0.718955 1.015667 0.607184 1
-0.717399 0.899023 0.515710 1
-0.674855 0.928293 0.657131 1
-0.722461 1.012793 0.537823 1
-0.692791 0.850630 0.572360 1
-1.023721 0.813030 0.830968 1
-0.718819 0.952166 0.501255 1
-0.659688 0.890819 0.633675 1
-0.723028 1.027279 0.579644 1
-0.711593 0.866666 0.528787 1
-0.683715 0.955733 0.666268 1
-0.724153 0.997920 0.514147 1
-0.676608 0.850169 0.599978 1
-0.724716 1.012956 0.632365 1
-0.715533 0.919092 0.497933 1
-0.667563 0.906606 0.661193 1
-0.730555 1.026038 0.551144 1
-0.713736 0.829649 0.557279 1
-0.996554 0.804871 0.853827 1
-0.722843 0.973281 0.495748 1
-0.650094 0.875622 0.621079 1
-0.727253 1.032150 0.601483 1
-0.725872 0.869715 0.510576 1
-0.668412 0.940932 0.671937 1
-0.727333 1.017573 0.520580 1
-0.682511 0.833559 0.582066 1
-1.030263 0.845896 0.835255 1
-0.724132 0.936845 0.487221 1
-0.655919 0.887727 0.654889 1
-0.729326 1.039840 0.567158 1
-0.734927 0.818434 0.537952 1
-0.972432 0.784032 0.874748 1
-0.727247 0.995342 0.496417 1
-0.658299 0.847957 0.611074 1
-1.071816 0.873232 0.801680 1
-0.724764 0.892649 0.490714 1
-0.656666 0.920265 0.674105 1
-0.731124 1.034661 0.533344 1
-0.682958 0.831089 0.556525 1
-0.973418 0.852134 0.843268 1
-0.727305 0.961501 0.480692 1
-0.643539 0.871961 0.640115 1
-0.731445 1.047050 0.589543 1
-1.006536 0.601226 0.583427 1
-0.673390 0.951156 0.689206 1
-0.731043 1.017132 0.503113 1
-0.669890 0.823119 0.594991 1
-1.038976 0.877402 0.830429 1
-0.726115 0.918570 0.476186 1
-0.652770 0.891508 0.674798 1
-0.734943 1.048220 0.551900 1
-0.692179 0.829630 0.531751 1
-0.946253 0.832642 0.865232 1
-0.728622 0.988222 0.479829 1
-0.646003 0.846229 0.626959 1
-0.706156 0.920285 0.606495 1
-0.704648 0.932092 0.594738 1
-0.698215 0.904898 0.607519 1
-0.709548 0.936785 0.618874 1
-0.702806 0.920101 0.580206 1
-0.690396 0.911458 0.626518 1
-0.710374 0.951988 0.595195 1
-0.698829 0.892111 0.592129 1
-0.698574 0.936644 0.635458 1
-0.705742 0.940210 0.568755 1
-0.676415 0.898101 0.616074 1
-0.704484 0.965248 0.611375 1
-0.701504 0.902004 0.569096 1
-0.689541 0.916185 0.647042 1
-0.709311 0.963450 0.574619 1
-0.686981 0.877286 0.599433 1
-0.693716 0.962225 0.633724 1
-0.708201 0.926315 0.554643 1
-0.669476 0.899032 0.634833 1
-0.715981 0.975217 0.599223 1
-0.701162 0.876058 0.573674 1
-0.680512 0.941920 0.651215 1
-0.712897 0.957506 0.556061 1
-0.670210 0.875598 0.613674 1
-0.698685 0.982201 0.624161 1
-0.707401 0.903258 0.548789 1
-0.672104 0.907290 0.655918 1
-0.713509 0.983579 0.575215 1
-0.690503 0.858425 0.586335 1
-0.685848 0.964720 0.651716 1
-0.711515 0.942372 0.539970 1
-0.656851 0.883580 0.632437 1
-0.707639 0.995197 0.607212 1
-0.712003 0.868716 0.556168 1
-0.667026 0.934321 0.663249 1
-0.713594 0.979010 0.552068 1
-0.671173 0.855472 0.603828 1
-0.700066 0.983601 0.645445 1
-0.711852 0.915603 0.532251 1
-0.661528 0.889988 0.659419 1
-0.716932 0.999415 0.584719 1
-0.705530 0.841097 0.571875 1
-0.680354 0.955798 0.670595 1
-0.712095 0.963780 0.532065 1
-0.652287 0.864671 0.624797 1
-0.712445 0.999950 0.627809 1
-0.708059 0.884041 0.533826 1
-0.659558 0.916125 0.673757 1
-0.717400 0.997214 0.557253 1
-0.680412 0.836029 0.590106 1
-0.999054 0.796312 0.856135 1
-0.711031 0.937502 0.519317 1
-0.647623 0.875689 0.651987 1
-0.716041 1.012437 0.599243 1
-0.728545 0.827489 0.556521 1
-0.668822 0.943408 0.683269 1
-0.715454 0.984385 0.532019 1
-0.658884 0.840295 0.615006 1
-1.029340 0.829443 0.831299 1
-0.715365 0.898045 0.518178 1
-0.652667 0.893672 0.678305 1
-0.722565 1.011969 0.569876 1
-0.682301 0.833011 0.567484 1
-0.962891 0.793919 0.872585 1
-0.713660 0.959957 0.513335 1
-0.639999 0.858481 0.640264 1
-0.716570 1.018886 0.619875 1
-0.943598 0.662022 0.598033 1
-0.655299 0.927034 0.690219 1
-0.718494 1.004273 0.538467 1
-0.667676 0.820849 0.598690 1
-0.972355 0.847733 0.839483 1
-0.715454 0.922678 0.505051 1
-0.641573 0.874144 0.672202 1
-0.721926 1.025541 0.586325 1
-0.693698 0.830641 0.546071 1
-0.937139 0.774456 0.891853 1
-0.717874 0.982378 0.513966 1
-0.644111 0.834399 0.627887 1
-1.044772 0.857652 0.825898 1
-0.726411 0.869239 0.511529 1
-0.640931 0.908191 0.690464 1
-0.725618 1.019771 0.552572 1
-0.674941 0.812045 0.575797 1
-0.948236 0.836851 0.866323 1
-0.717785 0.948397 0.498207 1
-0.631159 0.856491 0.658327 1
-0.730797 1.029505 0.612390 1
-0.723302 0.821248 0.529637 1
-0.918941 0.740692 0.910381 1
-0.721682 1.004283 0.520728 1
-0.653037 0.812145 0.610514 1
-0.984264 0.876172 0.836895 1
-0.724706 0.898879 0.495670 1
-0.635413 0.880400 0.690219 1
-0.727288 1.034297 0.570727 1
-0.680138 0.815291 0.549007 1
-0.921621 0.816975 0.888550 1
-0.721964 0.973819 0.497922 1
-0.628105 0.836320 0.641411 1
-0.687665 0.904906 0.618423 1
-0.698300 0.908148 0.612396 1
-0.676880 0.891771 0.617902 1
-0.700325 0.914585 0.635874 1
-0.697914 0.894839 0.598108 1
-0.669909 0.897546 0.637202 1
-0.713066 0.922565 0.617168 1
-0.682096 0.875250 0.604871 1
-0.688452 0.914902 0.652309 1
-0.703186 0.914393 0.587113 1
-0.661360 0.879875 0.629582 1
-0.704204 0.938283 0.632510 1
-0.696280 0.876405 0.586566 1
-0.670782 0.900514 0.658935 1
-0.705205 0.939628 0.592381 1
-0.669972 0.860405 0.612013 1
-0.687076 0.939070 0.652210 1
-0.703658 0.901591 0.571777 1
-0.654550 0.880396 0.648703 1
-0.712654 0.950877 0.618263 1
-0.690111 0.854191 0.588917 1
-0.667936 0.922147 0.666659 1
-0.706687 0.935171 0.572428 1
-0.654840 0.857140 0.627086 1
-0.689309 0.961723 0.640557 1
-0.705359 0.875591 0.566832 1
-0.658640 0.887092 0.671260 1
-0.709270 0.960614 0.592830 1
-0.676761 0.838204 0.600583 1
-0.674015 0.945023 0.667436 1
-0.705943 0.919349 0.556176 1
-0.644340 0.862391 0.647785 1
-0.699921 0.974274 0.624004 1
-0.707796 0.840867 0.573967 1
-0.654360 0.914310 0.678893 1
-0.709059 0.956465 0.568831 1
-0.656052 0.836340 0.617410 1
-0.689992 0.963199 0.662071 1
-0.705916 0.891923 0.548263 1
-0.644120 0.872889 0.672163 1
-0.712275 0.977097 0.602387 1
-0.681433 0.830266 0.581677 1
-0.664945 0.938139 0.684414 1
-0.708722 0.940272 0.548679 1
-0.638269 0.844473 0.639125 1
-0.702745 0.979903 0.644155 1
-0.734633 0.831474 0.561457 1
-0.644822 0.897105 0.688379 1
-0.711482 0.976000 0.573566 1
-0.666349 0.815352 0.604310 1
-0.967257 0.775284 0.871984 1
-0.713530 0.908913 0.537495 1
-0.631719 0.857134 0.665565 1
-0.705501 0.993585 0.614391 1
-0.691692 0.827971 0.562192 1
-0.654548 0.924503 0.698230 1
-0.707916 0.964196 0.547147 1
-0.642477 0.821857 0.628034 1
-1.005297 0.803673 0.852147 1
-0.715245 0.869250 0.535743 1
-0.635212 0.876428 0.691218 1
-0.720070 0.989096 0.587958 1
-0.672075 0.808893 0.582969 1
-0.918474 0.782332 0.878391 1
-0.715050 0.933471 0.530832 1
-0.624386 0.839438 0.653850 1
-0.719133 0.992877 0.642441 1
-0.723448 0.816118 0.549655 1
-0.646842 0.902695 0.710116 1
-0.715071 0.982183 0.555136 1
-0.652410 0.800792 0.612387 1
-0.949594 0.822776 0.859735 1
-0.713334 0.896982 0.521403 1
-0.625142 0.855612 0.685870 1
-0.714955 1.005231 0.602841 1
-0.678934 0.811474 0.559350 1
-0.913485 0.748294 0.913029 1
-0.714340 0.959969 0.529970 1
-0.628377 0.814853 0.641463 1
-1.014963 0.835077 0.843282 1
-1.063516 0.553984 0.627165 1
-0.627583 0.887462 0.706617 1
-0.719010 0.999557 0.568493 1
-0.662884 0.788704 0.590748 1
-0.928200 0.810038 0.888763 1
-0.709176 0.928425 0.512543 1
-0.617143 0.835194 0.673562 1
-0.726678 1.007351 0.631183 1
-0.690825 0.818635 0.537463 1
-0.894980 0.713806 0.932074 1
-0.713655 0.984996 0.535489 1
-0.637184 0.792246 0.624001 1
-0.964343 0.849895 0.858836 1
-0.718198 0.875629 0.510824 1
-0.620417 0.860217 0.705430 1
-0.719948 1.014538 0.586718 1
-0.666355 0.794689 0.562566 1
-0.900701 0.790348 0.910780 1
-0.713260 0.954535 0.512225 1
-0.612508 0.816477 0.655184 1
-0.667042 0.885674 0.624341 1
-0.674583 0.891219 0.616851 1
-0.657738 0.871324 0.624575 1
-0.675219 0.898271 0.639466 1
-0.680987 0.872354 0.606051 1
-0.651506 0.876401 0.644344 1
-0.689291 0.905140 0.621797 1
-0.665867 0.851783 0.613212 1
-0.668034 0.894977 0.658468 1
-0.692112 0.887961 0.597546 1
-0.644694 0.856949 0.637773 1
-0.692970 0.911969 0.643752 1
-0.684524 0.849066 0.596900 1
-0.651500 0.879720 0.665765 1
-0.701208 0.908916 0.606074 1
-0.652868 0.837356 0.619986 1
-0.674816 0.913536 0.663163 1
-0.698033 0.870533 0.584263 1
-0.635937 0.859089 0.655863 1
-0.705079 0.922600 0.631022 1
-0.672426 0.831482 0.596599 1
-0.655607 0.896081 0.678047 1
-0.703241 0.904202 0.585651 1
-0.638547 0.833141 0.635669 1
-0.681715 0.933933 0.653756 1
-0.700975 0.842095 0.579835 1
-0.637609 0.867639 0.676995 1
-0.708268 0.928912 0.607783 1
-0.658941 0.815117 0.608311 1
-0.657680 0.922808 0.675786 1
-0.703527 0.887068 0.569275 1
-0.625326 0.841163 0.654766 1
-0.698854 0.942896 0.640160 1
-0.682180 0.825025 0.578450 1
-0.639752 0.889878 0.688990 1
-0.700934 0.929803 0.579863 1
-0.639613 0.811789 0.625971 1
-0.672465 0.941923 0.669548 1
-0.804682 0.774448 0.598575 1
-0.624052 0.852515 0.678593 1
-0.707345 0.948544 0.615712 1
-0.669555 0.801114 0.592059 1
-0.647681 0.916368 0.692364 1
-0.701920 0.912409 0.559780 1
-0.620666 0.821381 0.647095 1
-0.685343 0.958790 0.651542 1
-0.698073 0.824560 0.562546 1
-0.627953 0.874060 0.697174 1
-0.703615 0.949779 0.584723 1
-0.648404 0.791618 0.612122 1
-0.948968 0.737285 0.889607 1
-0.710707 0.876670 0.549821 1
-0.614807 0.833302 0.674366 1
-0.698536 0.966887 0.626871 1
-0.673387 0.805530 0.569480 1
-0.907447 0.671471 0.922850 1
-0.708051 0.932821 0.560609 1
-0.626106 0.796509 0.636931 1
-0.687545 0.956459 0.676716 1
-0.724950 0.823874 0.552367 1
-0.617201 0.853858 0.699438 1
-0.711620 0.963243 0.599214 1
-0.656498 0.782691 0.591703 1
-0.918940 0.731502 0.910068 1
-0.709229 0.904841 0.541863 1
-0.606512 0.816336 0.661874 1
-0.695920 0.974854 0.646698 1
-0.684913 0.812201 0.550107 1
-0.889643 0.637773 0.939803 1
-0.707336 0.956351 0.565911 1
-0.634803 0.776086 0.620538 1
-0.949443 0.775145 0.888909 1
-0.607373 0.832256 0.694464 1
-0.703476 0.981481 0.612799 1
-0.661971 0.787383 0.567068 1
-0.891596 0.712479 0.928972 1
-0.710180 0.931441 0.541411 1
-0.609461 0.792089 0.648909 1
-0.954841 0.822747 0.833859 1
-0.710232 0.814638 0.537321 1
-0.876646 0.592550 0.950999 1
-0.711475 0.973886 0.579603 1
-0.643919 0.765406 0.598004 1
-0.904683 0.777527 0.901860 1
-0.712959 0.892949 0.525756 1
-0.600046 0.810551 0.682714 1
-0.705344 0.988210 0.636552 1
-0.672520 0.796493 0.544513 1
-0.864582 0.684205 0.941593 1
-0.708809 0.957897 0.546765 1
-0.619262 0.767450 0.632160 1
-0.941392 0.817441 0.871735 1
-0.714402 0.987979 0.599038 1
-0.648245 0.771355 0.569774 1
-0.881112 0.754639 0.927628 1
-0.706848 0.927621 0.522500 1
-0.596610 0.789909 0.665060 1
-0.650718 0.856274 0.624872 1
-0.659850 0.860530 0.618108 1
-0.645799 0.837281 0.627823 1
-0.653144 0.873859 0.636629 1
-0.664446 0.842403 0.606405 1
-0.634353 0.847521 0.644718 1
-0.668105 0.879824 0.619557 1
-0.652921 0.817582 0.615796 1
-0.645219 0.871136 0.655083 1
-0.680388 0.854321 0.599989 1
-0.629625 0.825270 0.639660 1
-0.664791 0.891900 0.637392 1
-0.667486 0.818538 0.597098 1
-0.630713 0.854122 0.663825 1
-0.683122 0.880969 0.605438 1
-0.637852 0.804596 0.621772 1
-0.657660 0.885056 0.663256 1
-0.687719 0.834783 0.587144 1
-0.618205 0.830246 0.656252 1
-0.680434 0.899468 0.626892 1
-0.660184 0.795456 0.599293 1
-0.637077 0.868603 0.677524 1
-0.692378 0.870589 0.588105 1
-0.624173 0.799414 0.638328 1
-0.672542 0.899928 0.658454 1
-0.678470 0.816192 0.577576 1
-0.616819 0.841945 0.675218 1
-0.691140 0.900562 0.607500 1
-0.642496 0.782649 0.609297 1
-0.646665 0.889944 0.680133 1
-0.707607 0.840328 0.577420 1
-0.609295 0.809746 0.656674 1
-0.689753 0.909053 0.644372 1
-0.665774 0.793033 0.578837 1
-0.623876 0.859980 0.690683 1
-0.696804 0.892572 0.584909 1
-0.625995 0.775882 0.629143 1
-0.660635 0.910339 0.672812 1
-0.694768 0.820551 0.564126 1
-0.606156 0.823443 0.679317 1
-0.699403 0.914324 0.619870 1
-0.650596 0.770671 0.591619 1
-0.632851 0.886465 0.694380 1
-0.707476 0.866850 0.567876 1
-0.606596 0.786552 0.650594 1
-0.679467 0.923634 0.657834 1
-0.674580 0.799436 0.559954 1
-0.612237 0.843362 0.699512 1
-0.701318 0.912317 0.590587 1
-0.631902 0.757878 0.613440 1
-0.647286 0.911962 0.688425 1
-0.728769 0.817516 0.561710 1
-0.597359 0.802932 0.675790 1
-0.699233 0.927879 0.635751 1
-0.654443 0.775623 0.568737 1
-0.896726 0.613465 0.937053 1
-0.701229 0.897903 0.563958 1
-0.608146 0.764879 0.637882 1
-0.665337 0.932220 0.672979 1
-0.688163 0.810222 0.545425 1
-0.701854 0.931043 0.602031 1
-0.639348 0.749376 0.592310 1
-0.921041 0.666809 0.932509 1
-0.705008 0.866618 0.545640 1
-0.591556 0.782127 0.665376 1
-0.685454 0.943324 0.649895 1
-0.664246 0.784446 0.548514 1
-0.867658 0.588704 0.945896 1
-0.701798 0.921697 0.569802 1
-0.615324 0.745182 0.620493 1
-0.655519 0.929462 0.693383 1
-0.726076 0.806249 0.542858 1
-0.707958 0.941198 0.622763 1
-0.642987 0.756898 0.566357 1
-0.884461 0.654167 0.945821 1
-0.704817 0.895660 0.544742 1
-0.589172 0.763390 0.648540 1
-0.676780 0.947856 0.670863 1
-0.675515 0.800200 0.531263 1
-0.854366 0.541097 0.958367 1
-0.702777 0.941757 0.582457 1
-0.627937 0.729505 0.599574 1
-0.902722 0.719830 0.920060 1
-0.871148 0.723244 0.576724 1
-0.582074 0.779530 0.684453 1
-0.686942 0.961824 0.635097 1
-0.652371 0.767956 0.543062 1
-0.848135 0.632906 0.951818 1
-0.705707 0.921973 0.550969 1
-0.596833 0.740157 0.630501 1
-0.945344 0.758258 0.891391 1
-0.692255 0.817022 0.520001 1
-0.708395 0.954415 0.603386 1
-0.630719 0.738360 0.569857 1
-0.868024 0.704426 0.938447 1
-0.710849 0.885117 0.528014 1
-0.576731 0.760510 0.665339 1
-0.636700 0.802802 0.623718 1
-0.643535 0.809749 0.615190 1
-0.626926 0.787227 0.624255 1
-0.633538 0.827314 0.632214 1
-0.649310 0.788830 0.603830 1
-0.615661 0.798180 0.641797 1
-0.649244 0.832816 0.614959 1
-0.632184 0.767817 0.610955 1
-0.622401 0.827516 0.649078 1
-0.664176 0.802651 0.596321 1
-0.610484 0.774482 0.636774 1
-0.642030 0.849096 0.630748 1
-0.648471 0.766944 0.592407 1
-0.608852 0.808558 0.659126 1
-0.664086 0.833897 0.600305 1
-0.618252 0.752430 0.618176 1
-0.628964 0.847205 0.653095 1
-0.664462 0.788543 0.579949 1
-0.597915 0.781243 0.653213 1
-0.653684 0.860005 0.617815 1
-0.635295 0.748629 0.591992 1
-0.611337 0.827695 0.669812 1
-0.678196 0.818325 0.584742 1
-0.601168 0.750922 0.633408 1
-0.642058 0.863519 0.646998 1
-0.651594 0.773028 0.568774 1
-0.595997 0.794304 0.672073 1
-0.672096 0.854445 0.602199 1
-0.618936 0.733327 0.603247 1
-0.623030 0.847754 0.673487 1
-0.675839 0.801929 0.566529 1
-0.586249 0.762362 0.652242 1
-0.655022 0.875644 0.630619 1
-0.639213 0.748251 0.570342 1
-0.601374 0.815236 0.685982 1
-0.687549 0.837858 0.583415 1
-0.599381 0.729927 0.622035 1
-0.639516 0.866580 0.667371 1
-0.662330 0.782924 0.552998 1
-0.583453 0.776536 0.675458 1
-0.670500 0.876233 0.609626 1
-0.627637 0.719549 0.585404 1
-0.613066 0.840525 0.691117 1
-0.692400 0.815041 0.563354 1
-0.579841 0.742042 0.643835 1
-0.656584 0.881460 0.650801 1
-0.644602 0.759131 0.549767 1
-0.590096 0.796968 0.695951 1
-0.687048 0.863053 0.586969 1
-0.604166 0.711815 0.605530 1
-0.628335 0.866653 0.684870 1
-0.675848 0.797369 0.543517 1
-0.574779 0.754009 0.672689 1
-0.667773 0.891870 0.623870 1
-0.627261 0.730815 0.559933 1
-0.894173 0.508485 0.958774 1
-0.711976 0.827452 0.569099 1
-0.584482 0.713833 0.633454 1
-0.650379 0.884482 0.671280 1
-0.657540 0.770938 0.534940 1
-0.686084 0.883915 0.597904 1
-0.618974 0.692541 0.587797 1
-0.616217 0.858319 0.702455 1
-0.696342 0.809689 0.542596 1
-0.565802 0.735822 0.660058 1
-0.671017 0.895599 0.647543 1
-0.639194 0.737952 0.540105 1
-0.700990 0.863184 0.570870 1
-0.593842 0.688814 0.617081 1
-0.635974 0.885312 0.688982 1
-0.667577 0.792294 0.523722 1
-0.572374 0.745027 0.698730 1
-0.682706 0.900732 0.614167 1
-0.620337 0.704702 0.559667 1
-0.882522 0.553687 0.968034 1
-0.722159 0.819953 0.550335 1
-0.568983 0.706798 0.647611 1
-0.661542 0.900928 0.668501 1
-0.649229 0.756456 0.522088 1
-0.695213 0.889777 0.581316 1
-0.603932 0.675319 0.593813 1
-0.900576 0.628109 0.937433 1
-0.685271 0.809931 0.520763 1
-0.559913 0.727194 0.683146 1
-0.684311 0.907250 0.638729 1
-0.629908 0.717133 0.535569 1
-0.830393 0.546958 0.962262 1
-0.833719 0.765289 0.595335 1
-0.580185 0.675158 0.631497 1
-0.643416 0.904550 0.686266 1
-0.659382 0.780901 0.508848 1
-0.572977 0.741868 0.725304 1
-0.694859 0.906792 0.600133 1
-0.614850 0.674257 0.566735 1
-0.866609 0.610043 0.959814 1
-0.717169 0.817618 0.528543 1
-0.558155 0.700349 0.667118 1
-0.620513 0.753917 0.612801 1
-0.631337 0.756966 0.606102 1
-0.611101 0.736605 0.613848 1
-0.623124 0.773980 0.624969 1
-0.633326 0.738611 0.592270 1
-0.601055 0.746885 0.632907 1
-0.640172 0.778783 0.607381 1
-0.617129 0.714460 0.600512 1
-0.607339 0.779284 0.639665 1
-0.641164 0.761243 0.580963 1
-0.592583 0.725267 0.625876 1
-0.631980 0.797372 0.623333 1
-0.623449 0.726135 0.576132 1
-0.589205 0.764327 0.647178 1
-0.654873 0.780253 0.591728 1
-0.599475 0.702441 0.606191 1
-0.613755 0.800548 0.643361 1
-0.635484 0.753324 0.561810 1
-0.579057 0.733872 0.642282 1
-0.647804 0.805248 0.611917 1
-0.615097 0.700476 0.578239 1
-0.594089 0.781840 0.659543 1
-0.654881 0.777864 0.569113 1
-0.583847 0.698526 0.623241 1
-0.628217 0.816484 0.637637 1
-0.627481 0.731982 0.552701 1
-0.576262 0.748998 0.660720 1
-0.663101 0.802245 0.593648 1
-0.602090 0.678837 0.591954 1
-0.602841 0.806281 0.660628 1
-0.648302 0.765525 0.549068 1
-0.570356 0.708808 0.644078 1
-0.640230 0.830384 0.620071 1
-0.618807 0.700758 0.555924 1
-0.580759 0.772409 0.673685 1
-0.668035 0.794432 0.569407 1
-0.588949 0.664738 0.616122 1
-0.617489 0.827542 0.652825 1
-0.638597 0.742073 0.536895 1
-0.564231 0.728963 0.665185 1
-0.665269 0.822330 0.603265 1
-0.607146 0.669120 0.571449 1
-0.593385 0.797967 0.679039 1
-0.661374 0.781954 0.544647 1
-0.571845 0.673583 0.641776 1
-0.636483 0.840920 0.637255 1
-0.627319 0.709029 0.536060 1
-0.568353 0.754253 0.683332 1
-0.679848 0.809989 0.578405 1
-0.599297 0.635786 0.601820 1
-0.607737 0.826310 0.671473 1
-0.648866 0.760659 0.526262 1
-0.555349 0.704451 0.662827 1
-0.656671 0.844150 0.614973 1
-0.614016 0.671930 0.548410 1
-0.584046 0.779618 0.696263 1
-0.675860 0.798187 0.548544 1
-0.582311 0.631659 0.634912 1
-0.626626 0.847295 0.655331 1
-0.634778 0.728664 0.518910 1
-0.556592 0.730881 0.686935 1
-0.676850 0.834076 0.588900 1
-0.604577 0.629539 0.577194 1
-0.598411 0.814575 0.691694 1
-0.658849 0.783133 0.522022 1
-0.552268 0.674495 0.655389 1
-0.643846 0.861169 0.629642 1
-0.622762 0.684799 0.526319 1
-0.695082 0.809089 0.561942 1
-0.597227 0.593791 0.620252 1
-0.616743 0.844240 0.676320 1
-0.644652 0.751669 0.507652 1
-0.543458 0.709154 0.680907 1
-0.671414 0.853514 0.604688 1
-0.611753 0.635202 0.550197 1
-0.674984 0.800492 0.526676 1
-0.568098 0.619146 0.652612 1
-0.637805 0.863813 0.652440 1
-0.629758 0.709437 0.506791 1
-0.557642 0.732136 0.711319 1
-0.699922 0.829070 0.577403 1
-0.606181 0.581201 0.593239 1
-0.907126 0.526554 0.948915 1
-0.656724 0.775556 0.503199 1
-0.654935 0.874269 0.619762 1
-0.623554 0.647164 0.525182 1
-0.826009 0.445874 0.971536 1
-0.696304 0.812580 0.540281 1
-0.591935 0.559844 0.643458 1
-0.628502 0.860379 0.676449 1
-0.644683 0.730528 0.494698 1
-0.537024 0.716536 0.700279 1
-0.684294 0.859308 0.590508 1
-0.616667 0.582500 0.562575 1
-0.859121 0.520635 0.962417 1
-0.669511 0.799590 0.505694 1
-0.621220 0.715156 0.598751 1
-0.627205 0.724429 0.589037 1
-0.610749 0.697882 0.599411 1
-0.620130 0.740912 0.609118 1
-0.617543 0.719720 0.569183 1
-0.598086 0.712161 0.617651 1
-0.636332 0.746972 0.590456 1
-0.610163 0.683374 0.581887 1
-0.603907 0.746999 0.624188 1
-0.626765 0.741048 0.558814 1
-0.592219 0.685377 0.612307 1
-0.631433 0.762791 0.608779 1
-0.613149 0.700120 0.555749 1
-0.586116 0.730734 0.632486 1
-0.639561 0.760959 0.569055 1
-0.601102 0.658072 0.592826 1
-0.613371 0.765811 0.629821 1
-0.625575 0.727805 0.541674 1
-0.577631 0.695862 0.628918 1
-0.647461 0.770948 0.596889 1
-0.608891 0.667603 0.559665 1
-0.588485 0.752377 0.643069 1
-0.638837 0.759489 0.546464 1
-0.595304 0.638004 0.617383 1
-0.625966 0.784653 0.622522 1
-0.620038 0.702577 0.533388 1
-0.569777 0.719205 0.643964 1
-0.652909 0.777854 0.573401 1
-0.610907 0.621553 0.581553 1
-0.598918 0.775863 0.645222 1
-0.635642 0.743434 0.527859 1
-0.576417 0.656890 0.636491 1
-0.644347 0.792919 0.608035 1
-0.615991 0.663214 0.538319 1
-0.573498 0.744766 0.656248 1
-0.652997 0.774824 0.547202 1
-0.598107 0.604351 0.607877 1
-0.615671 0.795750 0.638494 1
-0.627117 0.718101 0.515974 1
-0.560642 0.693621 0.651095 1
-0.661426 0.792265 0.586132 1
-0.617639 0.608570 0.560314 1
-0.586158 0.771139 0.661371 1
-0.645604 0.763309 0.522443 1
-0.575535 0.622035 0.632168 1
-0.634085 0.810293 0.621996 1
-0.623913 0.673026 0.517654 1
-0.560370 0.726919 0.665539 1
-0.665519 0.789469 0.556401 1
-0.612467 0.566179 0.594155 1
-0.601304 0.799424 0.654210 1
-0.637944 0.736558 0.505615 1
-0.554026 0.663436 0.650897 1
-0.660106 0.808246 0.602037 1
-0.615799 0.625322 0.532173 1
-0.571684 0.758809 0.674317 1
-0.656049 0.783283 0.524976 1
-0.593165 0.563790 0.629140 1
-0.623135 0.817974 0.639775 1
-0.623865 0.703609 0.498015 1
-0.552109 0.696987 0.672579 1
-0.675298 0.802383 0.572512 1
-0.608461 0.575077 0.562964 1
-0.589532 0.790111 0.672538 1
-0.649588 0.757841 0.502025 1
-0.645507 0.827685 0.616582 1
-0.628527 0.633976 0.510398 1
-0.561917 0.732425 0.687843 1
-0.668601 0.799438 0.535699 1
-0.606006 0.526317 0.611054 1
-0.608924 0.819164 0.657904 1
-0.638920 0.721299 0.488261 1
-0.671603 0.821038 0.589645 1
-0.618277 0.577470 0.535506 1
-0.655305 0.785708 0.503696 1
-0.580655 0.544909 0.650293 1
-0.631647 0.837424 0.635029 1
-0.629346 0.669587 0.488432 1
-0.688561 0.805581 0.556537 1
-0.610560 0.520854 0.579483 1
-0.597677 0.807890 0.679362 1
-0.649711 0.747714 0.483586 1
-0.659012 0.839406 0.607595 1
-0.618157 0.609754 0.505065 1
-0.565939 0.744427 0.705311 1
-0.667960 0.804742 0.514347 1
-0.577792 0.531869 0.620181 1
-0.618666 0.837346 0.656480 1
-0.637640 0.700715 0.474441 1
-0.688963 0.823394 0.576899 1
-0.613906 0.535431 0.543798 1
-0.659473 0.775581 0.485538 1
-0.627830 0.709950 0.583780 1
-0.630297 0.723364 0.572433 1
-0.616346 0.694006 0.583832 1
-0.626183 0.736323 0.594140 1
-0.623975 0.714463 0.554383 1
-0.601759 0.710827 0.601113 1
-0.637796 0.747448 0.573238 1
-0.616817 0.678011 0.566784 1
-0.610323 0.741952 0.609630 1
-0.631462 0.737743 0.543457 1
-0.601682 0.676195 0.598996 1
-0.636538 0.759192 0.593422 1
-0.625238 0.687431 0.543185 1
-0.594098 0.723678 0.618938 1
-0.639825 0.762385 0.551811 1
-0.616148 0.640693 0.581909 1
-0.617110 0.763800 0.613699 1
-0.632366 0.721973 0.527057 1
-0.586325 0.687721 0.615528 1
-0.648682 0.771291 0.579645 1
-0.612379 0.666504 0.543099 1
-0.593935 0.748552 0.627986 1
-0.641189 0.758578 0.530373 1
-0.602734 0.631976 0.602142 1
-0.629428 0.782679 0.606456 1
-0.623870 0.700419 0.517503 1
-0.579026 0.710313 0.631400 1
-0.653424 0.778677 0.556271 1
-0.609740 0.628293 0.561846 1
-0.604309 0.771962 0.630263 1
-0.637834 0.742783 0.511761 1
-0.584817 0.649320 0.622348 1
-0.650115 0.788522 0.593240 1
-0.623283 0.656682 0.523244 1
-0.580682 0.738803 0.642382 1
-0.653733 0.775363 0.530533 1
-0.605644 0.598232 0.592257 1
-0.620848 0.791946 0.623528 1
-0.630416 0.716341 0.500142 1
-0.571692 0.681906 0.639707 1
-0.663013 0.791851 0.569358 1
-0.620170 0.609646 0.542487 1
-0.591945 0.766880 0.646596 1
-0.647959 0.762229 0.506564 1
-0.585284 0.612273 0.618487 1
-0.637721 0.807875 0.606284 1
-0.629971 0.668039 0.502169 1
-0.571410 0.715555 0.654654 1
-0.668923 0.787267 0.540630 1
-0.617395 0.564501 0.576530 1
-0.607300 0.794750 0.639860 1
-0.641042 0.734819 0.489874 1
-0.567323 0.647717 0.640982 1
-0.662921 0.806556 0.585828 1
-0.622108 0.620248 0.516284 1
-0.577990 0.754049 0.659795 1
-0.657567 0.782840 0.508921 1
-0.600384 0.558721 0.612703 1
-0.628069 0.814281 0.624848 1
-0.637896 0.688348 0.485013 1
-0.563018 0.685556 0.661347 1
-0.677818 0.800938 0.556275 1
-0.615981 0.568639 0.546962 1
-0.595745 0.785305 0.658172 1
-0.649829 0.758945 0.485663 1
-0.579116 0.588391 0.644379 1
-0.646390 0.827573 0.599565 1
-0.629703 0.636011 0.492970 1
-0.565965 0.731130 0.670910 1
-0.675074 0.794296 0.521162 1
-0.610166 0.526774 0.592339 1
-0.616639 0.812703 0.644868 1
-0.643547 0.717793 0.472793 1
-0.676857 0.817093 0.574690 1
-0.619112 0.581422 0.517017 1
-0.584465 0.766240 0.675891 1
-0.659665 0.782386 0.488637 1
-0.581407 0.552197 0.628953 1
-0.635279 0.834790 0.619529 1
-0.633996 0.666267 0.472504 1
-0.555862 0.699826 0.678260 1
-0.689649 0.805311 0.539837 1
-0.606084 0.536138 0.556978 1
-0.604098 0.802823 0.665216 1
-0.653854 0.744663 0.468171 1
-0.662514 0.836834 0.592070 1
-0.624425 0.604524 0.488984 1
-0.572155 0.740161 0.690123 1
-0.673292 0.800569 0.499560 1
-0.585841 0.525256 0.604141 1
-0.625286 0.831981 0.642804 1
-0.640610 0.699225 0.458452 1
-0.691133 0.822053 0.560567 1
-0.614210 0.541333 0.524487 1
-0.591307 0.784058 0.685021 1
-0.662430 0.773642 0.470045 1
-0.575448 0.531573 0.657057 1
-0.629302 0.714497 0.567959 1
-0.632538 0.726649 0.557263 1
-0.616863 0.700179 0.567474 1
-0.637019 0.729695 0.583231 1
-0.623898 0.720558 0.538482 1
-0.617540 0.697220 0.593302 1
-0.639069 0.751424 0.557761 1
-0.616634 0.685249 0.550308 1
-0.619219 0.737510 0.598039 1
-0.633010 0.741344 0.528537 1
-0.608643 0.674194 0.585846 1
-0.644703 0.755757 0.581174 1
-0.627758 0.690617 0.528279 1
-0.600429 0.722414 0.605829 1
-0.642249 0.764725 0.537249 1
-0.617945 0.646157 0.565745 1
-0.628299 0.756954 0.603525 1
-0.633975 0.725583 0.512247 1
-0.592002 0.687572 0.601784 1
-0.651658 0.773150 0.564955 1
-0.621061 0.661577 0.530639 1
-0.603986 0.742663 0.617478 1
-0.643481 0.760934 0.515968 1
-0.605480 0.636626 0.586137 1
-0.640841 0.775914 0.596291 1
-0.627122 0.702242 0.503273 1
-0.586311 0.707910 0.618894 1
-0.656026 0.780656 0.541718 1
-0.618777 0.623052 0.549272 1
-0.614236 0.766494 0.619705 1
-0.641941 0.743164 0.498021 1
-0.590587 0.649517 0.608222 1
-0.657274 0.786219 0.580551 1
-0.633855 0.649098 0.511113 1
-0.587623 0.736842 0.629809 1
-0.656164 0.777370 0.516171 1
