ply
format ascii 1.0
element vertex 1584
property float x
property float y
property float z
property uchar label
end_header
1.880895 0.845969 -1.274542 1
1.834360 0.852227 -1.326548 1
1.849709 0.906739 -1.288801 1
1.849955 0.826513 -1.281882 1
1.841730 0.884682 -1.338417 1
1.850997 0.887804 -1.257187 1
1.824450 0.829445 -1.316993 1
1.856306 0.915530 -1.314472 1
1.926234 0.796209 -1.264523 1
1.825789 0.862610 -1.349287 1
1.850656 0.918688 -1.266063 1
1.822926 0.815300 -1.288738 1
1.858988 0.903000 -1.347749 1
1.861752 0.867204 -1.238192 1
1.812468 0.832455 -1.339949 1
1.853051 0.936866 -1.295010 1
1.842947 0.813166 -1.255239 1
1.829422 0.883173 -1.364573 1
1.851282 0.913541 -1.241141 1
1.813443 0.804312 -1.311329 1
1.868603 0.926918 -1.338885 1
1.916640 0.807919 -1.233450 1
1.806294 0.849104 -1.362209 1
1.854569 0.944254 -1.268433 1
1.816132 0.800962 -1.268037 1
1.849843 0.904666 -1.372047 1
1.853604 0.892823 -1.219926 1
1.803628 0.808045 -1.339372 1
1.860531 0.952334 -1.313233 1
1.850916 0.808865 -1.230122 1
1.818504 0.869249 -1.382331 1
1.857306 0.937358 -1.239466 1
1.806715 0.786259 -1.294812 1
1.865952 0.931080 -1.363746 1
1.894809 0.838951 -1.209571 1
1.796214 0.826411 -1.366546 1
1.858777 0.964156 -1.281526 1
1.812691 0.797534 -1.242953 1
1.835361 0.897118 -1.391732 1
1.854873 0.918397 -1.212620 1
1.796520 0.786019 -1.328005 1
1.858366 0.962236 -1.335867 1
1.860310 0.816218 -1.206479 1
1.802804 0.851025 -1.390750 1
1.861026 0.960813 -1.247403 1
1.806907 0.772817 -1.272032 1
1.851110 0.929528 -1.385924 1
1.862955 0.881320 -1.193896 1
1.788484 0.801407 -1.361734 1
1.862986 0.977970 -1.302401 1
1.819226 0.798878 -1.217370 1
1.818610 0.882175 -1.405994 1
1.861438 0.943335 -1.214606 1
1.795784 0.765217 -1.309213 1
1.867159 0.958893 -1.365615 1
1.902142 0.815348 -1.187859 1
1.790809 0.826862 -1.392273 1
1.863420 0.981336 -1.263382 1
1.804396 0.771433 -1.244124 1
1.840212 0.916953 -1.407870 1
1.852264 0.915682 -1.187796 1
1.783642 0.776515 -1.348471 1
1.865034 0.985423 -1.328680 1
1.831493 0.806954 -1.192965 1
1.803662 0.860150 -1.414747 1
1.866211 0.968289 -1.224788 1
1.797102 0.750732 -1.283603 1
1.867168 0.949530 -1.395096 1
1.881780 0.856707 -1.172892 1
1.782130 0.799461 -1.386244 1
1.869350 0.995590 -1.286888 1
1.811458 0.773703 -1.215614 1
1.827555 0.897080 -1.425656 1
1.860024 0.942917 -1.190474 1
1.784541 0.752192 -1.328213 1
1.884509 0.978921 -1.364130 1
1.862611 0.813117 -1.172004 1
1.791996 0.832254 -1.417323 1
1.865504 0.992150 -1.242018 1
1.797366 0.746700 -1.252905 1
1.864621 0.931825 -1.423590 1
1.843656 0.908461 -1.166122 1
1.774774 0.772858 -1.371622 1
1.866024 1.006277 -1.314240 1
1.816265 0.787759 -1.187675 1
1.817730 0.869090 -1.439190 1
1.868369 0.969571 -1.201187 1
1.788280 0.732986 -1.301043 1
1.883715 0.970273 -1.396879 1
1.891990 0.829500 -1.155568 1
1.778991 0.803782 -1.410727 1
1.871297 1.009086 -1.266760 1
1.803603 0.748706 -1.220804 1
1.845088 0.912872 -1.442551 1
1.854963 0.937167 -1.167787 1
1.773611 0.746076 -1.350274 1
1.823802 0.819532 -1.312267 1
1.835778 0.825353 -1.303020 1
1.814053 0.800359 -1.312800 1
1.829119 0.839060 -1.328989 1
1.825749 0.814873 -1.282419 1
1.805828 0.806749 -1.338048 1
1.857210 0.842961 -1.308246 1
1.809249 0.788575 -1.291440 1
1.814482 0.838413 -1.350331 1
2.060941 0.710320 -1.306023 1
1.799327 0.781880 -1.329237 1
1.842551 0.862501 -1.330035 1
1.814576 0.798685 -1.265082 1
1.795035 0.818722 -1.359854 1
1.859388 0.855533 -1.284772 1
1.801211 0.765599 -1.301597 1
1.821768 0.861198 -1.356982 1
1.870670 0.800558 -1.255345 1
1.788007 0.784631 -1.352281 1
1.852516 0.878705 -1.313166 1
1.804633 0.774561 -1.265609 1
1.801952 0.837138 -1.376108 1
1.887026 0.836577 -1.262160 1
1.789910 0.755438 -1.323778 1
1.841956 0.879488 -1.351384 1
1.819892 0.801686 -1.239153 1
1.786199 0.798714 -1.375984 1
1.845009 0.891150 -1.284314 1
1.798483 0.748504 -1.281323 1
1.818747 0.859668 -1.382613 1
2.151940 0.670304 -1.263813 1
1.778479 0.760338 -1.351404 1
1.856877 0.895697 -1.331299 1
1.805262 0.775270 -1.240295 1
1.790513 0.823474 -1.393490 1
1.850943 0.882942 -1.255307 1
1.786367 0.734920 -1.307750 1
1.837175 0.884391 -1.375372 1
1.842531 0.806532 -1.220866 1
1.778412 0.773828 -1.381143 1
1.848874 0.911421 -1.297678 1
1.796350 0.744670 -1.256012 1
1.805656 0.851701 -1.402371 1
1.869866 0.853037 -1.229535 1
1.773132 0.736712 -1.340406 1
1.861861 0.902537 -1.356443 1
1.813643 0.783107 -1.217564 1
1.782845 0.800147 -1.404849 1
1.848569 0.909641 -1.262775 1
1.786532 0.721394 -1.284635 1
1.827019 0.880900 -1.398746 1
1.767360 0.750585 -1.375109 1
1.857726 0.923156 -1.319945 1
1.802594 0.746619 -1.230104 1
1.792870 0.834808 -1.417917 1
1.846381 0.893489 -1.229338 1
1.777955 0.710892 -1.322829 1
1.851653 0.906454 -1.381361 1
1.827095 0.797432 -1.198972 1
1.771460 0.775054 -1.406651 1
1.853720 0.929158 -1.279486 1
1.786145 0.719025 -1.256659 1
1.812464 0.870150 -1.419135 1
1.883218 0.842547 -1.204094 1
1.757871 0.728844 -1.360159 1
1.863140 0.928951 -1.347664 1
1.810596 0.758119 -1.205389 1
1.788368 0.806012 -1.431085 1
1.851567 0.918417 -1.239890 1
1.782052 0.693813 -1.297282 1
1.836379 0.903229 -1.405673 1
2.241025 0.587076 -1.194575 1
1.757493 0.750998 -1.398517 1
1.857776 0.943802 -1.303037 1
1.791945 0.722794 -1.227731 1
1.803721 0.848077 -1.438437 1
1.846527 0.892876 -1.205168 1
1.765265 0.698308 -1.341696 1
1.862838 0.928594 -1.378170 1
1.813123 0.782460 -1.184248 1
1.778117 0.776159 -1.434483 1
1.856973 0.940116 -1.258141 1
1.781737 0.690777 -1.265753 1
1.824581 0.889516 -1.430148 1
1.867611 0.838874 -1.180481 1
1.754844 0.719987 -1.385571 1
1.864118 0.950855 -1.332910 1
1.801893 0.734072 -1.199953 1
1.797162 0.817516 -1.453622 1
1.851893 0.920830 -1.216137 1
1.774676 0.673466 -1.315397 1
1.853312 0.922882 -1.407809 1
1.831827 0.803369 -1.169094 1
1.755763 0.753968 -1.423770 1
1.859001 0.958131 -1.282728 1
1.787057 0.694253 -1.232962 1
1.817421 0.865007 -1.453802 1
1.847080 0.884987 -1.182307 1
1.754248 0.691762 -1.364094 1
1.799138 0.777661 -1.326391 1
1.804184 0.787675 -1.315982 1
1.790520 0.757804 -1.326851 1
1.802750 0.797817 -1.342843 1
1.802487 0.772762 -1.296955 1
1.781988 0.764142 -1.351865 1
1.816225 0.809602 -1.319710 1
1.791395 0.742532 -1.306504 1
1.790900 0.795472 -1.364556 1
1.811862 0.794501 -1.286511 1
1.777659 0.737683 -1.343372 1
1.814067 0.822032 -1.343783 1
1.798077 0.752564 -1.280391 1
1.777241 0.772015 -1.375468 1
1.839435 0.810644 -1.300962 1
1.781751 0.720045 -1.316056 1
1.798308 0.818024 -1.371496 1
1.806669 0.782991 -1.265271 1
1.765587 0.740812 -1.366080 1
1.833668 0.833120 -1.329656 1
1.788161 0.727999 -1.280503 1
1.780510 0.792597 -1.390803 1
1.834086 0.809618 -1.274028 1
1.772554 0.707597 -1.338698 1
1.811866 0.839417 -1.364509 1
1.802365 0.756912 -1.254308 1
1.765800 0.753130 -1.390630 1
1.872934 0.822589 -1.309422 1
1.780305 0.702117 -1.295698 1
1.788901 0.819708 -1.394785 1
1.821159 0.797292 -1.250103 1
1.757705 0.714932 -1.365436 1
1.833085 0.852237 -1.346770 1
1.792226 0.726917 -1.255421 1
1.770011 0.777944 -1.408377 1
2.091719 0.702797 -1.308027 1
1.770291 0.685848 -1.322573 1
1.805889 0.844580 -1.387693 1
1.806633 0.773519 -1.234881 1
1.754852 0.730111 -1.394457 1
1.845747 0.859232 -1.317573 1
1.780626 0.697034 -1.270471 1
1.779844 0.809292 -1.415582 1
2.161911 0.635947 -1.276329 1
1.757504 0.686653 -1.355697 1
1.826133 0.864149 -1.368467 1
1.799904 0.735966 -1.232611 1
1.756801 0.758011 -1.417389 1
1.861071 0.850696 -1.284246 1
1.777957 0.666037 -1.300513 1
1.796536 0.840540 -1.410774 1
1.817375 0.793604 -1.222998 1
1.748484 0.702901 -1.389840 1
1.845003 0.874995 -1.338318 1
1.784020 0.701931 -1.244128 1
1.772474 0.788703 -1.433112 1
2.154100 0.683824 -1.278745 1
1.760548 0.661715 -1.337249 1
1.820289 0.865783 -1.394024 1
1.807198 0.755045 -1.213983 1
1.745787 0.732533 -1.419085 1
1.846827 0.879602 -1.298550 1
1.778582 0.663590 -1.271918 1
1.786660 0.827202 -1.432490 1
1.860297 0.800278 -1.220625 1
1.750885 0.670439 -1.378576 1
1.842495 0.883604 -1.364247 1
1.789743 0.715985 -1.219479 1
1.766236 0.760175 -1.445557 1
1.864749 0.860198 -1.260572 1
1.775903 0.634290 -1.313778 1
1.807539 0.861409 -1.418533 1
1.812709 0.782128 -1.201429 1
1.742451 0.699597 -1.415050 1
1.847762 0.895283 -1.322004 1
1.783162 0.669448 -1.242248 1
1.776873 0.805376 -1.451099 1
2.238593 0.640792 -1.247842 1
1.752581 0.643845 -1.357625 1
1.834950 0.885792 -1.392382 1
1.802962 0.733727 -1.199094 1
1.739719 0.742520 -1.441238 1
1.846402 0.892850 -1.276540 1
1.781529 0.626665 -1.282158 1
1.800249 0.845147 -1.444400 1
1.856957 0.790776 -1.197166 1
1.740953 0.666521 -1.402183 1
1.853685 0.901745 -1.352285 1
1.785312 0.688325 -1.213784 1
1.861984 0.864779 -1.235578 1
1.766853 0.613652 -1.331878 1
1.820423 0.882132 -1.419609 1
1.808087 0.764307 -1.184368 1
1.735069 0.706762 -1.438268 1
1.848868 0.910393 -1.301617 1
1.786492 0.631831 -1.248086 1
2.233079 0.631987 -1.210321 1
1.744587 0.633410 -1.381566 1
1.782244 0.747811 -1.338312 1
1.791378 0.755193 -1.329085 1
1.775102 0.727112 -1.338876 1
1.784407 0.768452 -1.354398 1
1.790621 0.739981 -1.310186 1
1.764945 0.734326 -1.363148 1
1.799594 0.779220 -1.332246 1
1.779991 0.709206 -1.319459 1
1.775178 0.764274 -1.376472 1
1.799025 0.762478 -1.299885 1
1.759960 0.708656 -1.354326 1
1.794283 0.793089 -1.355278 1
1.786152 0.720116 -1.293441 1
1.762465 0.740209 -1.387302 1
1.807623 0.788959 -1.311145 1
1.769789 0.686917 -1.328601 1
1.782969 0.786286 -1.383732 1
1.797805 0.748825 -1.279163 1
1.752976 0.707620 -1.378320 1
1.808033 0.807083 -1.340380 1
1.779625 0.692933 -1.293822 1
1.766596 0.759895 -1.403051 1
1.809987 0.784074 -1.286196 1
1.756047 0.677796 -1.349783 1
1.793736 0.809075 -1.376274 1
1.790116 0.725169 -1.267493 1
1.751286 0.720974 -1.402257 1
1.824925 0.808007 -1.316927 1
1.777183 0.661945 -1.309907 1
1.774749 0.787003 -1.407186 1
1.804173 0.768360 -1.263350 1
1.747161 0.679904 -1.378132 1
1.807429 0.825586 -1.357182 1
1.779107 0.695846 -1.268102 1
1.753551 0.746853 -1.419363 1
1.826517 0.802871 -1.287004 1
1.761698 0.649467 -1.335606 1
1.788463 0.813542 -1.399377 1
1.798627 0.739286 -1.248767 1
1.742414 0.696252 -1.406617 1
1.832006 0.826516 -1.331595 1
1.778202 0.656721 -1.284400 1
1.767931 0.774887 -1.428679 1
1.814518 0.790150 -1.257891 1
1.748731 0.649839 -1.368776 1
1.805803 0.834368 -1.379914 1
1.783520 0.707690 -1.245307 1
1.738942 0.728079 -1.427432 1
1.866179 0.808655 -1.301800 1
1.775955 0.623798 -1.314783 1
1.783365 0.806854 -1.423742 1
1.805390 0.762140 -1.236902 1
1.739147 0.666211 -1.402984 1
1.824700 0.845106 -1.350653 1
1.781345 0.662527 -1.257743 1
1.763894 0.751589 -1.447592 1
1.856998 0.796364 -1.264986 1
1.754519 0.622257 -1.350866 1
1.801316 0.834994 -1.405488 1
1.794263 0.724496 -1.227399 1
1.732885 0.698703 -1.431010 1
1.847769 0.840180 -1.315627 1
1.780477 0.618460 -1.286314 1
1.783606 0.787040 -1.449650 1
1.817617 0.785864 -1.233162 1
1.739834 0.634962 -1.390912 1
1.818724 0.854896 -1.375179 1
1.782463 0.681062 -1.232662 1
1.748874 0.729036 -1.455909 1
1.892062 0.807898 -1.280624 1
1.769239 0.595203 -1.326995 1
1.795425 0.826858 -1.432183 1
1.805630 0.747934 -1.215513 1
1.730643 0.664544 -1.427301 1
1.837020 0.861039 -1.336919 1
1.777390 0.631987 -1.255231 1
1.760768 0.773070 -1.462322 1
1.863841 0.793226 -1.240038 1
1.753255 0.596916 -1.373526 1
1.814732 0.855105 -1.403825 1
1.787606 0.705305 -1.212276 1
1.728091 0.707373 -1.453805 1
1.860755 0.847970 -1.295481 1
1.783916 0.579453 -1.296678 1
1.785210 0.811855 -1.456656 1
1.813553 0.777785 -1.210769 1
1.730844 0.629644 -1.414934 1
1.834409 0.870651 -1.365001 1
1.782625 0.649277 -1.226938 1
1.894237 0.810777 -1.254791 1
1.770274 0.563507 -1.347815 1
1.803211 0.849911 -1.431559 1
1.799784 0.731172 -1.198189 1
1.726380 0.668597 -1.452107 1
1.844660 0.873691 -1.317960 1
1.783374 0.590860 -1.261206 1
1.847927 0.794625 -1.214977 1
1.738637 0.592110 -1.395597 1
1.764282 0.711469 -1.343067 1
1.772914 0.718979 -1.333928 1
1.761100 0.687987 -1.344612 1
1.766858 0.731608 -1.359039 1
1.771675 0.704315 -1.315205 1
1.751199 0.695127 -1.368718 1
1.782711 0.741640 -1.337478 1
1.764061 0.671480 -1.324935 1
1.759263 0.726408 -1.381270 1
1.779454 0.726976 -1.305025 1
1.748464 0.667611 -1.360622 1
1.776721 0.755894 -1.359960 1
1.773178 0.680251 -1.299743 1
1.746802 0.702360 -1.392032 1
1.789539 0.752030 -1.316472 1
1.757934 0.645863 -1.334930 1
1.767404 0.747942 -1.388590 1
1.778109 0.713672 -1.284620 1
1.741025 0.666883 -1.384400 1
1.791475 0.768950 -1.345639 1
1.773634 0.647287 -1.301339 1
1.744866 0.726192 -1.405335 1
1.791803 0.747341 -1.291905 1
1.747009 0.634274 -1.356827 1
1.778954 0.770025 -1.381499 1
1.773265 0.688341 -1.273443 1
1.735839 0.683044 -1.406906 1
1.802620 0.772836 -1.321455 1
1.762246 0.623191 -1.315675 1
1.753412 0.752492 -1.409552 1
1.785269 0.732508 -1.269258 1
1.737323 0.637033 -1.384985 1
1.791081 0.787179 -1.362252 1
1.773964 0.649822 -1.275542 1
1.732625 0.712978 -1.421528 1
1.804671 0.767658 -1.292276 1
1.759365 0.599238 -1.344408 1
1.770240 0.776518 -1.403102 1
1.777196 0.705616 -1.254569 1
1.730032 0.655714 -1.412475 1
1.807754 0.791826 -1.335432 1
1.779364 0.604028 -1.293006 1
1.744854 0.741735 -1.429856 1
1.796498 0.753364 -1.264109 1
1.734318 0.610679 -1.374196 1
1.791515 0.794695 -1.385313 1
1.772171 0.666916 -1.251991 1
1.733539 0.682232 -1.436153 1
1.818935 0.785595 -1.302805 1
1.768007 0.578038 -1.322065 1
1.771908 0.765693 -1.429783 1
1.786548 0.726439 -1.243260 1
1.733906 0.618746 -1.411766 1
1.804023 0.808403 -1.354826 1
1.780267 0.612218 -1.265543 1
1.735376 0.722638 -1.445939 1
1.812839 0.772895 -1.268354 1
1.751282 0.571829 -1.359713 1
1.781826 0.798110 -1.408751 1
1.774415 0.690082 -1.233676 1
1.724793 0.654470 -1.438702 1
1.828873 0.802160 -1.321090 1
1.783698 0.562290 -1.295296 1
1.767490 0.748526 -1.453664 1
1.797000 0.750774 -1.239596 1
1.749619 0.571949 -1.405252 1
1.801126 0.816559 -1.379703 1
1.777081 0.635138 -1.239774 1
1.722849 0.699128 -1.455013 1
1.837344 0.787590 -1.282199 1
1.769210 0.540753 -1.336289 1
1.778807 0.788404 -1.436116 1
1.784674 0.713895 -1.222097 1
1.724421 0.617807 -1.435974 1
1.816146 0.823957 -1.341441 1
1.779305 0.577914 -1.263274 1
1.814182 0.772802 -1.244383 1
1.743342 0.552173 -1.380617 1
1.794441 0.818045 -1.406945 1
1.772616 0.667522 -1.218928 1
1.848259 0.806563 -1.302451 1
1.776242 0.532295 -1.303914 1
1.797758 0.740036 -1.217796 1
1.810282 0.834854 -1.368007 1
1.781440 0.598892 -1.234206 1
1.728474 0.710990 -1.475953 1
1.851698 0.784122 -1.259310 1
1.750106 0.528675 -1.352038 1
1.786720 0.811090 -1.435543 1
1.783436 0.694267 -1.205118 1
1.827469 0.834671 -1.323690 1
1.782275 0.537932 -1.268972 1
1.813025 0.766759 -1.221395 1
1.725354 0.550822 -1.401505 1
1.755349 0.668149 -1.350540 1
1.761375 0.677523 -1.340873 1
1.749481 0.646645 -1.351317 1
1.751451 0.692712 -1.364603 1
1.764788 0.659636 -1.323263 1
1.743674 0.650498 -1.376474 1
1.765804 0.703523 -1.343187 1
1.756612 0.626897 -1.332779 1
1.748862 0.683874 -1.388145 1
1.772155 0.682783 -1.313100 1
1.747511 0.617302 -1.370371 1
1.760435 0.717159 -1.365400 1
1.770673 0.632072 -1.308617 1
1.736833 0.659485 -1.398906 1
1.771857 0.714358 -1.322462 1
1.763306 0.589868 -1.346024 1
1.753694 0.707463 -1.394382 1
1.774549 0.666959 -1.293286 1
1.736732 0.619120 -1.393277 1
1.771883 0.731893 -1.350657 1
1.768564 0.600604 -1.309709 1
1.732615 0.685014 -1.411236 1
1.773866 0.710089 -1.298329 1
1.753137 0.576811 -1.368671 1
1.761411 0.731664 -1.386252 1
1.771572 0.640016 -1.282227 1
1.733340 0.633837 -1.416656 1
1.780201 0.737330 -1.326544 1
1.773199 0.561673 -1.327547 1
1.737786 0.713393 -1.414183 1
1.773126 0.691944 -1.276790 1
1.745919 0.576938 -1.398505 1
1.774395 0.748010 -1.367762 1
1.776531 0.597160 -1.284929 1
1.731008 0.663547 -1.431762 1
1.779033 0.734411 -1.297605 1
1.763007 0.543040 -1.355299 1
1.748446 0.740727 -1.405778 1
1.772909 0.659693 -1.262976 1
1.726068 0.607156 -1.421717 1
1.789154 0.753523 -1.341174 1
1.779223 0.552225 -1.302224 1
1.733712 0.699494 -1.436087 1
1.778118 0.716486 -1.271095 1
1.743477 0.548973 -1.387566 1
1.769961 0.757970 -1.388888 1
1.779405 0.611285 -1.261504 1
1.735107 0.629228 -1.448173 1
1.788697 0.753878 -1.307229 1
1.764366 0.528523 -1.330806 1
1.741202 0.735436 -1.428231 1
1.773688 0.686644 -1.251000 1
1.786744 0.769076 -1.360496 1
1.782825 0.558611 -1.274753 1
1.736524 0.670994 -1.457861 1
1.786090 0.740126 -1.274441 1
1.748576 0.520768 -1.369018 1
1.758974 0.762118 -1.411114 1
1.777415 0.638704 -1.242512 1
1.797310 0.770072 -1.324749 1
1.771120 0.521371 -1.302311 1
1.731480 0.722308 -1.448727 1
1.779142 0.713846 -1.247148 1
1.724349 0.543042 -1.406490 1
1.785326 0.776196 -1.385378 1
1.778188 0.583788 -1.248436 1
1.797694 0.760404 -1.286362 1
1.735362 0.521317 -1.337495 1
1.752594 0.754410 -1.436367 1
1.776315 0.671240 -1.230297 1
1.799647 0.783873 -1.347727 1
1.779063 0.525954 -1.272017 1
1.724310 0.699067 -1.467616 1
1.789124 0.739245 -1.251465 1
1.716038 0.526355 -1.381655 1
1.771494 0.781328 -1.409560 1
1.779569 0.612575 -1.227659 1
1.809746 0.777289 -1.306002 1
1.748423 0.506940 -1.307768 1
1.780694 0.702940 -1.225825 1
1.705838 0.547004 -1.426653 1
1.795929 0.793500 -1.374402 1
1.780901 0.548151 -1.242620 1
1.802423 0.761811 -1.263872 1
1.698599 0.529740 -1.347013 1
1.769271 0.771479 -1.439591 1
1.781214 0.647185 -1.213502 1
1.815773 0.792083 -1.331469 1
1.761013 0.506066 -1.274912 1
1.727105 0.720733 -1.477828 1
1.790726 0.731991 -1.229338 1
1.687567 0.537121 -1.397342 1
1.577819 0.130128 -1.225595 1
1.578266 0.142050 -1.217141 1
1.571696 0.112657 -1.226698 1
1.596569 0.130438 -1.240397 1
1.572984 0.132894 -1.203027 1
1.590127 0.090472 -1.251402 1
1.585629 0.160910 -1.218821 1
1.563646 0.108137 -1.210454 1
1.625543 0.087860 -1.267296 1
1.584779 0.145225 -1.195584 1
1.564603 0.092721 -1.240543 1
1.590770 0.165828 -1.237072 1
1.572013 0.111499 -1.191364 1
1.618289 0.060909 -1.279240 1
1.583609 0.175557 -1.202251 1
1.558734 0.085254 -1.218527 1
1.629884 0.111845 -1.271265 1
1.587839 0.127469 -1.180652 1
1.560485 0.092735 -1.259350 1
1.584820 0.191005 -1.222513 1
1.557006 0.099735 -1.191127 1
1.634636 0.067190 -1.295280 1
1.593291 0.161744 -1.185059 1
1.560782 0.062449 -1.238065 1
1.591803 0.179511 -1.252059 1
1.594667 0.090217 -1.172547 1
1.608205 0.043312 -1.293485 1
1.585874 0.198159 -1.204000 1
1.546915 0.082085 -1.202131 1
1.651449 0.084615 -1.299896 1
1.701982 0.024106 -1.171118 1
1.538800 0.090220 -1.255596 1
1.593746 0.198427 -1.235609 1
1.580264 0.069954 -1.173212 1
1.650080 0.023487 -1.320964 1
1.598034 0.182085 -1.184273 1
1.564679 0.030476 -1.227348 1
1.705876 0.067469 -1.303427 1
1.621790 0.077638 -1.157361 1
1.543832 0.096935 -1.278554 1
1.582985 0.219362 -1.212214 1
1.538338 0.089066 -1.182945 1
1.641848 0.077634 -1.318257 1
1.740381 0.017793 -1.165761 1
1.543993 0.052195 -1.251032 1
1.606299 0.194033 -1.254601 1
1.614976 0.039624 -1.154753 1
1.632115 0.010487 -1.329084 1
1.597554 0.205018 -1.190099 1
1.529874 0.069225 -1.203820 1
1.678600 0.084593 -1.319123 1
1.685174 0.035181 -1.145860 1
1.524242 0.092506 -1.271498 1
1.587012 0.228091 -1.226307 1
1.565535 0.056901 -1.164159 1
1.677233 0.006494 -1.352897 1
1.774629 0.020770 -1.169225 1
1.559166 0.002420 -1.240638 1
1.806922 0.006275 -1.333277 1
1.609585 0.072641 -1.139938 1
1.547673 0.087245 -1.301266 1
1.589311 0.230434 -1.200406 1
1.521928 0.078959 -1.182707 1
1.658774 0.084041 -1.335484 1
1.733417 0.021080 -1.140716 1
1.530527 0.050485 -1.266531 1
1.593911 0.228038 -1.244959 1
1.608029 0.017106 -1.143440 1
1.648957 0.000364 -1.357589 1
1.827130 0.008483 -1.182550 1
1.540918 0.016260 -1.215922 1
1.728373 0.066717 -1.338103 1
1.646621 0.061936 -1.128100 1
1.516504 0.096552 -1.288325 1
1.592443 0.240527 -1.215971 1
1.523802 0.084891 -1.161771 1
1.670082 0.039349 -1.362978 1
1.787305 0.008577 -1.143556 1
1.543475 0.000038 -1.255424 1
1.872594 -0.015453 -1.343419 1
1.607493 0.048634 -1.126932 1
1.603175 0.015378 -1.346551 1
1.921092 -0.038985 -1.209241 1
1.514992 0.056161 -1.188730 1
1.678115 0.092780 -1.346762 1
1.731503 0.009217 -1.118099 1
1.513889 0.064911 -1.280814 1
1.593765 0.246384 -1.234780 1
1.592912 0.002039 -1.138303 1
1.669096 -0.003262 -1.382873 1
1.833299 0.007291 -1.156138 1
1.535987 -0.007232 -1.230912 1
1.834150 0.003922 -1.368823 1
1.607586 0.085078 -1.116498 1
1.523333 0.087640 -1.310181 1
2.019199 -0.090359 -1.250976 1
1.501003 0.087986 -1.164569 1
1.670262 0.068145 -1.369167 1
1.784174 0.001960 -1.118697 1
1.529732 0.004057 -1.272484 1
1.560007 0.102375 -1.208026 1
1.566355 0.107749 -1.200486 1
1.555386 0.081684 -1.209155 1
1.572418 0.109596 -1.221551 1
1.559194 0.100563 -1.185747 1
1.573621 0.056958 -1.233640 1
1.578923 0.121810 -1.203145 1
1.540884 0.086530 -1.191939 1
1.575868 0.095078 -1.241268 1
1.581905 0.100196 -1.179000 1
1.570587 0.026747 -1.227596 1
1.580855 0.130553 -1.221436 1
1.549298 0.089850 -1.172917 1
1.554900 0.088118 -1.248182 1
1.588467 0.124853 -1.187313 1
1.533463 0.066012 -1.199276 1
1.595880 0.099302 -1.249166 1
1.625125 0.029144 -1.163639 1
1.569342 0.021840 -1.248934 1
1.584756 0.147326 -1.208471 1
1.528148 0.087294 -1.172227 1
1.568156 0.094887 -1.261989 1
1.617688 0.087124 -1.169171 1
1.555300 0.009334 -1.222250 1
1.592623 0.133116 -1.239362 1
1.613045 0.009862 -1.153156 1
1.537658 0.083613 -1.258156 1
1.590161 0.150892 -1.189565 1
1.513767 0.076258 -1.182332 1
1.617934 0.068457 -1.276742 1
1.624373 0.057355 -1.150172 1
1.557894 0.000031 -1.248408 1
1.591146 0.157958 -1.221715 1
1.579375 0.012559 -1.153593 1
1.547023 0.100190 -1.271930 1
1.702587 0.024652 -1.171333 1
1.531105 0.020696 -1.205758 1
1.631673 0.091577 -1.268728 1
1.628471 0.013120 -1.136238 1
1.532706 0.056407 -1.263772 1
1.588008 0.173621 -1.198831 1
1.503777 0.086973 -1.163964 1
1.607021 0.063430 -1.294023 1
1.645245 0.064768 -1.145302 1
1.540267 -0.006444 -1.236673 1
1.593301 0.163392 -1.238835 1
1.599331 0.000956 -1.133644 1
1.526211 0.098886 -1.276037 1
1.710468 0.048225 -1.180261 1
1.494683 0.068148 -1.183604 1
1.638260 0.073682 -1.293161 1
1.623106 0.052084 -1.127185 1
1.542726 0.001060 -1.267161 1
1.587157 0.187884 -1.213083 1
1.542725 0.031936 -1.144428 1
1.566085 0.087865 -1.296216 1
1.728706 0.008679 -1.147170 1
1.528014 -0.013168 -1.218830 1
1.621085 0.133223 -1.266100 1
1.623240 -0.002590 -1.116570 1
1.511959 0.084441 -1.276822 1
1.727792 0.057249 -1.197449 1
1.485411 0.081833 -1.163576 1
1.641195 0.047783 -1.317418 1
1.621472 0.088756 -1.125221 1
1.525166 -0.006585 -1.253085 1
1.585170 0.195982 -1.230590 1
1.580699 -0.005742 -1.122476 1
1.532549 0.099364 -1.295255 1
1.750545 0.021952 -1.159098 1
1.507497 0.007704 -1.194531 1
1.670054 0.069814 -1.305456 1
1.640956 0.012457 -1.105546 1
1.527755 0.016905 -1.283890 1
1.583993 0.209588 -1.201359 1
1.472560 0.113386 -1.144424 1
1.640505 0.014165 -1.339602 1
1.694970 0.044789 -1.124989 1
1.510211 -0.010583 -1.232866 1
1.608374 0.172114 -1.257111 1
1.603354 -0.005269 -1.103789 1
1.508225 0.096334 -1.292356 1
1.798111 0.007586 -1.180163 1
1.472358 0.070595 -1.168569 1
1.658808 0.058087 -1.327894 1
1.614949 0.084591 -1.106892 1
1.515527 -0.004202 -1.271691 1
1.586761 0.214120 -1.220827 1
1.554270 -0.002476 -1.118304 1
1.554703 0.086226 -1.317835 1
1.768519 0.008818 -1.134372 1
1.498682 -0.009356 -1.208084 1
1.738612 0.032574 -1.323014 1
1.631494 -0.001447 -1.089425 1
1.505412 0.057139 -1.293633 1
1.603755 0.205240 -1.189672 1
1.470655 0.082799 -1.146500 1
1.664169 0.016021 -1.356392 1
1.689059 0.042567 -1.103316 1
1.499221 -0.010647 -1.250493 1
1.522819 0.078703 -1.186833 1
1.527044 0.087149 -1.179232 1
1.507053 0.074543 -1.186275 1
1.536053 0.084069 -1.200243 1
1.513440 0.090126 -1.164444 1
1.539169 0.023024 -1.211912 1
1.544092 0.094756 -1.182387 1
1.493591 0.080211 -1.170174 1
1.552218 0.048995 -1.222232 1
1.568633 0.040308 -1.158434 1
1.514195 0.027530 -1.201690 1
1.553702 0.093573 -1.201747 1
1.497641 0.089729 -1.151981 1
1.552555 0.007455 -1.235130 1
1.597359 0.039380 -1.168775 1
1.482326 0.066250 -1.176492 1
1.562115 0.066972 -1.227702 1
1.582253 0.001931 -1.140398 1
1.527710 -0.003646 -1.225265 1
1.562723 0.105424 -1.189469 1
1.477934 0.088179 -1.151534 1
1.568313 0.012785 -1.250491 1
1.617409 0.008060 -1.147048 1
1.501641 0.006616 -1.196937 1
1.564144 0.097201 -1.219415 1
1.563726 -0.007760 -1.130026 1
1.538120 -0.004632 -1.247720 1
1.623414 0.040965 -1.173242 1
1.463120 0.079800 -1.160940 1
1.552294 0.075851 -1.245570 1
1.611274 -0.009099 -1.126032 1
1.507628 -0.010425 -1.222533 1
1.571107 0.114328 -1.203347 1
1.460912 0.119832 -1.135397 1
1.554482 0.005704 -1.264987 1
1.632333 0.024591 -1.147107 1
1.484173 0.009525 -1.182415 1
1.570348 0.090975 -1.239652 1
1.582223 -0.010498 -1.113072 1
1.515258 -0.006538 -1.248265 1
1.583196 0.114263 -1.181544 1
1.458236 0.083324 -1.143955 1
1.530786 0.088147 -1.257458 1
1.629643 0.002997 -1.121062 1
1.486039 -0.006816 -1.210372 1
1.576609 0.116068 -1.221560 1
1.546449 -0.009725 -1.111360 1
1.535112 -0.001562 -1.271561 1
1.632809 0.055658 -1.155751 1
1.445669 0.071443 -1.162229 1
1.558287 0.096074 -1.256368 1
1.606725 -0.010369 -1.101755 1
1.492529 -0.007312 -1.240573 1
1.582404 0.130410 -1.197021 1
1.456598 0.094475 -1.126987 1
1.523994 0.069191 -1.271441 1
1.612338 0.061066 -1.126588 1
1.469879 -0.003422 -1.192759 1
1.588407 0.100126 -1.244752 1
1.565659 -0.008958 -1.095045 1
1.510041 -0.002878 -1.269171 1
1.643913 0.068356 -1.171141 1
1.440411 0.079608 -1.143691 1
1.540470 0.098815 -1.270011 1
1.631484 -0.002884 -1.097599 1
1.472081 -0.006748 -1.226198 1
1.580442 0.139424 -1.215790 1
1.524076 -0.007674 -1.101290 1
1.533353 0.013587 -1.289451 1
1.632686 0.069257 -1.136577 1
1.456972 0.006414 -1.171227 1
1.592479 0.082612 -1.268765 1
1.590398 -0.005792 -1.083384 1
1.486956 -0.006985 -1.260333 1
1.586346 0.147796 -1.185712 1
1.414361 0.143126 -1.128134 1
1.517797 0.100557 -1.278964 1
1.609567 0.065019 -1.106463 1
1.454853 -0.003118 -1.206464 1
1.588814 0.128167 -1.239462 1
1.546120 -0.009423 -1.083077 1
1.511595 0.001776 -1.289171 1
1.673352 0.052428 -1.153458 1
1.426746 0.070841 -1.148362 1
1.591849 0.059482 -1.292532 1
1.623724 -0.006655 -1.076979 1
1.464937 -0.007971 -1.244687 1
1.585373 0.156706 -1.206175 1
1.499177 -0.002801 -1.097716 1
1.506055 0.079186 -1.289113 1
1.626964 0.080082 -1.116966 1
1.443580 0.000052 -1.183299 1
1.618432 0.082702 -1.272675 1
1.569478 -0.001809 -1.069924 1
1.486568 -0.004343 -1.280419 1
1.700685 0.045869 -1.177999 1
1.427643 0.078782 -1.127431 1
1.539353 0.096285 -1.293131 1
1.624051 0.038979 -1.083830 1
1.446418 -0.006972 -1.223716 1
1.473158 0.077155 -1.166508 1
1.478856 0.082948 -1.159515 1
1.461722 0.067104 -1.166371 1
1.489825 0.074840 -1.179649 1
1.467782 0.083822 -1.145651 1
1.494894 0.004182 -1.190396 1
1.497666 0.085635 -1.162631 1
1.446964 0.077947 -1.151107 1
1.515637 0.017991 -1.202141 1
1.537602 -0.001619 -1.137602 1
1.473965 0.003672 -1.181203 1
1.511749 0.075945 -1.181647 1
1.453617 0.082711 -1.133809 1
1.504625 -0.007784 -1.212100 1
1.563552 0.000417 -1.147817 1
1.437760 0.060107 -1.157058 1
1.534823 0.022299 -1.209542 1
1.529416 -0.008060 -1.119640 1
1.474190 -0.005191 -1.201335 1
1.521541 0.086683 -1.169878 1
1.436264 0.079032 -1.133463 1
1.523806 -0.010028 -1.227905 1
1.561848 -0.001747 -1.125922 1
1.452239 0.001490 -1.175149 1
1.527187 0.071063 -1.199687 1
1.492666 0.018162 -1.111863 1
1.486416 -0.011784 -1.223236 1
1.585982 0.005921 -1.152016 1
1.419947 0.075059 -1.142589 1
1.548058 -0.005020 -1.234272 1
1.550672 -0.010814 -1.105898 1
1.452145 -0.004578 -1.198246 1
1.533920 0.089569 -1.183955 1
1.437405 0.078896 -1.116639 1
1.506046 -0.009180 -1.240905 1
1.587746 -0.002117 -1.125619 1
1.436917 0.002401 -1.161521 1
1.562965 0.019462 -1.226492 1
1.522374 -0.008842 -1.093991 1
1.462685 -0.008362 -1.223435 1
1.596550 0.020137 -1.164846 1
1.417207 0.074866 -1.126168 1
1.534253 -0.005113 -1.250909 1
1.577264 -0.013326 -1.100186 1
1.435026 -0.007123 -1.187679 1
1.543808 0.084707 -1.202634 1
1.482782 0.005934 -1.093923 1
1.484217 -0.009724 -1.246351 1
1.612746 -0.001969 -1.134227 1
1.405127 0.061831 -1.143802 1
1.554554 0.019225 -1.246115 1
1.542450 -0.005154 -1.083587 1
1.440620 -0.006685 -1.216231 1
1.529295 0.126727 -1.176325 1
1.409810 0.100672 -1.111102 1
1.512486 -0.003273 -1.261373 1
1.605642 -0.014080 -1.102493 1
1.418927 -0.000437 -1.170987 1
1.555032 0.066915 -1.225384 1
1.508610 -0.009497 -1.076678 1
1.459247 -0.007463 -1.243977 1
1.620399 0.016549 -1.150467 1
1.399872 0.071906 -1.125998 1
1.537292 0.020183 -1.262079 1
1.568655 -0.003627 -1.079100 1
1.422333 -0.007778 -1.203114 1
1.554291 0.101360 -1.198171 1
1.470397 -0.008179 -1.082816 1
1.489774 -0.007531 -1.266618 1
1.624619 -0.001998 -1.113610 1
1.408835 0.005521 -1.150865 1
1.539043 0.075709 -1.243177 1
1.530329 -0.004579 -1.065856 1
1.435988 -0.007619 -1.235328 1
1.606734 0.053147 -1.170722 1
1.402112 0.078080 -1.107784 1
1.525986 0.000349 -1.278066 1
1.597769 -0.002048 -1.081604 1
1.406024 -0.003018 -1.184482 1
1.559210 0.092630 -1.221165 1
1.490015 -0.008601 -1.065437 1
1.463202 -0.007932 -1.264194 1
1.610681 0.046476 -1.132743 1
1.384786 0.067683 -1.130611 1
1.528200 0.066823 -1.261777 1
1.558229 -0.001987 -1.060285 1
1.414473 -0.005856 -1.220480 1
1.566536 0.111352 -1.189540 1
1.445606 0.001269 -1.080154 1
1.499205 -0.001496 -1.283656 1
1.624453 0.003592 -1.092141 1
1.395634 0.000101 -1.162480 1
1.550769 0.090968 -1.242869 1
1.514619 -0.006238 -1.052186 1
1.438071 -0.010712 -1.255624 1
1.629204 0.046151 -1.155236 1
1.388286 0.069550 -1.110063 1
1.508242 0.062100 -1.275153 1
1.597868 -0.011476 -1.059484 1
1.396784 -0.003362 -1.200721 1
1.453920 0.076876 -1.153474 1
1.458955 0.083725 -1.146700 1
1.439108 0.074280 -1.153066 1
1.467430 0.078907 -1.165932 1
1.448654 0.084114 -1.133238 1
1.463251 0.024965 -1.174172 1
1.477602 0.085360 -1.149693 1
1.428628 0.077917 -1.138565 1
1.491937 0.020879 -1.186745 1
1.482209 0.056389 -1.125604 1
1.453056 0.003959 -1.166602 1
1.487502 0.081241 -1.167665 1
1.436137 0.080756 -1.121589 1
1.482091 -0.007076 -1.196332 1
1.535739 0.006593 -1.133542 1
1.419114 0.060674 -1.144128 1
1.494428 0.052470 -1.191052 1
1.501187 0.002230 -1.106555 1
1.452371 -0.003380 -1.186017 1
1.499999 0.087064 -1.156611 1
1.419000 0.077586 -1.121272 1
1.499977 -0.008490 -1.211417 1
1.542854 -0.009877 -1.111546 1
1.432664 0.000185 -1.160832 1
1.504697 0.071977 -1.185223 1
1.477331 0.006970 -1.097873 1
1.462287 -0.006327 -1.206707 1
1.564379 0.000758 -1.137473 1
1.404417 0.070228 -1.130158 1
1.525996 -0.008353 -1.218128 1
1.525026 -0.007019 -1.092626 1
1.432364 -0.005832 -1.183410 1
1.514817 0.085323 -1.170532 1
1.442301 0.027970 -1.100564 1
1.484676 -0.011223 -1.224755 1
1.565434 -0.006232 -1.111382 1
1.410552 0.020290 -1.147351 1
1.519028 0.050723 -1.206156 1
1.498864 -0.006616 -1.080947 1
1.443182 -0.011386 -1.208174 1
1.565505 0.028259 -1.150078 1
1.400343 0.073593 -1.114089 1
1.511712 -0.006826 -1.234247 1
1.550812 -0.010206 -1.086889 1
1.413339 -0.001985 -1.172749 1
1.521476 0.084325 -1.188270 1
1.466441 -0.003482 -1.079879 1
1.461069 -0.006314 -1.229399 1
1.589995 -0.006882 -1.119721 1
1.386982 0.064046 -1.131363 1
1.546445 -0.006756 -1.233824 1
1.521793 -0.009226 -1.069970 1
1.421495 -0.009023 -1.201228 1
1.531855 0.093478 -1.165196 1
1.406263 0.068843 -1.096701 1
1.492176 -0.007788 -1.245229 1
1.576626 -0.009167 -1.089233 1
1.398244 0.003980 -1.156751 1
1.541359 0.052491 -1.212020 1
1.487636 -0.011174 -1.063433 1
1.440235 -0.011533 -1.228555 1
1.605858 0.000249 -1.135830 1
1.384112 0.068644 -1.113802 1
1.528947 -0.005601 -1.250252 1
1.547771 -0.008566 -1.065410 1
1.402279 -0.006085 -1.188111 1
1.537784 0.092517 -1.184918 1
1.449408 -0.007297 -1.069910 1
1.468796 -0.009367 -1.250022 1
1.603303 -0.009322 -1.099201 1
1.390643 0.003870 -1.137228 1
1.556553 0.014516 -1.238816 1
1.510617 -0.009556 -1.052287 1
1.414527 -0.003451 -1.219081 1
1.609199 0.016142 -1.157466 1
1.382990 0.084260 -1.096816 1
1.506433 -0.006403 -1.261970 1
1.576619 -0.007987 -1.067746 1
1.386820 -0.002047 -1.170113 1
1.546999 0.077156 -1.208378 1
1.468824 -0.008521 -1.052651 1
1.442663 -0.008752 -1.247736 1
1.621060 -0.000939 -1.117115 1
1.368077 0.067904 -1.118532 1
1.539948 0.011937 -1.257575 1
1.539000 -0.008928 -1.046456 1
1.393995 -0.002085 -1.204924 1
1.551643 0.100256 -1.176648 1
1.428008 -0.004043 -1.066626 1
1.479252 -0.006008 -1.267230 1
1.606601 -0.008128 -1.077535 1
1.376228 0.002981 -1.148615 1
1.544883 0.066436 -1.231869 1
1.493364 -0.007386 -1.039410 1
1.417442 -0.009258 -1.239184 1
1.619405 0.024765 -1.141077 1
1.372597 0.066645 -1.098019 1
1.521664 0.001179 -1.273603 1
1.570084 -0.007361 -1.047432 1
1.378778 -0.005587 -1.186351 1
1.418723 0.076713 -1.136516 1
1.425693 0.079416 -1.129965 1
1.407416 0.067450 -1.136196 1
1.434629 0.072395 -1.148590 1
1.397573 0.120239 -1.118882 1
1.427961 0.019251 -1.155510 1
1.441668 0.084551 -1.132766 1
1.396385 0.073753 -1.122182 1
1.447316 0.031876 -1.166391 1
1.413906 0.118896 -1.112720 1
1.414347 0.005701 -1.147622 1
1.450636 0.080756 -1.149923 1
1.378925 0.135194 -1.109835 1
1.439554 -0.000913 -1.175426 1
1.482368 0.026838 -1.115650 1
1.385961 0.057921 -1.127385 1
1.473769 0.017540 -1.174165 1
1.461600 0.000050 -1.088494 1
1.413276 -0.001182 -1.166260 1
1.464047 0.083900 -1.139233 1
1.382401 0.085651 -1.106156 1
1.458021 -0.006243 -1.189902 1
1.499325 -0.009694 -1.092953 1
1.393371 0.006013 -1.142168 1
1.466593 0.071159 -1.166426 1
1.442373 -0.002838 -1.079422 1
1.423774 -0.007125 -1.186303 1
1.520297 0.000010 -1.118059 1
1.371519 0.069502 -1.114149 1
1.483314 -0.007933 -1.196097 1
1.482395 -0.006295 -1.074843 1
1.393151 -0.000672 -1.163836 1
1.476936 0.083712 -1.152442 1
1.411524 0.012661 -1.082226 1
1.441735 -0.004756 -1.202438 1
1.521639 -0.007856 -1.092559 1
1.378520 0.009359 -1.129562 1
1.500599 0.011680 -1.189681 1
1.457921 -0.006364 -1.063561 1
1.403074 -0.005768 -1.187362 1
1.529805 0.015036 -1.130649 1
1.368955 0.069207 -1.098194 1
1.471962 -0.010579 -1.212451 1
1.506529 -0.009478 -1.069046 1
1.375373 0.002675 -1.153902 1
1.485730 0.078314 -1.169700 1
1.428694 -0.006887 -1.062231 1
1.423121 -0.008299 -1.208479 1
1.545216 -0.009544 -1.100353 1
1.356083 0.058104 -1.115082 1
1.503178 -0.007650 -1.211000 1
1.480389 -0.010722 -1.052407 1
1.382838 -0.004041 -1.181129 1
1.489382 0.097560 -1.147144 1
1.386382 0.030086 -1.076530 1
1.451324 -0.006871 -1.222730 1
1.533552 -0.013248 -1.070595 1
1.363036 0.002125 -1.138724 1
1.504319 0.044743 -1.191959 1
1.445786 -0.007960 -1.046880 1
1.400460 -0.006254 -1.207022 1
1.567783 -0.014057 -1.115468 1
1.352045 0.067339 -1.098187 1
1.487206 -0.007271 -1.227273 1
1.505061 -0.010224 -1.047850 1
1.364758 -0.001515 -1.168842 1
1.500382 0.087924 -1.166278 1
1.411390 -0.008737 -1.052686 1
1.427829 -0.005011 -1.227218 1
1.559544 -0.014943 -1.079973 1
1.354736 0.005164 -1.119724 1
1.524859 -0.006322 -1.218938 1
1.469325 -0.010104 -1.035302 1
1.378480 -0.004801 -1.199274 1
1.576577 -0.005590 -1.137107 1
1.356714 0.066604 -1.079759 1
1.466762 -0.009700 -1.239317 1
1.533908 -0.012505 -1.049570 1
1.350821 -0.000287 -1.151772 1
1.508478 0.072499 -1.188467 1
1.428536 -0.006516 -1.036270 1
1.403296 -0.004566 -1.225593 1
1.581565 -0.014216 -1.096903 1
1.338630 0.058743 -1.102341 1
1.508079 -0.007934 -1.237714 1
1.496153 -0.009372 -1.029586 1
1.358696 -0.003332 -1.185828 1
1.505969 0.106544 -1.157766 1
1.392964 -0.011573 -1.048593 1
1.440931 -0.009096 -1.244965 1
1.562824 -0.013838 -1.058828 1
1.341662 0.000970 -1.130956 1
1.531400 0.021553 -1.217157 1
1.451717 -0.005041 -1.023398 1
1.379218 -0.004596 -1.217792 1
1.595428 -0.008929 -1.120410 1
1.340871 0.064904 -1.082608 1
1.482641 -0.004575 -1.250842 1
1.525154 -0.007311 -1.030632 1
1.342627 -0.002294 -1.167565 1
1.407678 0.075571 -1.131794 1
1.414454 0.078584 -1.125310 1
1.394072 0.072104 -1.131499 1
1.422825 0.072148 -1.143726 1
1.403587 0.081868 -1.112499 1
1.420483 0.006472 -1.150615 1
1.430143 0.083878 -1.128116 1
1.386464 0.070444 -1.117447 1
1.440775 0.018012 -1.161768 1
1.440993 0.037930 -1.102851 1
1.401410 0.006697 -1.142390 1
1.439285 0.079222 -1.145097 1
1.386404 0.091712 -1.102264 1
1.425392 0.001635 -1.169722 1
1.473016 0.018911 -1.110408 1
1.372161 0.065170 -1.122877 1
1.450018 0.038593 -1.167353 1
1.446619 0.003704 -1.084102 1
1.399904 0.000718 -1.160760 1
1.449289 0.088355 -1.134532 1
1.376133 0.073224 -1.100767 1
1.443047 -0.002993 -1.183853 1
1.480293 -0.000204 -1.088984 1
1.381267 0.005535 -1.137012 1
1.451648 0.075523 -1.161071 1
1.426140 0.004938 -1.075605 1
1.409621 -0.003968 -1.180400 1
1.493722 0.021541 -1.114014 1
1.360209 0.070826 -1.109666 1
1.467414 -0.004150 -1.189816 1
1.469370 -0.007887 -1.069983 1
1.380055 0.001531 -1.158388 1
1.462577 0.086671 -1.147471 1
1.393184 0.029185 -1.079449 1
1.429343 -0.006907 -1.196839 1
1.506497 -0.006957 -1.087844 1
1.368535 0.002621 -1.124362 1
1.492006 0.001188 -1.184853 1
1.445135 -0.007613 -1.058770 1
1.389224 -0.002160 -1.181462 1
1.496960 0.045777 -1.126256 1
1.357959 0.069722 -1.093782 1
1.456306 -0.006799 -1.205894 1
1.493053 -0.011045 -1.064242 1
1.364204 -0.000525 -1.148733 1
1.472093 0.079427 -1.164467 1
1.414508 -0.003435 -1.058086 1
1.408506 -0.003980 -1.202092 1
1.529814 -0.009234 -1.095498 1
1.351179 0.037068 -1.109247 1
1.488786 -0.007909 -1.204890 1
1.464098 -0.005398 -1.048784 1
1.369554 -0.000833 -1.175407 1
1.483049 0.087043 -1.142506 1
1.373254 0.034481 -1.072536 1
1.437534 -0.006191 -1.216532 1
1.513892 -0.004892 -1.067102 1
1.351214 0.001672 -1.133590 1
1.500070 0.028059 -1.187995 1
1.431160 -0.004322 -1.042999 1
1.386438 -0.002045 -1.200752 1
1.545534 -0.003874 -1.110886 1
1.341566 0.066712 -1.093639 1
1.474211 -0.009776 -1.221380 1
1.488520 -0.005762 -1.044222 1
1.352684 -0.001422 -1.163487 1
1.488724 0.085396 -1.161319 1
1.398575 -0.008232 -1.048121 1
1.414612 -0.004630 -1.221110 1
1.538887 -0.006622 -1.076252 1
1.338879 0.021406 -1.115419 1
1.509361 -0.005461 -1.212502 1
1.453472 -0.004984 -1.031918 1
1.365242 -0.001567 -1.193305 1
1.541474 0.023534 -1.132078 1
1.343847 0.074032 -1.076364 1
1.451171 -0.005850 -1.232271 1
1.515154 -0.005667 -1.046363 1
1.338899 -0.000027 -1.146555 1
1.492672 0.075934 -1.182616 1
1.415888 -0.006973 -1.031689 1
1.390427 -0.003983 -1.219567 1
1.561329 -0.007953 -1.092577 1
1.328149 0.058017 -1.097703 1
1.491369 -0.004108 -1.230535 1
1.480086 -0.005264 -1.026177 1
1.346131 -0.001195 -1.180189 1
1.503597 0.090342 -1.153486 1
1.380681 -0.012087 -1.043815 1
1.426089 -0.005472 -1.237970 1
1.542080 -0.005482 -1.055688 1
1.330229 -0.000358 -1.125847 1
1.531280 -0.002929 -1.214532 1
1.438570 -0.005014 -1.019078 1
1.365939 -0.001319 -1.211553 1
1.572547 0.000345 -1.115670 1
1.331515 0.060191 -1.077569 1
1.469614 -0.006877 -1.244754 1
1.511281 -0.008544 -1.026208 1
1.330472 -0.000794 -1.162187 1
1.416500 0.078625 -1.132257 1
1.421156 0.086215 -1.125877 1
1.403470 0.073624 -1.131924 1
1.429137 0.080766 -1.144159 1
1.387998 0.139211 -1.115802 1
1.429908 0.010590 -1.151200 1
1.435321 0.094279 -1.128732 1
1.394228 0.075959 -1.117958 1
1.431415 0.062253 -1.160352 1
1.458167 0.025606 -1.102291 1
1.406173 0.022792 -1.142783 1
1.446783 0.085255 -1.145597 1
1.397900 0.087510 -1.102058 1
1.437952 -0.001480 -1.170800 1
1.484417 0.019871 -1.110878 1
1.380762 0.068547 -1.123286 1
1.458213 0.044602 -1.167871 1
1.462792 -0.005958 -1.083324 1
1.410278 0.002167 -1.161425 1
1.457383 0.093160 -1.135073 1
1.376365 0.098549 -1.102885 1
1.454202 -0.002152 -1.184835 1
1.493941 -0.002834 -1.089006 1
1.394943 -0.003307 -1.137538 1
1.460288 0.079654 -1.161664 1
1.440819 -0.002823 -1.074805 1
1.419444 -0.000763 -1.181048 1
1.516329 0.003605 -1.113715 1
1.369288 0.072438 -1.109950 1
1.478750 -0.002953 -1.190892 1
1.480226 -0.005235 -1.070405 1
1.391237 -0.000017 -1.159116 1
1.470972 0.091163 -1.148050 1
1.408175 0.017684 -1.078206 1
1.439416 -0.003885 -1.197616 1
1.518985 -0.006410 -1.088172 1
1.376893 0.009655 -1.124923 1
1.483157 0.039591 -1.182481 1
1.456038 -0.005616 -1.059055 1
1.400875 -0.004638 -1.182533 1
1.532258 0.007874 -1.126074 1
1.366853 0.071950 -1.094066 1
1.466657 -0.003846 -1.206813 1
1.504038 -0.008011 -1.064698 1
1.373737 0.002727 -1.149213 1
1.479294 0.086197 -1.164952 1
1.426016 -0.003897 -1.058002 1
1.418438 -0.001168 -1.202826 1
1.541944 -0.007386 -1.096020 1
1.352300 0.066507 -1.111099 1
1.500312 -0.006425 -1.206126 1
1.477856 -0.008771 -1.048127 1
1.380591 -0.002409 -1.176274 1
1.491460 0.091839 -1.143122 1
1.384828 0.030794 -1.072064 1
1.448924 -0.006082 -1.217842 1
1.529405 -0.009254 -1.066599 1
1.361483 0.002077 -1.134024 1
1.485735 0.072571 -1.184598 1
1.444229 -0.007761 -1.042259 1
1.396185 0.000750 -1.201397 1
1.560916 -0.006740 -1.111312 1
1.350061 0.070066 -1.094022 1
1.484487 -0.006253 -1.222346 1
1.500776 -0.005265 -1.044154 1
1.362794 -0.000434 -1.164059 1
1.495788 0.092365 -1.161844 1
1.409225 -0.006752 -1.048294 1
1.425273 -0.003575 -1.222205 1
1.554059 -0.009340 -1.076118 1
1.347316 0.027368 -1.115939 1
1.522310 -0.005943 -1.214166 1
1.467882 -0.010197 -1.030653 1
1.374783 0.001479 -1.193831 1
1.569751 0.001222 -1.132675 1
1.349034 0.087910 -1.078150 1
1.461413 -0.002892 -1.233263 1
1.530227 -0.009169 -1.045623 1
1.348779 0.001466 -1.147009 1
1.501912 0.079765 -1.183417 1
1.426728 -0.005506 -1.031774 1
1.400934 -0.003273 -1.220600 1
1.576537 -0.009869 -1.092795 1
1.335387 0.066455 -1.098500 1
1.505645 -0.007746 -1.232894 1
1.494063 -0.008288 -1.025233 1
1.355633 0.001726 -1.180650 1
1.512072 0.095285 -1.154155 1
1.390470 -0.008313 -1.044381 1
1.435962 -0.002239 -1.238807 1
1.557832 -0.008946 -1.055105 1
1.339778 0.002454 -1.126253 1
1.538157 0.007042 -1.214748 1
1.450341 -0.005079 -1.018733 1
1.376889 -0.002956 -1.212770 1
1.588286 -0.002001 -1.116228 1
1.339768 0.064780 -1.078128 1
1.480014 -0.003844 -1.245872 1
1.523580 -0.007348 -1.026115 1
1.340629 -0.000751 -1.162737 1
1.431763 0.086544 -1.141030 1
1.438316 0.090016 -1.134533 1
1.419017 0.080907 -1.140723 1
1.446248 0.085352 -1.153055 1
1.460380 0.023914 -1.118950 1
1.430980 0.054614 -1.159367 1
1.456332 0.091277 -1.137329 1
1.409269 0.083980 -1.126733 1
1.449710 0.065510 -1.169728 1
1.486347 0.012205 -1.110769 1
1.420602 0.036207 -1.152111 1
1.462506 0.092843 -1.154414 1
1.439099 0.036547 -1.106976 1
1.456940 0.003708 -1.180998 1
1.512792 0.008935 -1.119967 1
1.397766 0.071884 -1.132037 1
1.465309 0.070599 -1.175866 1
1.483039 -0.002651 -1.092998 1
1.430889 0.001930 -1.171708 1
1.513260 0.033162 -1.144623 1
1.398741 0.086714 -1.110119 1
1.476244 -0.002502 -1.195846 1
1.517316 -0.003874 -1.098396 1
1.409433 0.012172 -1.147207 1
1.476565 0.087045 -1.170685 1
1.461317 -0.001260 -1.084178 1
1.441205 -0.002934 -1.191940 1
1.541067 0.001646 -1.123504 1
1.385430 0.077297 -1.118609 1
1.501261 -0.002636 -1.202115 1
1.504520 -0.008897 -1.079214 1
1.410252 0.002945 -1.169110 1
1.487797 0.097462 -1.156956 1
1.431337 0.009956 -1.086354 1
1.462248 -0.006801 -1.209136 1
1.541720 -0.004864 -1.097832 1
1.386891 0.037368 -1.134669 1
1.492633 0.061135 -1.190707 1
1.475874 -0.001919 -1.068604 1
1.420168 -0.001581 -1.192854 1
1.557280 0.006474 -1.136139 1
1.381922 0.079652 -1.102935 1
1.489859 -0.005507 -1.218573 1
1.525251 -0.004723 -1.074273 1
1.392542 0.005229 -1.159028 1
1.495738 0.093700 -1.173997 1
1.446513 -0.003121 -1.067135 1
1.440468 -0.003939 -1.214271 1
1.561074 0.000943 -1.106261 1
1.370705 0.064411 -1.119517 1
1.520248 -0.000132 -1.216972 1
1.498520 -0.005719 -1.057556 1
1.399598 0.000266 -1.186422 1
1.567622 0.010776 -1.154798 1
1.409481 0.016095 -1.079011 1
1.468479 -0.001167 -1.228635 1
1.549946 -0.003740 -1.076474 1
1.379767 0.005672 -1.143674 1
1.513024 0.063837 -1.195983 1
1.464349 -0.005153 -1.051591 1
1.417263 -0.001440 -1.212548 1
1.579185 0.003539 -1.121703 1
1.365915 0.075340 -1.102703 1
1.504621 -0.000880 -1.233399 1
1.523964 -0.005819 -1.052906 1
1.381219 0.003004 -1.173924 1
1.510307 0.102982 -1.170644 1
1.427965 -0.002322 -1.057947 1
1.446399 -0.003521 -1.233690 1
1.574147 -0.002148 -1.086238 1
1.368377 0.018794 -1.124802 1
1.535143 0.012832 -1.223219 1
1.488219 -0.006982 -1.040031 1
1.395021 -0.000050 -1.204589 1
1.586853 0.013269 -1.143005 1
1.378217 0.052082 -1.081739 1
1.483459 -0.002475 -1.245200 1
1.550631 -0.003564 -1.055397 1
1.367471 0.003154 -1.156744 1
1.516801 0.090666 -1.192394 1
1.448180 -0.006959 -1.040296 1
1.419721 0.001170 -1.231087 1
1.591810 0.005008 -1.103553 1
1.352850 0.066194 -1.106823 1
1.518504 0.011205 -1.241583 1
1.514107 -0.003603 -1.034792 1
1.375060 0.001321 -1.190942 1
1.580478 0.032168 -1.167245 1
1.410041 -0.006746 -1.053614 1
1.457609 -0.002634 -1.250795 1
1.578286 -0.002343 -1.065052 1
1.360223 -0.002979 -1.135745 1
1.543581 0.036409 -1.221924 1
1.472402 -0.006556 -1.027037 1
1.395609 0.000511 -1.223153 1
1.602542 0.014293 -1.126773 1
1.354551 0.073817 -1.087327 1
1.496797 0.007658 -1.255778 1
1.544123 -0.002432 -1.035657 1
1.358880 0.002331 -1.172509 1
1.481734 0.093857 -1.166298 1
1.486596 0.100590 -1.159398 1
1.469780 0.085583 -1.166127 1
1.500066 0.088694 -1.179418 1
1.494516 0.068836 -1.146033 1
1.490068 0.048962 -1.187692 1
1.505376 0.102796 -1.162460 1
1.456233 0.093901 -1.151239 1
1.511731 0.057771 -1.199036 1
1.550079 0.011398 -1.138415 1
1.479375 0.030863 -1.180413 1
1.515805 0.098894 -1.180648 1
1.501949 0.026560 -1.132748 1
1.519430 0.001687 -1.212598 1
1.576719 0.012428 -1.148532 1
1.445458 0.080616 -1.157023 1
1.537939 0.049266 -1.207647 1
1.543430 0.002564 -1.120576 1
1.489071 0.003701 -1.201852 1
1.525343 0.108986 -1.169257 1
1.444812 0.096571 -1.134020 1
1.532831 0.009646 -1.226811 1
1.575259 0.009857 -1.126807 1
1.470107 0.003329 -1.176128 1
1.534138 0.089709 -1.198686 1
1.521038 0.001708 -1.111095 1
1.500229 -0.000351 -1.223377 1
1.594902 0.023791 -1.152580 1
1.431405 0.087250 -1.142911 1
1.550559 0.024226 -1.231431 1
1.562640 0.003212 -1.107154 1
1.469715 -0.001796 -1.199358 1
1.540228 0.108024 -1.183219 1
1.489289 0.010448 -1.112535 1
1.516756 0.007879 -1.239942 1
1.598676 0.013149 -1.126621 1
1.445953 0.023978 -1.161674 1
1.547162 0.072743 -1.219761 1
1.537945 -0.001020 -1.094860 1
1.479150 -0.002681 -1.224345 1
1.607948 0.034178 -1.165269 1
1.426464 0.091868 -1.126923 1
1.534383 0.028754 -1.246440 1
1.586709 0.004453 -1.101792 1
1.450330 0.000501 -1.188295 1
1.548130 0.105961 -1.201141 1
1.503415 0.003012 -1.093761 1
1.497228 0.003291 -1.246001 1
1.612694 0.027691 -1.135351 1
1.417693 0.072401 -1.144174 1
1.547274 0.061059 -1.239966 1
1.558150 0.002601 -1.084419 1
1.457073 -0.001546 -1.217129 1
1.557358 0.116090 -1.177866 1
1.466493 0.014159 -1.104354 1
1.515189 0.027492 -1.256983 1
1.605729 0.016265 -1.104968 1
1.435314 0.003921 -1.171767 1
1.550449 0.100827 -1.221196 1
1.525199 -0.003757 -1.077359 1
1.475054 -0.000388 -1.244664 1
1.605712 0.063040 -1.150602 1
1.410531 0.086511 -1.126686 1
1.525526 0.070405 -1.252835 1
1.584379 0.004450 -1.079921 1
1.437113 0.001148 -1.203520 1
1.558069 0.122196 -1.196738 1
1.486113 -0.001459 -1.083671 1
1.498239 0.014112 -1.264084 1
1.602705 0.054931 -1.117059 1
1.417512 0.029489 -1.151268 1
1.547941 0.091476 -1.241809 1
1.547214 0.000921 -1.066417 1
1.451788 -0.000917 -1.236002 1
1.581537 0.109821 -1.168425 1
1.413661 0.090055 -1.108630 1
1.515501 0.052075 -1.267600 1
1.605186 0.017771 -1.083724 1
1.422838 0.000063 -1.185389 1
1.560135 0.117474 -1.218456 1
1.505417 -0.001058 -1.066406 1
1.476157 0.005320 -1.263512 1
1.593933 0.093261 -1.134089 1
1.399525 0.072387 -1.130950 1
1.524136 0.101883 -1.255190 1
1.578790 -0.001544 -1.059961 1
1.430457 -0.000098 -1.221223 1
1.566854 0.135463 -1.187939 1
1.464304 0.000591 -1.080131 1
1.500602 0.032444 -1.277391 1
1.602899 0.059366 -1.097464 1
1.412428 0.002691 -1.163280 1
1.568352 0.094956 -1.244102 1
1.530836 0.000062 -1.052910 1
1.451678 0.001395 -1.255199 1
1.612003 0.092207 -1.154835 1
1.398084 0.086896 -1.111310 1
1.507542 0.093880 -1.268730 1
1.603642 0.010941 -1.062526 1
1.412520 0.002582 -1.201380 1
1.526571 0.089987 -1.193838 1
1.530342 0.098803 -1.186219 1
1.523254 0.066209 -1.195134 1
1.543259 0.090068 -1.207736 1
1.517616 0.100658 -1.171602 1
1.551163 0.021848 -1.221339 1
1.545542 0.108412 -1.189133 1
