ply
format ascii 1.0
element vertex 1595
property float x
property float y
property float z
property uchar label
end_header
0.177467 0.514630 -0.384781 1
0.276517 0.543608 -0.304390 1
0.144530 0.521552 -0.293433 1
0.240251 0.515626 -0.389128 1
0.234710 0.536878 -0.253803 1
0.146586 0.504104 -0.356515 1
0.285781 0.516806 -0.339557 1
0.168868 0.535130 -0.262604 1
0.199288 0.524207 -0.397281 1
0.268994 0.542886 -0.278830 1
0.134325 0.510477 -0.315932 1
0.268219 0.499225 -0.376153 1
0.209151 0.534525 -0.244855 1
0.160779 0.511273 -0.380632 1
0.288233 0.534342 -0.316383 1
0.146869 0.525737 -0.276338 1
0.225206 0.524858 -0.400505 1
0.252196 0.540355 -0.256077 1
0.133708 0.502046 -0.342864 1
0.286006 0.513213 -0.357468 1
0.180766 0.537352 -0.248829 1
0.182357 0.513296 -0.398004 1
0.278334 0.559965 -0.296000 1
0.130970 0.514773 -0.298165 1
0.256161 0.504703 -0.392398 1
0.227412 0.535875 -0.239860 1
0.144414 0.508005 -0.371556 1
0.295829 0.525973 -0.332377 1
0.154227 0.530944 -0.259814 1
0.208582 0.525092 -0.407505 1
0.268454 0.547599 -0.265223 1
0.124187 0.503550 -0.325812 1
0.282578 0.503590 -0.375093 1
0.214485 0.529826 -0.334202 1
0.206252 0.529031 -0.331948 1
0.220699 0.532500 -0.345029 1
0.217008 0.530337 -0.319171 1
0.201117 0.527999 -0.344758 1
0.233695 0.529857 -0.335439 1
0.200311 0.527454 -0.317989 1
0.214386 0.531396 -0.357427 1
0.231034 0.530177 -0.315311 1
0.189194 0.524723 -0.335984 1
0.235979 0.530027 -0.350517 1
0.209254 0.531248 -0.305686 1
0.198962 0.527950 -0.359502 1
0.244792 0.529474 -0.325022 1
0.186048 0.524390 -0.318316 1
0.225779 0.530152 -0.365455 1
0.227386 0.532888 -0.301690 1
0.183070 0.524040 -0.348984 1
0.250945 0.521318 -0.342699 1
0.195375 0.529796 -0.301135 1
0.206436 0.530724 -0.372046 1
0.246500 0.534273 -0.311053 1
0.174799 0.522812 -0.328252 1
0.241659 0.524806 -0.364581 1
0.215662 0.534596 -0.291789 1
0.185100 0.524879 -0.364568 1
0.259175 0.527809 -0.330485 1
0.179939 0.526126 -0.304526 1
0.220365 0.531226 -0.379231 1
0.240532 0.535964 -0.295664 1
0.169298 0.524813 -0.344710 1
0.258507 0.516925 -0.355068 1
0.199052 0.533239 -0.287431 1
0.194581 0.527897 -0.378957 1
0.260271 0.536382 -0.314666 1
0.166615 0.523825 -0.316246 1
0.239647 0.520192 -0.378148 1
0.227516 0.534200 -0.282175 1
0.171107 0.523153 -0.362754 1
0.270129 0.519648 -0.340003 1
0.180564 0.530805 -0.290823 1
0.210189 0.530110 -0.388691 1
0.254035 0.542280 -0.297425 1
0.158594 0.520967 -0.333869 1
0.261123 0.506039 -0.368432 1
0.208229 0.537073 -0.276654 1
0.180673 0.520739 -0.379862 1
0.274016 0.527989 -0.321210 1
0.163654 0.525164 -0.301499 1
0.230275 0.528547 -0.391355 1
0.241707 0.538183 -0.279305 1
0.157910 0.515463 -0.354322 1
0.275913 0.513387 -0.353660 1
0.186748 0.533959 -0.277272 1
0.196992 0.524612 -0.393635 1
0.267830 0.543732 -0.303233 1
0.151523 0.519180 -0.319314 1
0.256549 0.502878 -0.383320 1
0.221902 0.536660 -0.267825 1
0.165723 0.511476 -0.375297 1
0.284661 0.519652 -0.332619 1
0.165850 0.528039 -0.286010 1
0.218133 0.528476 -0.400667 1
0.256636 0.543789 -0.282345 1
0.146297 0.504340 -0.340136 1
0.277656 0.502562 -0.368722 1
0.197574 0.538868 -0.266412 1
0.181671 0.513188 -0.393638 1
0.282559 0.534347 -0.310768 1
0.148933 0.521033 -0.302927 1
0.244733 0.512924 -0.397895 1
0.238266 0.537882 -0.264027 1
0.151141 0.506661 -0.366185 1
0.289908 0.515914 -0.348575 1
0.173058 0.532997 -0.271620 1
0.203334 0.524058 -0.406078 1
0.272968 0.541130 -0.287578 1
0.138763 0.509208 -0.325179 1
0.272350 0.499211 -0.385414 1
0.212938 0.535664 -0.255358 1
0.165046 0.511244 -0.389673 1
0.293073 0.530274 -0.324443 1
0.151264 0.525295 -0.285992 1
0.229482 0.522697 -0.409194 1
0.255198 0.543238 -0.266963 1
0.138327 0.503018 -0.352461 1
0.290362 0.511761 -0.366395 1
0.184853 0.537477 -0.258870 1
0.186521 0.513203 -0.406946 1
0.135385 0.512948 -0.307337 1
0.260272 0.504739 -0.401528 1
0.231209 0.535592 -0.249762 1
0.148918 0.510220 -0.380950 1
0.300145 0.524179 -0.341096 1
0.158486 0.528464 -0.268801 1
0.212701 0.523950 -0.416230 1
0.272676 0.544557 -0.273497 1
0.128725 0.502592 -0.335161 1
0.286628 0.503740 -0.384317 1
0.215445 0.529887 -0.339763 1
0.207288 0.528505 -0.337395 1
0.221660 0.532383 -0.350474 1
0.218030 0.529619 -0.324610 1
0.202199 0.527105 -0.350090 1
0.234314 0.531792 -0.341401 1
0.201363 0.526877 -0.323500 1
0.215395 0.531095 -0.362795 1
0.231610 0.532406 -0.321560 1
0.190205 0.526076 -0.341864 1
0.236979 0.529473 -0.355868 1
0.210369 0.529540 -0.310891 1
0.199984 0.528128 -0.364972 1
0.245325 0.531349 -0.331072 1
0.187083 0.525601 -0.324321 1
0.226496 0.532000 -0.371125 1
0.228371 0.532133 -0.307173 1
0.184145 0.524639 -0.354621 1
0.251431 0.523487 -0.348687 1
0.196521 0.527531 -0.306203 1
0.207501 0.530059 -0.377321 1
0.247693 0.532219 -0.316102 1
0.175917 0.523531 -0.334069 1
0.242586 0.524828 -0.370017 1
0.216668 0.533764 -0.297292 1
0.186244 0.522873 -0.369711 1
0.260496 0.525453 -0.335497 1
0.181041 0.525770 -0.310191 1
0.221371 0.530995 -0.384535 1
0.241559 0.534711 -0.300985 1
0.170423 0.523259 -0.349947 1
0.260392 0.512051 -0.359768 1
0.200128 0.531916 -0.292810 1
0.195905 0.522813 -0.383722 1
0.261689 0.533398 -0.319428 1
0.167774 0.524198 -0.322062 1
0.240067 0.523615 -0.383966 1
0.228200 0.535511 -0.288483 1
0.172222 0.517182 -0.367302 1
0.271306 0.518188 -0.345273 1
0.181699 0.528083 -0.295757 1
0.211401 0.527923 -0.393793 1
0.255498 0.538768 -0.301949 1
0.159913 0.525083 -0.340417 1
0.262025 0.506265 -0.374022 1
0.209209 0.536544 -0.282338 1
0.181911 0.514099 -0.384528 1
0.274564 0.528904 -0.327049 1
0.164786 0.523385 -0.306770 1
0.232004 0.523146 -0.396192 1
0.242650 0.537270 -0.284800 1
0.158947 0.510734 -0.359084 1
0.277473 0.510522 -0.358724 1
0.187828 0.532879 -0.282789 1
0.198425 0.518264 -0.398456 1
0.269075 0.541467 -0.308134 1
0.152565 0.515383 -0.324085 1
0.255865 0.511620 -0.389734 1
0.222771 0.536635 -0.273758 1
0.166901 0.511935 -0.380862 1
0.285579 0.519172 -0.338113 1
0.166962 0.525208 -0.290945 1
0.219307 0.526973 -0.405853 1
0.257748 0.541886 -0.287413 1
0.147519 0.503577 -0.345713 1
0.279349 0.499356 -0.373878 1
0.198661 0.537056 -0.271653 1
0.182813 0.512295 -0.398996 1
0.283604 0.533080 -0.316022 1
0.150168 0.520875 -0.308714 1
0.244649 0.519364 -0.403756 1
0.239080 0.537694 -0.269904 1
0.152406 0.507384 -0.371873 1
0.290913 0.515252 -0.354007 1
0.174174 0.531183 -0.276906 1
0.204711 0.519660 -0.411156 1
0.273330 0.542355 -0.293730 1
0.139559 0.502676 -0.329422 1
0.272701 0.501980 -0.391234 1
0.214041 0.533639 -0.260567 1
0.166219 0.511494 -0.395154 1
0.294566 0.527615 -0.329341 1
0.152323 0.521820 -0.290744 1
0.230133 0.525339 -0.414619 1
0.255823 0.543582 -0.272983 1
0.139471 0.501114 -0.357817 1
0.292073 0.508692 -0.371477 1
0.185915 0.536769 -0.264621 1
0.187609 0.513937 -0.412372 1
0.136133 0.506252 -0.311339 1
0.259586 0.513162 -0.407501 1
0.231909 0.536349 -0.256185 1
0.150225 0.511821 -0.386622 1
0.301697 0.521576 -0.346079 1
0.159607 0.526131 -0.273947 1
0.213828 0.523050 -0.421488 1
0.274837 0.538450 -0.276951 1
0.129897 0.500854 -0.340572 1
0.288259 0.501077 -0.389578 1
0.215190 0.531015 -0.342149 1
0.207276 0.527283 -0.339241 1
0.221477 0.532442 -0.352598 1
0.217805 0.530614 -0.327055 1
0.202064 0.527258 -0.352199 1
0.234574 0.528747 -0.342895 1
0.201171 0.528678 -0.326128 1
0.215096 0.532229 -0.365052 1
0.231846 0.529695 -0.323051 1
0.190154 0.525461 -0.343811 1
0.237154 0.526877 -0.357521 1
0.210127 0.531454 -0.313666 1
0.199781 0.528992 -0.367143 1
0.245819 0.527369 -0.332316 1
0.187065 0.525161 -0.326335 1
0.226447 0.530630 -0.372985 1
0.228409 0.531001 -0.309090 1
0.184042 0.525278 -0.356771 1
0.251516 0.521712 -0.350523 1
0.196391 0.529441 -0.308984 1
0.207250 0.530791 -0.379428 1
0.247773 0.530767 -0.317964 1
0.175897 0.522977 -0.336016 1
0.243040 0.520510 -0.371484 1
0.216635 0.533481 -0.299467 1
0.186060 0.524882 -0.372007 1
0.260658 0.523493 -0.337288 1
0.181051 0.525840 -0.312371 1
0.221129 0.531020 -0.386556 1
0.241637 0.533407 -0.302873 1
0.170396 0.525475 -0.352401 1
0.260361 0.510808 -0.361750 1
0.199977 0.534098 -0.295801 1
0.195596 0.525326 -0.385992 1
0.262005 0.530877 -0.321023 1
0.167774 0.522344 -0.323670 1
0.240703 0.517860 -0.385373 1
0.228345 0.533847 -0.290218 1
0.172145 0.519763 -0.369678 1
0.271321 0.516872 -0.347250 1
0.181710 0.529470 -0.298418 1
0.211084 0.528860 -0.395857 1
0.255254 0.539065 -0.304374 1
0.159819 0.521955 -0.341752 1
0.262287 0.503461 -0.375812 1
0.209136 0.537200 -0.284883 1
0.181722 0.516530 -0.386759 1
0.274717 0.527160 -0.328902 1
0.164880 0.524940 -0.309373 1
0.231034 0.528065 -0.398635 1
0.242368 0.538234 -0.287512 1
0.159050 0.514887 -0.361772 1
0.277523 0.508982 -0.360693 1
0.187807 0.534777 -0.285739 1
0.197996 0.522013 -0.400708 1
0.269540 0.538536 -0.309563 1
0.152889 0.520929 -0.327555 1
0.256578 0.506204 -0.391305 1
0.222937 0.534965 -0.275469 1
0.166816 0.512831 -0.382911 1
0.284769 0.521047 -0.340823 1
0.167091 0.527876 -0.294040 1
0.219001 0.527271 -0.407837 1
0.257302 0.543206 -0.290270 1
0.147875 0.509289 -0.348845 1
0.278730 0.500504 -0.376237 1
0.198526 0.539791 -0.275053 1
0.182642 0.512258 -0.400923 1
0.283115 0.533849 -0.318584 1
0.150298 0.521476 -0.310994 1
0.244955 0.515616 -0.405539 1
0.238850 0.538619 -0.272682 1
0.152430 0.508821 -0.374014 1
0.290856 0.514187 -0.356077 1
0.174265 0.533754 -0.280128 1
0.204231 0.522798 -0.413246 1
0.272445 0.544999 -0.297034 1
0.140057 0.508192 -0.332748 1
0.272977 0.499158 -0.393121 1
0.213711 0.537070 -0.264396 1
0.166071 0.510162 -0.396944 1
0.293713 0.529413 -0.332116 1
0.152467 0.522095 -0.293003 1
0.229689 0.526305 -0.416629 1
0.255590 0.544039 -0.275594 1
0.139808 0.505332 -0.360488 1
0.291822 0.508232 -0.373641 1
0.185960 0.538176 -0.267519 1
0.187412 0.513558 -0.414259 1
0.136820 0.512881 -0.315255 1
0.259370 0.512427 -0.409524 1
0.232009 0.535427 -0.258231 1
0.150149 0.511723 -0.388505 1
0.301267 0.521774 -0.348422 1
0.159880 0.530044 -0.277669 1
0.213461 0.523872 -0.423432 1
0.272974 0.545080 -0.281947 1
0.130280 0.503990 -0.343211 1
0.287761 0.501485 -0.391803 1
0.214705 0.530701 -0.343333 1
0.206875 0.526066 -0.340214 1
0.220949 0.532360 -0.353818 1
0.217303 0.530505 -0.328318 1
0.201586 0.527018 -0.353370 1
0.234006 0.528750 -0.344164 1
0.200724 0.528262 -0.327296 1
0.214589 0.531998 -0.366215 1
0.231128 0.530908 -0.324691 1
0.189700 0.525205 -0.344980 1
0.236495 0.527358 -0.358845 1
0.209668 0.531146 -0.314890 1
0.199303 0.528682 -0.368276 1
0.245243 0.527277 -0.333596 1
0.186626 0.524902 -0.327527 1
0.225854 0.530852 -0.374210 1
0.227901 0.530852 -0.310387 1
0.183587 0.525102 -0.357929 1
0.250811 0.522151 -0.351871 1
0.195970 0.528884 -0.310125 1
0.206758 0.530436 -0.380543 1
0.247235 0.530506 -0.319231 1
0.175467 0.522885 -0.337221 1
0.242273 0.521430 -0.372825 1
0.216098 0.533920 -0.300967 1
0.185600 0.524435 -0.373099 1
0.260045 0.523378 -0.338563 1
0.180634 0.525484 -0.313551 1
0.220658 0.530249 -0.387623 1
0.241207 0.532649 -0.304002 1
0.169965 0.524819 -0.353460 1
0.259605 0.511275 -0.363063 1
0.199566 0.533543 -0.296959 1
0.195125 0.524715 -0.387057 1
0.261473 0.530447 -0.322253 1
0.167365 0.522190 -0.324874 1
0.239976 0.518526 -0.386618 1
0.227866 0.533591 -0.291517 1
0.171695 0.518892 -0.370694 1
0.270714 0.516566 -0.348470 1
0.181308 0.528957 -0.299568 1
0.210571 0.528534 -0.396953 1
0.255159 0.536621 -0.304976 1
0.159394 0.521211 -0.342788 1
0.261528 0.503842 -0.377063 1
0.208713 0.536800 -0.286120 1
0.181248 0.516041 -0.387824 1
0.274146 0.526767 -0.330140 1
0.164450 0.522947 -0.310051 1
0.231016 0.523889 -0.399410 1
0.241914 0.537709 -0.288737 1
0.158597 0.513930 -0.362763 1
0.276828 0.508925 -0.361934 1
0.187432 0.533742 -0.286719 1
0.197510 0.521388 -0.401761 1
0.268994 0.538170 -0.310840 1
0.152468 0.520094 -0.328565 1
0.255728 0.507122 -0.392556 1
0.222579 0.533884 -0.276466 1
0.166356 0.512406 -0.383974 1
0.284831 0.518128 -0.341489 1
0.166662 0.524679 -0.294269 1
0.218434 0.527225 -0.408937 1
0.256814 0.542759 -0.291538 1
0.147412 0.508208 -0.349798 1
0.277444 0.502851 -0.377755 1
0.198106 0.539719 -0.276421 1
0.182151 0.511897 -0.401982 1
0.282703 0.532848 -0.319678 1
0.149713 0.517458 -0.311071 1
0.244148 0.516574 -0.406726 1
0.238605 0.536890 -0.273437 1
0.151990 0.508484 -0.375086 1
0.290072 0.514353 -0.357384 1
0.173891 0.531197 -0.280516 1
0.203704 0.522567 -0.414314 1
0.272013 0.544208 -0.298192 1
0.139600 0.507132 -0.333691 1
0.272181 0.499476 -0.394316 1
0.213271 0.536898 -0.265760 1
0.165633 0.511578 -0.398150 1
0.293338 0.528214 -0.333169 1
0.152084 0.521563 -0.294116 1
0.229474 0.523406 -0.417596 1
0.255974 0.539419 -0.275219 1
0.139411 0.505306 -0.361618 1
0.291583 0.506329 -0.374606 1
0.185581 0.537732 -0.268734 1
0.186893 0.513627 -0.415325 1
0.136387 0.511928 -0.316215 1
0.259368 0.508975 -0.410448 1
0.231359 0.536473 -0.260151 1
0.149732 0.511853 -0.389608 1
0.301401 0.518829 -0.349131 1
0.159503 0.529282 -0.278718 1
0.212926 0.523476 -0.424484 1
0.272452 0.544685 -0.283265 1
0.129899 0.503872 -0.344345 1
0.287082 0.501163 -0.392953 1
0.214935 0.530081 -0.345575 1
0.206761 0.529759 -0.343456 1
0.221143 0.532100 -0.356109 1
0.217427 0.530664 -0.330778 1
0.201707 0.528367 -0.356006 1
0.234110 0.528879 -0.346547 1
0.201047 0.526173 -0.329198 1
0.214821 0.531637 -0.368472 1
0.231332 0.530185 -0.326908 1
0.189954 0.524712 -0.347285 1
0.236008 0.531440 -0.361906 1
0.209904 0.530109 -0.317056 1
0.199568 0.528232 -0.370537 1
0.245376 0.527001 -0.335898 1
0.186884 0.523802 -0.329709 1
0.225775 0.532863 -0.376790 1
0.227894 0.531588 -0.313067 1
0.183863 0.524709 -0.360241 1
0.251772 0.517526 -0.353273 1
0.196260 0.526785 -0.311992 1
0.207027 0.530001 -0.382777 1
0.247465 0.529543 -0.321365 1
0.175727 0.523311 -0.339773 1
0.241482 0.527135 -0.375941 1
0.216124 0.534684 -0.303718 1
0.185897 0.523842 -0.375353 1
0.260669 0.520674 -0.340279 1
0.180873 0.524440 -0.315760 1
0.220884 0.530112 -0.389863 1
0.241152 0.533268 -0.306657 1
0.170252 0.523902 -0.355695 1
0.258806 0.515793 -0.366103 1
0.199758 0.532809 -0.299246 1
0.195434 0.524045 -0.389274 1
0.261623 0.529870 -0.324473 1
0.167669 0.524706 -0.328032 1
0.240092 0.518917 -0.388908 1
0.227853 0.534161 -0.294230 1
0.172006 0.518081 -0.372942 1
0.270742 0.516705 -0.350802 1
0.181531 0.527764 -0.301730 1
0.210849 0.528193 -0.399169 1
0.255275 0.536102 -0.307243 1
0.159531 0.515860 -0.344077 1
0.261618 0.504058 -0.379348 1
0.208763 0.537413 -0.288900 1
0.181620 0.513015 -0.389808 1
0.274174 0.526706 -0.332466 1
0.164727 0.523783 -0.312847 1
0.231195 0.524103 -0.401649 1
0.242184 0.536240 -0.290706 1
0.158700 0.506920 -0.363995 1
0.277095 0.508125 -0.364068 1
0.187641 0.532453 -0.288835 1
0.197821 0.520994 -0.403988 1
0.269104 0.537636 -0.313073 1
0.152502 0.514354 -0.329629 1
0.255039 0.511599 -0.395216 1
0.222092 0.538373 -0.280777 1
0.166693 0.511835 -0.386256 1
0.284521 0.519367 -0.344066 1
0.166891 0.524275 -0.296725 1
0.218686 0.527166 -0.411144 1
0.257015 0.541703 -0.293629 1
0.147486 0.503434 -0.351329 1
0.277719 0.502133 -0.379898 1
0.198278 0.538851 -0.278681 1
0.182497 0.511118 -0.404209 1
0.282961 0.531776 -0.321731 1
0.150013 0.517412 -0.313623 1
0.244240 0.517207 -0.408964 1
0.238445 0.537930 -0.276406 1
0.152269 0.506566 -0.377215 1
0.290526 0.512822 -0.359365 1
0.174088 0.530597 -0.282914 1
0.204027 0.522101 -0.416511 1
0.271929 0.544345 -0.300667 1
0.139573 0.502124 -0.335047 1
0.272018 0.500834 -0.396649 1
0.213207 0.538204 -0.268920 1
0.165993 0.511372 -0.400449 1
0.294397 0.524486 -0.334559 1
0.152307 0.520492 -0.296371 1
0.229689 0.523559 -0.419783 1
0.255764 0.540259 -0.278076 1
0.139806 0.505383 -0.364077 1
0.292104 0.504666 -0.376599 1
0.185752 0.536893 -0.271034 1
0.187228 0.513618 -0.417572 1
0.285566 0.544990 -0.311822 1
0.136308 0.506945 -0.317413 1
0.259480 0.509317 -0.412646 1
0.231346 0.536632 -0.262827 1
0.150112 0.511645 -0.391943 1
0.301530 0.518381 -0.351302 1
0.159615 0.525546 -0.279954 1
0.213207 0.523475 -0.426669 1
0.272541 0.544037 -0.285491 1
0.130248 0.503391 -0.346752 1
0.287221 0.501047 -0.395134 1
0.215428 0.531682 -0.350438 1
0.207548 0.528452 -0.347701 1
0.221916 0.531084 -0.360368 1
0.217983 0.531330 -0.335518 1
0.202412 0.528484 -0.360527 1
0.234837 0.528104 -0.350869 1
0.201698 0.526675 -0.333944 1
0.215579 0.530964 -0.372783 1
0.231991 0.529657 -0.331338 1
0.190610 0.526828 -0.352294 1
0.236792 0.530417 -0.366141 1
0.210276 0.532985 -0.322527 1
0.200263 0.528884 -0.375087 1
0.246404 0.524385 -0.339794 1
0.187519 0.526734 -0.335095 1
0.226776 0.530337 -0.380803 1
0.228389 0.532128 -0.317860 1
0.184626 0.525169 -0.364844 1
0.252334 0.517768 -0.357807 1
0.196809 0.529036 -0.317364 1
0.207760 0.529974 -0.387163 1
0.248203 0.528401 -0.325622 1
0.176502 0.524289 -0.344616 1
0.243580 0.518435 -0.379080 1
0.216858 0.533274 -0.307947 1
0.186805 0.520102 -0.379285 1
0.261851 0.517677 -0.344114 1
0.181567 0.526711 -0.321127 1
0.221633 0.529768 -0.394176 1
0.241946 0.531591 -0.310765 1
0.171058 0.522628 -0.360013 1
0.259935 0.513287 -0.370139 1
0.200326 0.533861 -0.304336 1
0.196211 0.524090 -0.393689 1
0.262278 0.529143 -0.328813 1
0.168457 0.524059 -0.332544 1
0.240707 0.519398 -0.393343 1
0.228266 0.535040 -0.299251 1
0.172842 0.518892 -0.377579 1
0.271818 0.514491 -0.354837 1
0.182226 0.528725 -0.306814 1
0.211517 0.529054 -0.403588 1
0.256283 0.533439 -0.311003 1
0.160570 0.521964 -0.350036 1
0.260817 0.511258 -0.384716 1
0.209432 0.536435 -0.293311 1
0.182382 0.516509 -0.394651 1
0.274864 0.525894 -0.336762 1
0.165569 0.526325 -0.318349 1
0.231879 0.524348 -0.406003 1
0.242862 0.535053 -0.294987 1
0.159835 0.514716 -0.369883 1
0.278220 0.505950 -0.368171 1
0.188273 0.533484 -0.294020 1
0.198536 0.522378 -0.408469 1
0.270305 0.534430 -0.316648 1
0.153346 0.513860 -0.334240 1
0.256830 0.505887 -0.399068 1
0.223104 0.534368 -0.284027 1
0.167560 0.511376 -0.390711 1
0.285168 0.518860 -0.348425 1
0.167706 0.527496 -0.302629 1
0.219458 0.526979 -0.415442 1
0.257929 0.539360 -0.297444 1
0.148512 0.505329 -0.356383 1
0.279672 0.496688 -0.383653 1
0.198863 0.539155 -0.283634 1
0.183258 0.515091 -0.408934 1
0.283858 0.530056 -0.325763 1
0.151137 0.522380 -0.319846 1
0.245186 0.515887 -0.413216 1
0.239007 0.537287 -0.280935 1
0.153411 0.511419 -0.382437 1
0.291678 0.510646 -0.363417 1
0.174802 0.531729 -0.288212 1
0.204817 0.522220 -0.420852 1
0.273390 0.540031 -0.303780 1
0.140632 0.503761 -0.340196 1
0.272102 0.503525 -0.401292 1
0.213917 0.536475 -0.273076 1
0.166896 0.512340 -0.404994 1
0.294734 0.524890 -0.339126 1
0.153239 0.522528 -0.301916 1
0.230327 0.524391 -0.424108 1
0.255872 0.541651 -0.283357 1
0.141046 0.509282 -0.369356 1
0.293144 0.503094 -0.380807 1
0.186350 0.538447 -0.276572 1
0.187971 0.516771 -0.422090 1
0.287432 0.539734 -0.314683 1
0.137123 0.505572 -0.321885 1
0.260092 0.509868 -0.417020 1
0.231735 0.537138 -0.267921 1
0.151016 0.511266 -0.396415 1
0.301882 0.518858 -0.355821 1
0.160391 0.525337 -0.284813 1
0.213971 0.523761 -0.430971 1
0.272534 0.545446 -0.290677 1
0.131308 0.504307 -0.351670 1
0.288111 0.500194 -0.399450 1
0.216471 0.530356 -0.356436 1
0.208335 0.530187 -0.354394 1
0.222735 0.531728 -0.366713 1
0.218986 0.530204 -0.341600 1
0.203352 0.528805 -0.366846 1
0.235841 0.527118 -0.356949 1
0.202578 0.527617 -0.340594 1
0.216498 0.531065 -0.378974 1
0.232745 0.530169 -0.337849 1
0.191703 0.524740 -0.358196 1
0.238849 0.522849 -0.371044 1
0.211473 0.529628 -0.328027 1
0.201320 0.527782 -0.381116 1
0.246765 0.526922 -0.346739 1
0.188598 0.524607 -0.341001 1
0.227926 0.528556 -0.386702 1
0.228997 0.533627 -0.324744 1
0.185720 0.523110 -0.370771 1
0.252383 0.521998 -0.364903 1
0.197886 0.526836 -0.323240 1
0.208819 0.528946 -0.393170 1
0.248828 0.529187 -0.332240 1
0.177547 0.525168 -0.351206 1
0.243336 0.525244 -0.386224 1
0.217706 0.533221 -0.314452 1
0.187775 0.522359 -0.385841 1
0.262117 0.520198 -0.351033 1
0.182624 0.524896 -0.327142 1
0.222680 0.528926 -0.400188 1
0.242466 0.532969 -0.317673 1
0.172131 0.518964 -0.365680 1
0.260646 0.514070 -0.376549 1
0.201426 0.531027 -0.309983 1
0.197315 0.522655 -0.399703 1
0.263533 0.526740 -0.334557 1
0.169545 0.524666 -0.339172 1
0.241831 0.518231 -0.399396 1
0.229348 0.532829 -0.305064 1
0.173940 0.514876 -0.383302 1
0.273623 0.510227 -0.360362 1
0.183245 0.527966 -0.313177 1
0.212602 0.527958 -0.409580 1
0.257154 0.532595 -0.317199 1
0.161478 0.514349 -0.354873 1
0.262492 0.507534 -0.390524 1
0.210377 0.535366 -0.299551 1
0.183470 0.516126 -0.400838 1
0.276883 0.520651 -0.341845 1
0.166609 0.523520 -0.324109 1
0.233092 0.522567 -0.411972 1
0.243704 0.534306 -0.301299 1
0.160839 0.509910 -0.375493 1
0.279754 0.503163 -0.374078 1
0.189327 0.530912 -0.299781 1
0.199663 0.520882 -0.414495 1
0.271368 0.532756 -0.322553 1
0.154458 0.512557 -0.340486 1
0.255867 0.515735 -0.406152 1
0.223610 0.536574 -0.291536 1
0.168708 0.512807 -0.397150 1
0.286747 0.515760 -0.354103 1
0.168747 0.524847 -0.308431 1
0.220462 0.526820 -0.421491 1
0.259266 0.536100 -0.302825 1
0.150025 0.510921 -0.363902 1
0.279718 0.500277 -0.390432 1
0.199929 0.536319 -0.289248 1
0.184361 0.514535 -0.415087 1
0.285076 0.527988 -0.331566 1
0.151920 0.514926 -0.324367 1
0.246105 0.516192 -0.419373 1
0.240112 0.534814 -0.286655 1
0.154607 0.511909 -0.388827 1
0.293340 0.507550 -0.369208 1
0.175845 0.527987 -0.293592 1
0.205785 0.523034 -0.426970 1
0.274469 0.538126 -0.309590 1
0.141970 0.505041 -0.347081 1
0.272638 0.505313 -0.407689 1
0.214381 0.539779 -0.281180 1
0.168060 0.514671 -0.411393 1
0.296116 0.522513 -0.344885 1
0.154460 0.524064 -0.309119 1
0.231424 0.523600 -0.430139 1
0.257127 0.538586 -0.288785 1
0.142324 0.510046 -0.375886 1
0.294187 0.502461 -0.387036 1
0.187405 0.535071 -0.282004 1
0.188996 0.518280 -0.428276 1
0.288958 0.536442 -0.320038 1
0.138288 0.504372 -0.328278 1
0.259888 0.515639 -0.423446 1
0.232564 0.536329 -0.274372 1
0.152284 0.513036 -0.402855 1
0.302741 0.518448 -0.362017 1
0.161475 0.524478 -0.291318 1
0.214985 0.523850 -0.437023 1
0.273685 0.543074 -0.296302 1
0.132764 0.506208 -0.358583 1
0.288959 0.500508 -0.405755 1
0.216618 0.530382 -0.364185 1
0.208712 0.527893 -0.361713 1
0.222899 0.531697 -0.374351 1
0.219067 0.530220 -0.349450 1
0.203621 0.528486 -0.374520 1
0.235584 0.529310 -0.365096 1
0.202753 0.527473 -0.348490 1
0.216624 0.532067 -0.386711 1
0.232816 0.529710 -0.345575 1
0.191980 0.524715 -0.366054 1
0.238248 0.527510 -0.379455 1
0.211683 0.528167 -0.335624 1
0.201835 0.524714 -0.388360 1
0.247038 0.525330 -0.354154 1
0.188828 0.524870 -0.349060 1
0.227941 0.530144 -0.394447 1
0.229311 0.531052 -0.331952 1
0.186112 0.521478 -0.378327 1
0.253354 0.517227 -0.371757 1
0.198006 0.527054 -0.331396 1
0.209460 0.525233 -0.400338 1
0.249286 0.526196 -0.339321 1
0.177889 0.523271 -0.358761 1
0.244230 0.521075 -0.393260 1
0.217697 0.533120 -0.322473 1
0.188389 0.515790 -0.392770 1
0.262893 0.516372 -0.358010 1
0.182866 0.524465 -0.335154 1
0.222842 0.530036 -0.407785 1
0.242815 0.530108 -0.324783 1
0.172519 0.515997 -0.373109 1
0.261755 0.509231 -0.383540 1
0.201643 0.528800 -0.317456 1
0.198054 0.516675 -0.406805 1
0.264318 0.522500 -0.341313 1
0.169855 0.522133 -0.346643 1
0.241309 0.523017 -0.407398 1
0.229196 0.533060 -0.313249 1
0.174381 0.513140 -0.390953 1
0.274237 0.507586 -0.367670 1
0.183479 0.525959 -0.320794 1
0.213242 0.525119 -0.416886 1
0.257451 0.530110 -0.324381 1
0.161846 0.512252 -0.362553 1
0.262387 0.508946 -0.398356 1
0.210436 0.534337 -0.307400 1
0.183958 0.514492 -0.408444 1
0.277273 0.518490 -0.349133 1
0.166919 0.523267 -0.332255 1
0.232867 0.526393 -0.419700 1
0.243717 0.532945 -0.308933 1
0.161338 0.510688 -0.383608 1
0.280332 0.501073 -0.381541 1
0.189520 0.528660 -0.307330 1
0.200245 0.518522 -0.421962 1
0.271828 0.529772 -0.329535 1
0.154813 0.510801 -0.348319 1
0.256766 0.512500 -0.413455 1
0.223567 0.535708 -0.299455 1
0.169196 0.512475 -0.404958 1
0.287542 0.512417 -0.361169 1
0.168990 0.522906 -0.316171 1
0.220930 0.526147 -0.428914 1
0.259368 0.534177 -0.310195 1
0.150321 0.507111 -0.371348 1
0.279943 0.500012 -0.398123 1
0.200068 0.534117 -0.296774 1
0.184809 0.515894 -0.422863 1
0.285821 0.524294 -0.338376 1
0.152333 0.514974 -0.332724 1
0.245837 0.519725 -0.427035 1
0.239835 0.534865 -0.294924 1
0.155077 0.510610 -0.396608 1
0.293585 0.506616 -0.376765 1
0.176026 0.527487 -0.301857 1
0.206260 0.522745 -0.434476 1
0.274797 0.535385 -0.316596 1
0.142416 0.504053 -0.355173 1
0.272127 0.508643 -0.415526 1
0.214419 0.538064 -0.288858 1
0.168597 0.515883 -0.419225 1
0.296871 0.519238 -0.351843 1
0.154622 0.519774 -0.316186 1
0.231655 0.524847 -0.437594 1
0.257051 0.537161 -0.296397 1
0.142785 0.508739 -0.383752 1
0.294431 0.501939 -0.394646 1
0.187539 0.532887 -0.289633 1
0.189379 0.521433 -0.435950 1
0.289911 0.531835 -0.326453 1
0.138737 0.503652 -0.336559 1
0.258812 0.522500 -0.431141 1
0.232473 0.535062 -0.282260 1
0.152926 0.514785 -0.410848 1
0.303426 0.515838 -0.369147 1
0.161699 0.522759 -0.299256 1
0.215421 0.524144 -0.444479 1
0.273911 0.540418 -0.303323 1
0.133426 0.507147 -0.366980 1
0.288181 0.504280 -0.413655 1
0.216017 0.530772 -0.371686 1
0.208096 0.528857 -0.369393 1
0.222380 0.531504 -0.381651 1
0.218231 0.532032 -0.357376 1
0.203361 0.525785 -0.381515 1
0.234528 0.532090 -0.372979 1
0.202171 0.527810 -0.356177 1
0.216451 0.529335 -0.393632 1
0.231818 0.531668 -0.353540 1
0.191596 0.523463 -0.373387 1
0.237460 0.528881 -0.386956 1
0.210875 0.529822 -0.343718 1
0.201496 0.523891 -0.395654 1
0.246235 0.525754 -0.361693 1
0.188346 0.524752 -0.356714 1
0.228053 0.525832 -0.401191 1
0.228070 0.534543 -0.340495 1
0.185752 0.521105 -0.385808 1
0.252393 0.518874 -0.379428 1
0.197390 0.527353 -0.339239 1
0.209081 0.525258 -0.407651 1
0.248291 0.527178 -0.347103 1
0.177501 0.521953 -0.366168 1
0.243306 0.523482 -0.400809 1
0.216872 0.533845 -0.330399 1
0.187962 0.518620 -0.400599 1
0.262298 0.515615 -0.365331 1
0.182364 0.524344 -0.342933 1
0.222571 0.529043 -0.414891 1
0.241715 0.531505 -0.332820 1
0.172188 0.514852 -0.380596 1
0.261153 0.509237 -0.390942 1
0.200917 0.529590 -0.325547 1
0.197605 0.519091 -0.414408 1
0.264291 0.518671 -0.347920 1
0.169433 0.519561 -0.353855 1
0.240550 0.524969 -0.414757 1
0.228074 0.535036 -0.321629 1
0.174100 0.513580 -0.398600 1
0.274001 0.505487 -0.374783 1
0.182917 0.526206 -0.328779 1
0.212932 0.525010 -0.424114 1
0.256843 0.528499 -0.331524 1
0.161499 0.510938 -0.370122 1
0.261582 0.510302 -0.405820 1
0.209668 0.534321 -0.315264 1
0.183648 0.516568 -0.416072 1
0.277954 0.512230 -0.355238 1
0.166474 0.522250 -0.339889 1
0.232768 0.524601 -0.426762 1
0.242702 0.533312 -0.316808 1
0.161111 0.511587 -0.391428 1
0.279903 0.500137 -0.388857 1
0.188856 0.529287 -0.315525 1
0.199795 0.521487 -0.429420 1
0.271664 0.526376 -0.336128 1
0.154391 0.508314 -0.355729 1
0.254725 0.520660 -0.421216 1
0.222446 0.537618 -0.308012 1
0.168991 0.514097 -0.412648 1
0.287623 0.509040 -0.367954 1
0.168525 0.525111 -0.324857 1
0.220483 0.527495 -0.436111 1
0.258561 0.533104 -0.317531 1
0.150240 0.510063 -0.379658 1
0.279552 0.499324 -0.405435 1
0.199344 0.533749 -0.304656 1
0.184500 0.519353 -0.430407 1
0.285709 0.521086 -0.345038 1
0.151715 0.509441 -0.339353 1
0.245389 0.520302 -0.434215 1
0.238690 0.535741 -0.303128 1
0.155014 0.513765 -0.404584 1
0.294255 0.501563 -0.383388 1
0.175456 0.526609 -0.309664 1
0.205862 0.524856 -0.441734 1
0.274592 0.531887 -0.323083 1
0.142477 0.508302 -0.364000 1
0.270355 0.514352 -0.423092 1
0.213395 0.539516 -0.297417 1
0.168442 0.518256 -0.426808 1
0.296596 0.516998 -0.358740 1
0.154110 0.517318 -0.323573 1
0.231224 0.525958 -0.444721 1
0.256317 0.535391 -0.303561 1
0.142641 0.509248 -0.391599 1
0.293639 0.502542 -0.402034 1
0.186865 0.532323 -0.297565 1
0.189134 0.522970 -0.443257 1
0.289400 0.529798 -0.333341 1
0.138611 0.505367 -0.345116 1
0.258509 0.522236 -0.438215 1
0.230976 0.538348 -0.291592 1
0.152769 0.514717 -0.418403 1
0.303591 0.512573 -0.375874 1
0.161212 0.522915 -0.307528 1
0.215100 0.525241 -0.451630 1
0.273699 0.536616 -0.309657 1
0.133347 0.508208 -0.375081 1
0.287303 0.505721 -0.420989 1
0.215104 0.529672 -0.377982 1
0.207192 0.527728 -0.375729 1
0.221489 0.530419 -0.387894 1
0.217280 0.530782 -0.363679 1
0.202444 0.525451 -0.387971 1
0.233715 0.530138 -0.379066 1
0.201247 0.526544 -0.362558 1
0.215570 0.528633 -0.399922 1
0.230566 0.532229 -0.360230 1
0.190732 0.522326 -0.379797 1
0.236584 0.527683 -0.393156 1
0.209802 0.529552 -0.350356 1
0.200752 0.521766 -0.401862 1
0.244898 0.526503 -0.368369 1
0.187426 0.524022 -0.363267 1
0.226576 0.529595 -0.407919 1
0.227137 0.532569 -0.346640 1
0.184992 0.517977 -0.391944 1
0.251301 0.518546 -0.385844 1
0.196395 0.526565 -0.345830 1
0.208339 0.523680 -0.413879 1
0.247441 0.524849 -0.353171 1
0.176651 0.520010 -0.372502 1
0.242297 0.523351 -0.407127 1
0.215871 0.532221 -0.336707 1
0.187221 0.516289 -0.406872 1
0.261601 0.512972 -0.371400 1
0.181406 0.524554 -0.349806 1
0.221739 0.528453 -0.421114 1
0.240798 0.529213 -0.338900 1
0.171371 0.513537 -0.387087 1
0.259550 0.511516 -0.397691 1
0.199937 0.527790 -0.331903 1
0.196745 0.519775 -0.420876 1
0.263426 0.516462 -0.354062 1
0.168562 0.518714 -0.360490 1
0.239835 0.523442 -0.420913 1
0.226922 0.534150 -0.328162 1
0.173319 0.514261 -0.405270 1
0.273017 0.504322 -0.381163 1
0.181951 0.525022 -0.335367 1
0.212112 0.524812 -0.430395 1
0.255949 0.526078 -0.337566 1
0.160692 0.510458 -0.376846 1
0.259254 0.516361 -0.412740 1
0.208609 0.532910 -0.321722 1
0.182889 0.516194 -0.422520 1
0.277171 0.509841 -0.361361 1
0.165546 0.519205 -0.346034 1
0.231447 0.527547 -0.433116 1
0.241246 0.533783 -0.323778 1
0.160364 0.511610 -0.398114 1
0.278700 0.500111 -0.395376 1
0.187868 0.527344 -0.321910 1
0.198966 0.522208 -0.435780 1
0.270882 0.523600 -0.342055 1
0.153578 0.507860 -0.362574 1
0.253940 0.519644 -0.427405 1
0.221344 0.536095 -0.314415 1
0.168274 0.515287 -0.419277 1
0.287523 0.504358 -0.373673 1
0.167583 0.523472 -0.331380 1
0.219806 0.526253 -0.442297 1
0.257489 0.531237 -0.323733 1
0.149467 0.509232 -0.386320 1
0.276469 0.507353 -0.412578 1
0.198303 0.531952 -0.311073 1
0.183719 0.521098 -0.436850 1
0.284771 0.519115 -0.351167 1
0.150871 0.508794 -0.346245 1
0.243741 0.524594 -0.440531 1
0.237483 0.534501 -0.309638 1
0.154249 0.512161 -0.411053 1
0.293238 0.500566 -0.389756 1
0.174460 0.526016 -0.316568 1
0.205096 0.524917 -0.447985 1
0.273653 0.529511 -0.329085 1
0.141676 0.507227 -0.370714 1
0.269562 0.513354 -0.429305 1
0.212322 0.537552 -0.303726 1
0.167741 0.517544 -0.433232 1
0.296035 0.513974 -0.364640 1
0.153208 0.516183 -0.330351 1
0.230554 0.524901 -0.450896 1
0.255166 0.533619 -0.309845 1
0.142017 0.510010 -0.398437 1
0.292619 0.501906 -0.408379 1
0.185839 0.530158 -0.303929 1
0.188392 0.523758 -0.449561 1
0.288746 0.526613 -0.339085 1
0.137769 0.504080 -0.351898 1
0.257089 0.524642 -0.444406 1
0.229601 0.538136 -0.298566 1
0.152074 0.514055 -0.424918 1
0.302930 0.510222 -0.381924 1
0.160281 0.522590 -0.314600 1
0.214439 0.524340 -0.457848 1
0.272679 0.534308 -0.315680 1
0.132796 0.509485 -0.382151 1
0.284151 0.513526 -0.427701 1
0.213952 0.529455 -0.383912 1
0.206094 0.527114 -0.381640 1
0.220299 0.530653 -0.393816 1
0.215998 0.531149 -0.369790 1
0.201459 0.524086 -0.393759 1
0.232390 0.530631 -0.385048 1
0.200074 0.526525 -0.368675 1
0.214546 0.528012 -0.405710 1
0.229187 0.532646 -0.366326 1
0.189706 0.521392 -0.385731 1
0.235605 0.526260 -0.398805 1
0.208582 0.529117 -0.356406 1
0.199749 0.521412 -0.407771 1
0.243581 0.526315 -0.374286 1
0.186360 0.522796 -0.369197 1
0.225481 0.529570 -0.413697 1
0.225838 0.532116 -0.352633 1
0.184029 0.516578 -0.397832 1
0.249970 0.518729 -0.391762 1
0.195227 0.525780 -0.351880 1
0.207352 0.523435 -0.419716 1
0.245525 0.527522 -0.359828 1
0.175632 0.518363 -0.378394 1
0.241358 0.522029 -0.412783 1
0.214690 0.530694 -0.342505 1
0.186274 0.515854 -0.412839 1
0.260590 0.511077 -0.377043 1
0.180308 0.523094 -0.355740 1
0.220783 0.527880 -0.426827 1
0.239489 0.528286 -0.344796 1
0.170398 0.512872 -0.393162 1
0.258628 0.509795 -0.403352 1
0.198706 0.527024 -0.338011 1
0.195812 0.519595 -0.426759 1
0.262029 0.515969 -0.360007 1
0.167490 0.515443 -0.366106 1
0.238262 0.526395 -0.426826 1
0.225498 0.534057 -0.334364 1
0.172400 0.513734 -0.411291 1
0.272041 0.502457 -0.386832 1
0.180783 0.524511 -0.341598 1
0.211103 0.525366 -0.436188 1
0.254899 0.523618 -0.343039 1
0.159714 0.509954 -0.383040 1
0.258361 0.514870 -0.418376 1
0.207417 0.530963 -0.327463 1
0.181929 0.518892 -0.428630 1
0.276050 0.508168 -0.367039 1
0.164459 0.518253 -0.352189 1
0.230444 0.527513 -0.438795 1
0.240087 0.531564 -0.329326 1
0.159475 0.511916 -0.404313 1
0.277658 0.498806 -0.401117 1
0.186621 0.527134 -0.328282 1
0.197994 0.523433 -0.441626 1
0.270225 0.519617 -0.347112 1
0.152589 0.507614 -0.368921 1
0.252686 0.520375 -0.433128 1
0.220016 0.534963 -0.320385 1
0.167415 0.515177 -0.425294 1
0.286403 0.502890 -0.379372 1
0.166451 0.522705 -0.337617 1
0.218906 0.525973 -0.447990 1
0.256223 0.529517 -0.329403 1
0.148633 0.510346 -0.392747 1
0.275476 0.506228 -0.418259 1
0.197056 0.530339 -0.316997 1
0.182830 0.522737 -0.442756 1
0.284099 0.515567 -0.356347 1
0.149753 0.506720 -0.352257 1
0.242803 0.524149 -0.446163 1
0.235948 0.534244 -0.315895 1
0.153500 0.514224 -0.417348 1
0.292048 0.499632 -0.395506 1
0.173265 0.524210 -0.322523 1
0.204227 0.524955 -0.453721 1
0.272554 0.527140 -0.334514 1
0.140808 0.507779 -0.377202 1
0.266792 0.520379 -0.435270 1
0.211081 0.535378 -0.309400 1
0.166934 0.517833 -0.439200 1
0.295333 0.510889 -0.369948 1
0.152024 0.513531 -0.336168 1
0.229750 0.524019 -0.456553 1
0.253711 0.532523 -0.315769 1
0.141252 0.510968 -0.404776 1
0.291443 0.501289 -0.414102 1
0.184559 0.529358 -0.310218 1
0.187555 0.524410 -0.455351 1
0.287923 0.523464 -0.344271 1
0.136989 0.506101 -0.358870 1
0.255974 0.525004 -0.449990 1
0.228377 0.535639 -0.304082 1
0.151294 0.514264 -0.430992 1
0.301712 0.509181 -0.387579 1
0.159131 0.522142 -0.321060 1
0.213627 0.523931 -0.463544 1
0.271482 0.532070 -0.321145 1
0.131886 0.508752 -0.388383 1
0.283130 0.512788 -0.433308 1
0.212684 0.527929 -0.391013 1
0.204846 0.525303 -0.388772 1
0.219121 0.528879 -0.400806 1
0.214607 0.529834 -0.376952 1
0.200315 0.521946 -0.400880 1
0.230958 0.530087 -0.392181 1
0.198726 0.525018 -0.375944 1
0.213524 0.525550 -0.412671 1
0.227402 0.533725 -0.373898 1
0.188518 0.519016 -0.392924 1
0.233894 0.528093 -0.406180 1
0.207048 0.528601 -0.363875 1
0.198742 0.518566 -0.414853 1
0.241890 0.526563 -0.381606 1
0.185026 0.521687 -0.376656 1
0.224445 0.527771 -0.420638 1
0.223960 0.533381 -0.360423 1
0.182882 0.515135 -0.405215 1
0.247924 0.521430 -0.399323 1
0.193730 0.525201 -0.359476 1
0.206377 0.521365 -0.426805 1
0.243637 0.528181 -0.367335 1
0.174392 0.515823 -0.385681 1
0.239439 0.525449 -0.420162 1
0.212969 0.530790 -0.350188 1
0.185127 0.516973 -0.420396 1
0.257922 0.515709 -0.385130 1
0.178910 0.522044 -0.363314 1
0.219840 0.526065 -0.433807 1
0.237149 0.531274 -0.353072 1
0.169243 0.512428 -0.400802 1
0.255331 0.518702 -0.411456 1
0.197050 0.527303 -0.345909 1
0.194769 0.519272 -0.434047 1
0.260222 0.515767 -0.367350 1
0.166183 0.513738 -0.373649 1
0.237186 0.525453 -0.433768 1
0.223617 0.534365 -0.342094 1
0.171339 0.515341 -0.419003 1
0.269920 0.504409 -0.394381 1
0.179285 0.524218 -0.349437 1
0.210140 0.524363 -0.443275 1
0.252711 0.524800 -0.350834 1
0.158602 0.511507 -0.391126 1
0.256443 0.517548 -0.425606 1
0.205760 0.529707 -0.334930 1
0.180925 0.519182 -0.436025 1
0.274305 0.507695 -0.374279 1
0.163065 0.515739 -0.359589 1
0.229675 0.525128 -0.445714 1
0.237984 0.532362 -0.337194 1
0.158432 0.511894 -0.412014 1
0.273552 0.509263 -0.409430 1
0.185050 0.525707 -0.335849 1
0.197061 0.522747 -0.448805 1
0.269200 0.515444 -0.353512 1
0.151491 0.509771 -0.377329 1
0.250761 0.523924 -0.440202 1
0.218154 0.534636 -0.328088 1
0.166468 0.516464 -0.432880 1
0.285417 0.499794 -0.386120 1
0.164981 0.520415 -0.345056 1
0.218149 0.523822 -0.455012 1
0.254385 0.528370 -0.336630 1
0.147558 0.509976 -0.400548 1
0.271987 0.514757 -0.425887 1
0.195371 0.529069 -0.324599 1
0.181941 0.521713 -0.450022 1
0.283543 0.510122 -0.362454 1
0.148474 0.506478 -0.360371 1
0.242059 0.522097 -0.453067 1
0.233798 0.534914 -0.323887 1
0.152512 0.513342 -0.424929 1
0.289850 0.501486 -0.402867 1
0.171698 0.525025 -0.330912 1
0.203445 0.523236 -0.460843 1
0.270879 0.525258 -0.341434 1
0.139845 0.509585 -0.385516 1
0.264904 0.523088 -0.442212 1
0.209264 0.534385 -0.317029 1
0.166018 0.514868 -0.446577 1
0.294131 0.508336 -0.376652 1
0.150464 0.509357 -0.343299 1
0.229113 0.521597 -0.463558 1
0.251406 0.533202 -0.323681 1
0.140324 0.511438 -0.412637 1
0.287742 0.509189 -0.421740 1
0.182894 0.527706 -0.317823 1
0.186819 0.521283 -0.462602 1
0.286336 0.521474 -0.351071 1
0.135894 0.506933 -0.367233 1
0.255202 0.523341 -0.456814 1
0.225986 0.537896 -0.312826 1
0.150295 0.511633 -0.438485 1
0.300624 0.506791 -0.394273 1
0.157568 0.519522 -0.328515 1
0.212879 0.522618 -0.470621 1
0.269497 0.530995 -0.328344 1
0.131006 0.510004 -0.396541 1
0.280227 0.518722 -0.440372 1
0.210689 0.526439 -0.399036 1
0.202891 0.523219 -0.396786 1
0.217155 0.527676 -0.408788 1
0.212474 0.528716 -0.385061 1
0.198459 0.519518 -0.408901 1
0.228813 0.529497 -0.400203 1
0.196671 0.523157 -0.384064 1
0.211667 0.524161 -0.420670 1
0.225286 0.532077 -0.381808 1
0.186562 0.517317 -0.401150 1
0.232010 0.526406 -0.414018 1
0.204853 0.527370 -0.372084 1
0.196857 0.517893 -0.423074 1
0.239418 0.527105 -0.389858 1
0.182973 0.520096 -0.384936 1
0.222486 0.527548 -0.428619 1
0.221813 0.531237 -0.368303 1
0.180964 0.514817 -0.413640 1
0.246055 0.519209 -0.407107 1
0.191554 0.523707 -0.367760 1
0.204463 0.521826 -0.434974 1
0.240803 0.530079 -0.375972 1
0.172400 0.513472 -0.393941 1
0.237626 0.523926 -0.427989 1
0.210653 0.529663 -0.358446 1
0.183309 0.516344 -0.428697 1
0.256001 0.513106 -0.392887 1
0.176788 0.520307 -0.371645 1
0.218059 0.525280 -0.441754 1
0.234495 0.531815 -0.361580 1
0.167347 0.512655 -0.409420 1
0.253485 0.516836 -0.419254 1
0.194789 0.525668 -0.354188 1
0.192915 0.520530 -0.442297 1
0.257678 0.515423 -0.375568 1
0.164120 0.512000 -0.382108 1
0.235244 0.525413 -0.441652 1
0.221384 0.531855 -0.349939 1
0.169545 0.515709 -0.427479 1
0.266962 0.506618 -0.402824 1
0.177072 0.523081 -0.357949 1
0.208370 0.524358 -0.451291 1
0.250338 0.523150 -0.358813 1
0.156674 0.510842 -0.399754 1
0.253625 0.521028 -0.433717 1
0.203380 0.528397 -0.343291 1
0.179170 0.520744 -0.444352 1
0.272243 0.505231 -0.382079 1
0.160874 0.511430 -0.367538 1
0.228041 0.523772 -0.453582 1
0.235536 0.530841 -0.345281 1
0.156686 0.513281 -0.420735 1
0.271637 0.507480 -0.417245 1
0.182716 0.525188 -0.344577 1
0.195357 0.522987 -0.456897 1
0.267164 0.512172 -0.361117 1
0.149522 0.509424 -0.386140 1
0.248960 0.523107 -0.447978 1
0.215694 0.533262 -0.336361 1
0.164774 0.516416 -0.441280 1
0.282695 0.500190 -0.394354 1
0.162724 0.516052 -0.352897 1
0.216478 0.523412 -0.462951 1
0.251954 0.526433 -0.344561 1
0.145810 0.511065 -0.409417 1
0.269203 0.517266 -0.433879 1
0.192966 0.527640 -0.333058 1
0.180335 0.520667 -0.458210 1
0.281732 0.506302 -0.369922 1
0.146531 0.508126 -0.369763 1
0.240344 0.521466 -0.460890 1
0.231203 0.533807 -0.332191 1
0.150788 0.512694 -0.433444 1
0.287751 0.500042 -0.410729 1
0.169401 0.523386 -0.339434 1
0.201876 0.522459 -0.468873 1
0.269048 0.520800 -0.348615 1
0.138002 0.509748 -0.394422 1
0.262583 0.524487 -0.449956 1
0.206809 0.532475 -0.325256 1
0.164387 0.513795 -0.454941 1
0.292868 0.503129 -0.383854 1
0.148192 0.506563 -0.351749 1
0.227514 0.520903 -0.471450 1
0.248931 0.531024 -0.331574 1
0.138669 0.512262 -0.421411 1
0.285730 0.508117 -0.429506 1
0.180483 0.526416 -0.326455 1
0.185320 0.519377 -0.470787 1
0.284777 0.516503 -0.358104 1
0.134167 0.509383 -0.376764 1
0.253863 0.520875 -0.464566 1
0.223493 0.535724 -0.320865 1
0.148593 0.509975 -0.446971 1
0.298637 0.504656 -0.401949 1
0.155231 0.516488 -0.336778 1
0.211390 0.521606 -0.478608 1
0.267307 0.527602 -0.335773 1
0.129154 0.509089 -0.405285 1
0.277581 0.520846 -0.448108 1
0.208609 0.524097 -0.407811 1
0.200722 0.521664 -0.405769 1
0.215133 0.525596 -0.417522 1
0.210250 0.526705 -0.393872 1
0.196341 0.518635 -0.418001 1
0.226427 0.529465 -0.409116 1
0.194459 0.520872 -0.393013 1
0.209544 0.524011 -0.429632 1
0.222989 0.530358 -0.390551 1
0.184433 0.515926 -0.410328 1
0.229365 0.528788 -0.423093 1
0.202495 0.525779 -0.381091 1
0.194709 0.519267 -0.432317 1
0.236828 0.527381 -0.398858 1
0.180790 0.516805 -0.393850 1
0.220558 0.526075 -0.437345 1
0.219146 0.531585 -0.377576 1
0.178868 0.515914 -0.423086 1
0.242878 0.523359 -0.416463 1
0.189155 0.522755 -0.377057 1
0.202355 0.523204 -0.444017 1
0.238403 0.528471 -0.384688 1
0.170232 0.513124 -0.403436 1
0.235113 0.525905 -0.436876 1
0.208066 0.529185 -0.367720 1
0.181212 0.520673 -0.438173 1
0.252575 0.517115 -0.402471 1
0.174489 0.517593 -0.380712 1
0.216124 0.524815 -0.450557 1
0.231416 0.533810 -0.371210 1
0.165327 0.515227 -0.419170 1
0.250065 0.522236 -0.428497 1
0.192295 0.524406 -0.363461 1
0.190843 0.523765 -0.451426 1
0.254123 0.519116 -0.385360 1
0.161913 0.512009 -0.391812 1
0.233476 0.523589 -0.450300 1
0.218496 0.532760 -0.359548 1
0.167620 0.516066 -0.436836 1
0.262438 0.515263 -0.412795 1
0.174676 0.520772 -0.367103 1
0.206568 0.523545 -0.460146 1
0.247019 0.525320 -0.368522 1
0.154638 0.511572 -0.409487 1
0.250862 0.523789 -0.442518 1
0.200711 0.527931 -0.352769 1
0.177370 0.518976 -0.453447 1
0.268861 0.507617 -0.391567 1
0.158575 0.510902 -0.377283 1
0.226309 0.522391 -0.462311 1
0.232290 0.532901 -0.355182 1
0.154777 0.513748 -0.430257 1
0.266464 0.518949 -0.427033 1
0.180214 0.523224 -0.353816 1
0.193611 0.522210 -0.465853 1
0.263927 0.513234 -0.370568 1
0.147431 0.509849 -0.396008 1
0.247246 0.521337 -0.456570 1
0.213090 0.531042 -0.345261 1
0.162904 0.512722 -0.450481 1
0.279638 0.501363 -0.403511 1
0.160216 0.510118 -0.361398 1
0.214808 0.522177 -0.471763 1
0.249137 0.525263 -0.353558 1
0.143951 0.512647 -0.419228 1
0.264976 0.525508 -0.442879 1
0.190322 0.526382 -0.342480 1
0.178690 0.516473 -0.467347 1
0.279310 0.504051 -0.378605 1
0.144439 0.509929 -0.380078 1
0.238867 0.518951 -0.469592 1
0.227963 0.535403 -0.342164 1
0.148839 0.510116 -0.442804 1
0.282687 0.509149 -0.420476 1
0.166885 0.520870 -0.348661 1
0.200276 0.520897 -0.477816 1
0.267185 0.515413 -0.356478 1
0.135968 0.509431 -0.404193 1
0.260372 0.525056 -0.458455 1
0.204142 0.530157 -0.334262 1
0.162567 0.507868 -0.464272 1
0.290618 0.500739 -0.392443 1
0.145917 0.507352 -0.362071 1
0.225907 0.519722 -0.480226 1
0.245876 0.530541 -0.340849 1
0.136711 0.510921 -0.430930 1
0.280317 0.519264 -0.438781 1
0.177827 0.525906 -0.336259 1
0.183832 0.514331 -0.480045 1
0.283796 0.508521 -0.365369 1
0.132144 0.510137 -0.386870 1
0.252279 0.519248 -0.473172 1
0.220410 0.536075 -0.330638 1
0.146591 0.505024 -0.456388 1
0.295411 0.506215 -0.410918 1
0.152578 0.510944 -0.345365 1
0.209942 0.519399 -0.487558 1
0.265240 0.522576 -0.343619 1
0.127402 0.510701 -0.415274 1
0.274601 0.523994 -0.456600 1
0.206524 0.521325 -0.415353 1
0.198688 0.517780 -0.413221 1
0.213054 0.523319 -0.425086 1
0.208059 0.524488 -0.401459 1
0.194222 0.516389 -0.425704 1
0.224260 0.527678 -0.416662 1
0.192258 0.518407 -0.400674 1
0.207500 0.521815 -0.437242 1
0.220660 0.529165 -0.398236 1
0.182226 0.514804 -0.418224 1
0.227195 0.527466 -0.430659 1
0.200290 0.523009 -0.388629 1
0.192505 0.519403 -0.440169 1
0.234389 0.526851 -0.406599 1
0.178556 0.514766 -0.401662 1
0.218500 0.524429 -0.444930 1
0.216900 0.529327 -0.385104 1
0.176693 0.515842 -0.431051 1
0.240376 0.523521 -0.424213 1
0.186900 0.520162 -0.384704 1
0.200309 0.521644 -0.451694 1
0.235750 0.528752 -0.392642 1
0.168017 0.511663 -0.411382 1
0.232907 0.525149 -0.444463 1
0.205768 0.526974 -0.375340 1
0.179139 0.518869 -0.445934 1
0.249732 0.518291 -0.410485 1
0.172220 0.514602 -0.388382 1
0.214054 0.523779 -0.458180 1
0.228993 0.532510 -0.378903 1
0.163169 0.513631 -0.427065 1
0.247764 0.521497 -0.436106 1
0.189951 0.522614 -0.371286 1
0.188866 0.521411 -0.459123 1
0.251268 0.519833 -0.393437 1
0.159650 0.509772 -0.399705 1
0.231157 0.523988 -0.457907 1
0.216108 0.531013 -0.367239 1
0.165524 0.515097 -0.444733 1
0.260071 0.514176 -0.420467 1
0.172377 0.517089 -0.374588 1
0.204557 0.522383 -0.467809 1
0.243342 0.530254 -0.377638 1
0.152474 0.510836 -0.417564 1
0.248380 0.524356 -0.450114 1
0.198324 0.526088 -0.360567 1
0.175376 0.515253 -0.461237 1
0.266218 0.507037 -0.399466 1
0.156317 0.510518 -0.385567 1
0.224097 0.522671 -0.469903 1
0.229608 0.532723 -0.363259 1
0.152640 0.512001 -0.438182 1
0.264130 0.518072 -0.434624 1
0.177806 0.523292 -0.362195 1
0.191630 0.520936 -0.473576 1
0.260710 0.514820 -0.378998 1
0.145227 0.508837 -0.404138 1
0.244610 0.523217 -0.464132 1
0.210568 0.530020 -0.353258 1
0.160812 0.509854 -0.458385 1
0.276142 0.504200 -0.411809 1
0.157905 0.509840 -0.369816 1
0.212683 0.522468 -0.479364 1
0.245941 0.527087 -0.362192 1
0.141750 0.510540 -0.427170 1
0.262722 0.524764 -0.450363 1
0.187871 0.525315 -0.350589 1
0.176753 0.512419 -0.475256 1
0.276378 0.504087 -0.386704 1
0.142214 0.509143 -0.388321 1
0.236272 0.521389 -0.477092 1
0.225560 0.533080 -0.349725 1
0.146665 0.507270 -0.450757 1
0.280402 0.507679 -0.428099 1
0.164494 0.516459 -0.355965 1
0.198267 0.520625 -0.485491 1
0.264197 0.515520 -0.364698 1
0.133801 0.508427 -0.412335 1
0.257829 0.526069 -0.465921 1
0.201703 0.528000 -0.342024 1
0.160533 0.506688 -0.472258 1
0.287554 0.501298 -0.400521 1
0.143540 0.504927 -0.370072 1
0.223544 0.521712 -0.487698 1
0.242993 0.530547 -0.349101 1
0.134480 0.508278 -0.438888 1
0.277932 0.518706 -0.446308 1
0.175393 0.525201 -0.344554 1
0.181933 0.511433 -0.487994 1
0.281360 0.506304 -0.373030 1
0.129895 0.508564 -0.394983 1
0.249741 0.520869 -0.480626 1
0.217796 0.535074 -0.338684 1
0.144531 0.503991 -0.464457 1
0.293095 0.504534 -0.418536 1
0.150124 0.507494 -0.353080 1
0.207851 0.520169 -0.495129 1
0.263102 0.518768 -0.350814 1
0.125248 0.509437 -0.423370 1
0.271812 0.525552 -0.464043 1
0.204734 0.520027 -0.421853 1
0.196845 0.517110 -0.419867 1
0.211233 0.522767 -0.431587 1
0.206325 0.521829 -0.407755 1
0.192404 0.516527 -0.432411 1
0.222340 0.527292 -0.423121 1
0.190444 0.516380 -0.407193 1
0.205704 0.521843 -0.443779 1
0.218758 0.527897 -0.404646 1
0.180409 0.515262 -0.425069 1
0.225518 0.525908 -0.436964 1
0.198398 0.521273 -0.395133 1
0.190671 0.521266 -0.446877 1
0.232367 0.526497 -0.413070 1
0.176703 0.514102 -0.408470 1
0.216712 0.524436 -0.451360 1
0.214909 0.528218 -0.391603 1
0.174931 0.518149 -0.437973 1
0.238168 0.524710 -0.430750 1
0.184989 0.518476 -0.391312 1
0.198566 0.522342 -0.458224 1
0.233597 0.528636 -0.399203 1
0.166240 0.513632 -0.418539 1
0.231131 0.524730 -0.450805 1
0.203729 0.526060 -0.381991 1
0.177515 0.517813 -0.452554 1
0.246775 0.522521 -0.417510 1
0.170327 0.513319 -0.395169 1
0.212442 0.523024 -0.464584 1
0.226882 0.531785 -0.385425 1
0.161482 0.513798 -0.433933 1
0.245269 0.524302 -0.442637 1
0.187944 0.521474 -0.378014 1
0.187316 0.520109 -0.465662 1
0.248982 0.520039 -0.400054 1
0.157875 0.511027 -0.406928 1
0.229578 0.522851 -0.464227 1
0.213964 0.530358 -0.373911 1
0.163887 0.512251 -0.451382 1
0.256591 0.520437 -0.427521 1
0.170425 0.515345 -0.381302 1
0.203028 0.521416 -0.474262 1
0.241201 0.529371 -0.384089 1
0.150837 0.512335 -0.424690 1
0.246645 0.523708 -0.456369 1
0.196225 0.525198 -0.367339 1
0.173842 0.513083 -0.467897 1
0.262958 0.511318 -0.406679 1
0.154461 0.510294 -0.392660 1
0.222422 0.522769 -0.476239 1
0.227123 0.533819 -0.370312 1
0.150992 0.510911 -0.444995 1
0.261508 0.520641 -0.441111 1
0.175829 0.519962 -0.368481 1
0.190320 0.516731 -0.480201 1
0.257901 0.516738 -0.386055 1
0.143590 0.510429 -0.411442 1
0.243181 0.521441 -0.470399 1
0.208295 0.530058 -0.360235 1
0.159192 0.505823 -0.465146 1
0.273310 0.506572 -0.418585 1
0.155968 0.509432 -0.376963 1
0.211226 0.521388 -0.485782 1
0.243397 0.527751 -0.369120 1
0.140139 0.510629 -0.434156 1
0.260460 0.526265 -0.456606 1
