ply
format ascii 1.0
element vertex 1612
property float x
property float y
property float z
property uchar label
end_header
2.713436 1.040986 1.026611 0
1.647350 0.059642 -0.253937 0
2.674130 0.474473 -0.020128 0
2.672719 0.576094 0.068250 0
2.669777 0.267684 -0.029529 0
2.694111 0.645711 -0.157828 0
2.688398 0.435705 0.231039 0
2.671899 0.279420 -0.262636 0
2.673988 0.796341 0.045467 0
2.657230 0.144249 0.153998 0
2.666248 0.589888 -0.354259 0
2.705198 0.641876 0.313714 0
2.601727 0.070143 -0.180284 0
2.680811 0.881326 -0.150458 0
2.680708 0.244223 0.379794 0
2.624052 0.355433 -0.465022 0
2.671331 0.893673 0.216826 0
2.439890 0.060034 0.074767 0
2.671785 0.796447 -0.397671 0
2.673776 0.536174 0.487843 0
2.553531 0.064712 -0.394360 0
2.689462 1.027914 -0.015697 0
2.559660 0.060485 0.375188 0
2.640136 0.536184 -0.588915 0
2.700433 0.848899 0.419717 0
2.232087 0.086383 -0.093987 0
2.674639 1.003633 -0.317489 0
2.562271 0.367541 0.575986 0
2.448751 0.254115 -0.566089 0
2.692937 1.087739 0.185041 0
2.220603 0.085677 0.235310 0
2.665986 0.776494 -0.605803 0
2.668487 0.711032 0.603789 0
2.198066 0.092264 -0.316320 0
2.668262 1.163205 -0.147352 0
2.511393 0.103332 0.579026 0
2.448805 0.477772 -0.690866 0
2.682127 1.051672 0.412405 0
2.054827 0.068673 0.040524 0
2.668789 1.024633 -0.507187 0
2.533272 0.527106 0.708641 0
2.269553 0.142982 -0.563832 0
2.673318 1.242123 0.078664 0
2.156077 0.098053 0.413833 0
2.644812 0.669681 -0.793363 0
2.699149 0.901317 0.640744 0
1.980760 0.083623 -0.194141 0
2.675460 1.222174 -0.322424 0
2.202788 0.428001 0.663113 0
2.099557 0.494184 -0.645526 0
2.699113 1.223502 0.337189 0
1.948167 0.074468 0.203991 0
2.663638 0.967091 -0.707817 0
2.662936 0.661574 0.820976 0
2.050512 0.090409 -0.467634 0
2.671269 1.343819 -0.075395 0
2.194891 0.110495 0.609105 0
2.567299 0.515325 -0.928640 0
2.693679 1.106116 0.598954 0
1.839247 0.073827 -0.042055 0
2.674121 1.219548 -0.522016 0
2.271075 0.541938 0.796063 0
1.852082 0.466160 -0.572533 0
2.679465 1.369933 0.205360 0
1.930854 0.069535 0.387233 0
2.641314 0.842293 -0.900299 0
2.663979 0.886190 0.828746 0
1.836765 0.092928 -0.315148 0
2.666706 1.395420 -0.263017 0
1.980559 0.410246 0.693636 0
2.139160 0.534851 -0.823229 0
2.694819 1.290915 0.500481 0
1.758100 0.070281 0.129954 0
2.660244 1.155880 -0.731684 0
2.500001 0.626535 0.945007 0
1.755905 0.332880 -0.516742 0
2.669771 1.473959 0.034995 0
1.965462 0.089891 0.583575 0
2.601794 0.654929 -1.068376 0
2.709593 1.097516 0.787153 0
1.718097 0.059034 -0.152488 0
2.663589 1.393364 -0.474664 0
2.042934 0.529636 0.825161 0
1.823662 0.528508 -0.701095 0
2.698183 1.445817 0.354953 0
1.740327 0.065002 0.317741 0
2.632494 1.030657 -0.937486 0
2.537667 0.850852 0.962878 0
1.759656 0.104242 -0.452511 0
2.663518 1.532462 -0.165449 0
1.858504 0.320253 0.706582 0
2.276664 0.570086 -1.025655 0
2.714452 1.304213 0.677653 0
1.631320 0.055952 0.030979 0
2.659036 1.334123 -0.701615 0
2.306963 0.579426 1.008757 0
1.602688 0.498385 -0.575581 0
2.687506 1.563962 0.170757 0
1.759600 0.090840 0.515279 0
2.645176 0.823859 -1.156727 0
2.730588 1.037128 0.979037 0
1.638824 0.054672 -0.280625 0
2.674268 0.467558 -0.055918 0
2.702785 0.555726 0.031458 0
2.675190 0.256717 -0.065699 0
2.691674 0.639450 -0.194190 0
2.687890 0.431212 0.195459 0
2.670289 0.270541 -0.299314 0
2.677202 0.789592 0.009640 0
2.659554 0.136647 0.118966 0
2.662570 0.582556 -0.391000 0
2.705144 0.637957 0.277748 0
2.590731 0.068135 -0.213923 0
2.678332 0.875728 -0.186608 0
2.683116 0.239173 0.344510 0
2.635286 0.337229 -0.506272 0
2.671875 0.889141 0.181379 0
2.410669 0.076240 0.044214 0
2.672711 0.787781 -0.435939 0
2.676006 0.532512 0.452308 0
2.501619 0.091174 -0.417007 0
2.684968 1.023818 -0.051454 0
2.566608 0.051759 0.342351 0
2.637563 0.526149 -0.627578 0
2.700545 0.845616 0.383526 0
2.223709 0.084277 -0.122107 0
2.678570 0.995637 -0.355774 0
2.625155 0.328164 0.553863 0
2.348516 0.310692 -0.566425 0
2.693179 1.083308 0.149179 0
2.224779 0.077148 0.207368 0
2.659846 0.769157 -0.643720 0
2.672303 0.707559 0.568138 0
2.201048 0.076938 -0.347665 0
2.672921 1.156664 -0.184324 0
2.542904 0.078840 0.551879 0
2.417162 0.483260 -0.715762 0
2.690790 1.045983 0.377375 0
2.050412 0.065192 0.014910 0
2.670937 1.016374 -0.546826 0
2.534483 0.526128 0.674023 0
2.174107 0.207022 -0.560419 0
2.673331 1.237552 0.042966 0
2.133723 0.116093 0.383028 0
2.647705 0.656472 -0.836867 0
2.704813 0.897376 0.604748 0
1.983419 0.069209 -0.221027 0
2.671695 1.216977 -0.359092 0
2.238964 0.403512 0.643858 0
2.065710 0.504136 -0.662585 0
2.699844 1.219578 0.301094 0
1.953968 0.063152 0.180318 0
2.662524 0.958415 -0.748604 0
2.662610 0.661509 0.783083 0
2.023719 0.100965 -0.487577 0
2.670055 1.339177 -0.111356 0
2.203061 0.103773 0.582265 0
2.544742 0.512887 -0.960496 0
2.685071 1.105519 0.560290 0
1.829946 0.074712 -0.063822 0
2.666666 1.214399 -0.558909 0
2.235559 0.564743 0.751754 0
1.813898 0.483879 -0.582328 0
2.683420 1.365309 0.169685 0
1.915157 0.084045 0.360902 0
2.639289 0.831901 -0.943075 0
2.680240 0.879719 0.795568 0
1.818823 0.098679 -0.334700 0
2.664737 1.390566 -0.299600 0
2.044928 0.360426 0.689537 0
2.094677 0.549202 -0.834465 0
2.697211 1.287178 0.464206 0
1.740648 0.084621 0.109153 0
2.660876 1.147979 -0.773385 0
2.595941 0.580425 0.944810 0
1.748923 0.323881 -0.540736 0
2.671978 1.469436 -0.000910 0
1.971232 0.084965 0.559847 0
2.597664 0.642638 -1.112332 0
2.718258 1.093483 0.751028 0
1.709049 0.057989 -0.172482 0
2.665767 1.387576 -0.513855 0
2.049225 0.527989 0.798701 0
1.792976 0.537841 -0.713717 0
2.699940 1.441781 0.318830 0
1.740802 0.061336 0.297114 0
2.636151 1.019938 -0.983521 0
2.551635 0.845975 0.930625 0
1.746680 0.102137 -0.473131 0
2.667888 1.527740 -0.202475 0
1.863617 0.318411 0.683498 0
2.269164 0.558418 -1.063253 0
2.709387 1.302046 0.638597 0
1.618927 0.063574 0.012718 0
2.667888 1.326433 -0.746081 0
2.239035 0.621265 0.943000 0
1.599582 0.485081 -0.600786 0
2.688097 1.559809 0.134821 0
1.764931 0.085175 0.494922 0
2.637182 0.813987 -1.200261 0
2.718034 1.039556 0.934039 0
1.619795 0.064574 -0.296327 0
2.670720 0.460846 -0.095206 0
2.695736 0.551523 -0.007852 0
2.671626 0.249374 -0.105201 0
2.685509 0.633317 -0.233704 0
2.680613 0.428544 0.156088 0
2.664349 0.262444 -0.339359 0
2.676957 0.782644 -0.029536 0
2.667606 0.123002 0.079725 0
2.662629 0.571886 -0.432642 0
2.702535 0.633431 0.238161 0
2.581511 0.062754 -0.251863 0
2.675490 0.868896 -0.226177 0
2.683466 0.233356 0.305192 0
2.636496 0.323129 -0.549352 0
2.673514 0.882692 0.142646 0
2.405668 0.071145 0.009316 0
2.667717 0.780072 -0.476562 0
2.684568 0.523805 0.414037 0
2.486541 0.088035 -0.452762 0
2.685462 1.016992 -0.090848 0
2.548696 0.059579 0.303352 0
2.633507 0.515335 -0.670090 0
2.695498 0.842487 0.343569 0
2.213515 0.081832 -0.153517 0
2.678856 0.987490 -0.396941 0
2.645074 0.312731 0.518418 0
2.206931 0.396121 -0.551535 0
2.689277 1.078479 0.110203 0
2.219342 0.075127 0.175492 0
2.659593 0.758226 -0.687801 0
2.679155 0.700973 0.529616 0
2.175537 0.085126 -0.375072 0
2.672160 1.150119 -0.223856 0
2.574455 0.052141 0.520024 0
2.376500 0.492965 -0.739909 0
2.687249 1.041959 0.337829 0
2.043996 0.061750 -0.013918 0
2.673314 1.006949 -0.590415 0
2.546582 0.517447 0.638756 0
2.062587 0.284180 -0.550993 0
2.672390 1.231859 0.004302 0
2.160421 0.087802 0.356297 0
2.642529 0.645531 -0.881496 0
2.707964 0.892466 0.564907 0
1.952201 0.087657 -0.243522 0
2.669180 1.210510 -0.399274 0
2.321314 0.345373 0.632792 0
2.034849 0.511004 -0.683928 0
2.699720 1.214312 0.261968 0
1.949574 0.060628 0.153004 0
2.657083 0.950064 -0.791728 0
2.657859 0.661467 0.740688 0
2.011266 0.095672 -0.516623 0
2.668471 1.333441 -0.150238 0
2.249779 0.061321 0.561197 0
2.486268 0.528849 -0.977128 0
2.684172 1.101372 0.520290 0
1.820453 0.073948 -0.088643 0
2.664460 1.207335 -0.600830 0
2.281841 0.536470 0.732834 0
1.786301 0.491712 -0.600080 0
2.672309 1.361239 0.130994 0
1.906715 0.089064 0.333055 0
2.640944 0.819028 -0.992319 0
2.697078 0.871142 0.758848 0
1.822745 0.077780 -0.365163 0
2.664733 1.384503 -0.339619 0
2.060932 0.348008 0.664179 0
2.082841 0.540853 -0.868010 0
2.691367 1.283159 0.423900 0
1.745150 0.070692 0.085172 0
2.656414 1.140395 -0.816913 0
2.617188 0.569449 0.910864 0
1.646710 0.410888 -0.517575 0
2.671990 1.463889 -0.039535 0
1.968550 0.086882 0.530655 0
2.584929 0.633127 -1.156263 0
2.713351 1.090904 0.708101 0
1.695697 0.060412 -0.194533 0
2.670312 1.380665 -0.557164 0
2.054522 0.525527 0.768872 0
1.752980 0.554088 -0.723021 0
2.701568 1.436275 0.279889 0
1.736878 0.061252 0.273041 0
2.639671 1.008364 -1.034145 0
2.571838 0.836850 0.897090 0
1.713303 0.122500 -0.487467 0
2.662978 1.522508 -0.240984 0
1.931719 0.256273 0.681058 0
2.254074 0.549992 -1.100560 0
2.717907 1.296054 0.599703 0
1.613195 0.060351 -0.008983 0
2.654719 1.321225 -0.785524 0
2.268597 0.605580 0.919379 0
1.554537 0.512925 -0.602280 0
2.681220 1.554657 0.096280 0
1.764317 0.084833 0.470019 0
2.611302 0.810033 -1.237495 0
2.715965 1.037199 0.889959 0
1.607779 0.063091 -0.317604 0
2.671716 0.450579 -0.139924 0
2.697733 0.541981 -0.052613 0
2.675196 0.236236 -0.150463 0
2.682480 0.624583 -0.278807 0
2.676666 0.423320 0.112139 0
2.661042 0.251008 -0.385128 0
2.680147 0.773507 -0.074011 0
2.672938 0.110118 0.035493 0
2.664246 0.558880 -0.480252 0
2.697093 0.629604 0.193717 0
2.547621 0.074111 -0.289601 0
2.680342 0.858355 -0.272245 0
2.687319 0.224716 0.261339 0
2.617002 0.319562 -0.591396 0
2.676439 0.875177 0.098964 0
2.400469 0.065043 -0.029630 0
2.671202 0.767660 -0.525112 0
2.691895 0.515313 0.370553 0
2.472097 0.082375 -0.493284 0
2.692122 1.007629 -0.136084 0
2.547014 0.054594 0.261672 0
2.627034 0.503797 -0.717532 0
2.695819 0.837028 0.299364 0
2.217846 0.064965 -0.191128 0
2.683239 0.977018 -0.444694 0
2.676124 0.290266 0.479362 0
2.137454 0.429901 -0.564750 0
2.690777 1.071708 0.066271 0
2.228831 0.059084 0.140271 0
2.662139 0.744450 -0.739093 0
2.685862 0.694207 0.486027 0
2.164504 0.078344 -0.410285 0
2.680136 1.140795 -0.270155 0
2.551691 0.065853 0.473560 0
2.349650 0.492611 -0.774508 0
2.690049 1.035827 0.294028 0
2.036158 0.058512 -0.045782 0
2.680349 0.994875 -0.641619 0
2.553347 0.511604 0.597343 0
1.957680 0.355430 -0.544145 0
2.671742 1.225516 -0.039365 0
2.126814 0.113910 0.318151 0
2.640031 0.631244 -0.933859 0
2.712835 0.886766 0.520351 0
1.939610 0.085274 -0.273304 0
2.669163 1.202666 -0.445532 0
2.464517 0.245177 0.629846 0
2.010524 0.511301 -0.712308 0
2.700986 1.208339 0.217971 0
1.950014 0.052215 0.122792 0
2.658934 0.937866 -0.844226 0
2.659579 0.658584 0.695326 0
1.971896 0.114836 -0.537879 0
2.671190 1.326453 -0.194849 0
2.202474 0.101411 0.513828 0
2.424444 0.544953 -0.995830 0
2.693999 1.094344 0.477135 0
1.810821 0.071936 -0.116091 0
2.666922 1.198300 -0.650227 0
2.325246 0.510225 0.707229 0
1.754890 0.500996 -0.618657 0
2.683896 1.353782 0.087386 0
1.904414 0.087284 0.303375 0
2.646992 0.802423 -1.051027 0
2.708327 0.864445 0.715071 0
1.805444 0.078675 -0.391391 0
2.670735 1.377005 -0.386448 0
2.162751 0.267194 0.661590 0
2.074587 0.527529 -0.909026 0
2.698246 1.276749 0.380348 0
1.739506 0.068050 0.058907 0
2.658642 1.129976 -0.869745 0
2.628198 0.563835 0.867751 0
1.604257 0.435883 -0.526658 0
2.674129 1.457639 -0.083437 0
1.973449 0.081233 0.500346 0
2.558728 0.627606 -1.198755 0
2.717494 1.085987 0.662502 0
1.683623 0.059467 -0.219331 0
2.676688 1.372676 -0.607111 0
2.060901 0.522813 0.735703 0
1.755622 0.532420 -0.763818 0
2.702359 1.430439 0.235882 0
1.734294 0.059155 0.246734 0
2.660740 0.989821 -1.101820 0
2.609935 0.821087 0.864071 0
1.682881 0.137251 -0.505528 0
2.666519 1.516239 -0.286165 0
2.000926 0.193878 0.673138 0
2.243430 0.536059 -1.147223 0
2.719064 1.290938 0.554099 0
1.605943 0.057933 -0.032686 0
2.656111 1.312877 -0.837134 0
2.294316 0.592656 0.888791 0
1.528918 0.519191 -0.618657 0
2.681502 1.548780 0.052747 0
1.779259 0.066294 0.446289 0
2.608228 0.795052 -1.296343 0
2.722663 1.032516 0.843610 0
1.592515 0.063794 -0.340116 0
2.690073 0.426199 -0.189159 0
2.694989 0.530564 -0.099171 0
2.671599 0.222487 -0.196404 0
2.675329 0.612868 -0.325758 0
2.675175 0.413026 0.066704 0
2.644517 0.241929 -0.429566 0
2.681529 0.761146 -0.121183 0
2.682255 0.089809 -0.010073 0
2.657920 0.543975 -0.528701 0
2.689116 0.623809 0.147410 0
2.532679 0.065558 -0.331317 0
2.679574 0.845289 -0.320745 0
2.685000 0.216507 0.216197 0
2.570156 0.326422 -0.625759 0
2.678552 0.864762 0.052430 0
2.387573 0.060348 -0.067974 0
2.668110 0.752273 -0.575474 0
2.692569 0.507502 0.324637 0
2.413863 0.104158 -0.520617 0
2.695583 0.995330 -0.184630 0
2.543141 0.047595 0.219817 0
2.610839 0.490622 -0.764349 0
2.686037 0.832690 0.252084 0
2.203405 0.059207 -0.225590 0
2.683570 0.962835 -0.495539 0
2.691450 0.274754 0.436085 0
2.074345 0.453958 -0.579740 0
2.686517 1.063359 0.019207 0
2.174834 0.095590 0.105643 0
2.656798 0.727475 -0.791552 0
2.695364 0.684196 0.440638 0
2.140581 0.076877 -0.441724 0
2.684360 1.128211 -0.320068 0
2.542728 0.066495 0.430065 0
2.318934 0.487946 -0.809360 0
2.692623 1.027384 0.247103 0
2.022211 0.056462 -0.076243 0
2.680707 0.979159 -0.695283 0
2.594628 0.485444 0.561612 0
1.878798 0.400000 -0.546190 0
2.674284 1.215345 -0.087138 0
2.143173 0.091402 0.286766 0
2.630906 0.612644 -0.987477 0
2.713076 0.880841 0.472402 0
1.921973 0.082230 -0.301319 0
2.671328 1.189843 -0.496925 0
2.546924 0.185176 0.607007 0
1.984515 0.506366 -0.741449 0
2.699616 1.200415 0.170321 0
1.922595 0.069193 0.093986 0
2.648740 0.923202 -0.896330 0
2.668621 0.651118 0.649964 0
1.857331 0.204106 -0.524181 0
2.680653 1.314863 -0.245003 0
2.235260 0.068824 0.485246 0
2.367246 0.551696 -1.018600 0
2.706120 1.084974 0.430858 0
1.786696 0.081403 -0.139800 0
2.666492 1.184639 -0.703705 0
2.316184 0.514541 0.664110 0
1.718513 0.508718 -0.634944 0
2.685922 1.344811 0.039648 0
1.900838 0.083612 0.274835 0
2.630509 0.787066 -1.103014 0
2.720083 0.856409 0.668614 0
1.766056 0.098717 -0.408415 0
2.674696 1.365613 -0.437827 0
2.272537 0.178673 0.657603 0
2.022821 0.536991 -0.924753 0
2.708893 1.267761 0.333273 0
1.722106 0.075244 0.034790 0
2.655549 1.114751 -0.925745 0
2.626556 0.563726 0.818855 0
1.563019 0.454140 -0.535859 0
2.674159 1.448433 -0.131666 0
1.992792 0.058440 0.474402 0
2.527737 0.616368 -1.242488 0
2.705343 1.083915 0.610237 0
1.650905 0.079183 -0.237053 0
2.682188 1.359963 -0.662371 0
2.079977 0.510562 0.706757 0
1.725216 0.531714 -0.784622 0
2.703703 1.422292 0.187742 0
1.727885 0.058131 0.221768 0
2.647018 0.974377 -1.156610 0
2.659212 0.800456 0.830991 0
1.645037 0.154451 -0.519066 0
2.669925 1.506308 -0.336401 0
2.076776 0.124112 0.665577 0
2.162022 0.558236 -1.146377 0
2.713317 1.285498 0.503700 0
1.601144 0.046880 -0.055323 0
2.657559 1.298925 -0.894696 0
2.356365 0.558836 0.870562 0
1.492153 0.530974 -0.627897 0
2.685623 1.540045 0.004443 0
1.778961 0.063149 0.420289 0
2.615098 0.767631 -1.368533 0
2.723647 1.028712 0.792483 0
1.571835 0.065226 -0.359584 0
2.686138 0.411063 -0.235600 0
2.687298 0.518818 -0.144736 0
2.676089 0.200575 -0.243965 0
2.669981 0.598140 -0.372585 0
2.676636 0.397770 0.021421 0
2.640423 0.222649 -0.477352 0
2.686136 0.744937 -0.168122 0
2.674892 0.077477 -0.055159 0
2.649895 0.528113 -0.576440 0
2.684209 0.613407 0.102126 0
2.483213 0.080867 -0.365244 0
2.680797 0.829442 -0.368944 0
2.681459 0.205152 0.171181 0
2.383143 0.420620 -0.606170 0
2.681360 0.851279 0.006845 0
2.370677 0.055755 -0.106296 0
2.665799 0.734973 -0.625647 0
2.691727 0.496648 0.279341 0
2.305311 0.164870 -0.529098 0
2.690719 0.983215 -0.230883 0
2.518285 0.052547 0.177144 0
2.580856 0.483749 -0.804886 0
2.674279 0.825884 0.206363 0
2.167392 0.070438 -0.256123 0
2.679733 0.948301 -0.544327 0
2.688450 0.265977 0.390511 0
2.023930 0.468585 -0.598539 0
2.685194 1.051700 -0.026454 0
2.216872 0.042506 0.069340 0
2.656579 0.707177 -0.845897 0
2.699023 0.672785 0.395398 0
2.125311 0.065463 -0.476860 0
2.680410 1.115645 -0.367089 0
2.544289 0.054566 0.388213 0
2.215961 0.528208 -0.805757 0
2.696308 1.015546 0.201715 0
2.006415 0.053269 -0.107317 0
2.673966 0.964341 -0.745466 0
2.649552 0.447345 0.527693 0
1.818375 0.429015 -0.554813 0
2.676521 1.202965 -0.133367 0
2.133189 0.088781 0.252047 0
2.617213 0.595450 -1.038528 0
2.714509 0.870801 0.426257 0
1.909267 0.071660 -0.331912 0
2.675866 1.175007 -0.547833 0
2.591291 0.146416 0.573363 0
1.931188 0.521583 -0.754388 0
2.704503 1.188468 0.124581 0
1.934750 0.040425 0.063391 0
2.645574 0.905435 -0.950888 0
2.660574 0.646918 0.602025 0
1.749906 0.287937 -0.510111 0
2.678218 1.303102 -0.291647 0
2.193032 0.097524 0.441435 0
2.310371 0.558849 -1.039233 0
2.698527 1.077078 0.383751 0
1.775287 0.073426 -0.167061 0
2.667109 1.169643 -0.756409 0
2.358291 0.483427 0.636029 0
1.678675 0.519573 -0.648600 0
2.681430 1.334308 -0.005821 0
1.899165 0.073763 0.245608 0
2.636937 0.762192 -1.167580 0
2.709320 0.852007 0.618667 0
1.748195 0.092139 -0.434890 0
2.672853 1.353415 -0.486101 0
2.363106 0.100339 0.644247 0
1.987131 0.535693 -0.949861 0
2.705232 1.258090 0.286881 0
1.712723 0.069312 0.009014 0
2.643190 1.101105 -0.976082 0
2.631790 0.555302 0.773707 0
1.523498 0.470676 -0.545637 0
2.672338 1.437360 -0.177610 0
1.975957 0.067924 0.439673 0
2.491583 0.608003 -1.281531 0
2.703586 1.075513 0.562720 0
1.638002 0.071061 -0.261820 0
2.667797 1.348698 -0.708872 0
2.113742 0.483580 0.682733 0
1.681846 0.542659 -0.795628 0
2.695620 1.412443 0.141747 0
1.719625 0.055373 0.195618 0
2.651238 0.953135 -1.221133 0
2.696807 0.779578 0.794381 0
1.621971 0.152475 -0.541260 0
2.670616 1.494882 -0.384137 0
2.101248 0.097006 0.638986 0
2.108557 0.564319 -1.163112 0
2.703429 1.277391 0.455344 0
1.584068 0.049615 -0.077601 0
2.653168 1.285176 -0.948181 0
2.404106 0.528213 0.845822 0
1.456491 0.541977 -0.637540 0
2.686031 1.529217 -0.041434 0
1.774093 0.060748 0.392518 0
2.636818 0.733712 -1.452084 0
2.723345 1.021008 0.743419 0
1.541528 0.078499 -0.376157 0
2.688311 0.363612 -0.321188 0
2.691329 0.474240 -0.228735 0
2.664697 0.157310 -0.327149 0
2.667705 0.554409 -0.459071 0
2.687840 0.350005 -0.060346 0
2.639988 0.167248 -0.567346 0
2.700425 0.699845 -0.253795 0
2.621144 0.067271 -0.131148 0
2.630150 0.488588 -0.661544 0
2.700455 0.568873 0.021187 0
2.428735 0.067124 -0.432835 0
2.685270 0.787288 -0.456751 0
2.694523 0.155258 0.091368 0
2.192548 0.492382 -0.612723 0
2.686068 0.814232 -0.074382 0
2.318063 0.050052 -0.171148 0
2.670974 0.686896 -0.720811 0
2.710932 0.451344 0.200500 0
2.193246 0.197548 -0.567745 0
2.682252 0.949340 -0.313238 0
2.463703 0.052660 0.103654 0
2.462587 0.495395 -0.846798 0
2.682895 0.789665 0.127096 0
2.079122 0.098435 -0.303483 0
2.699159 0.901548 -0.641295 0
2.696060 0.225560 0.312168 0
1.933141 0.485832 -0.629777 0
2.710037 1.011217 -0.110047 0
2.170089 0.040620 0.007583 0
2.652988 0.658918 -0.944812 0
2.718878 0.632204 0.317251 0
2.018202 0.106594 -0.510488 0
2.693418 1.076560 -0.456186 0
2.517311 0.038172 0.312044 0
2.116036 0.539062 -0.838555 0
2.701385 0.982267 0.121602 0
1.955107 0.055477 -0.159113 0
2.679085 0.920425 -0.843825 0
2.728519 0.372902 0.461297 0
1.701749 0.480881 -0.562428 0
2.687144 1.167834 -0.216687 0
2.125767 0.057708 0.191897 0
2.483716 0.606761 -1.069348 0
2.713703 0.840713 0.345427 0
1.856199 0.070157 -0.378465 0
2.682715 1.137149 -0.639660 0
2.616820 0.096512 0.502126 0
1.838121 0.538816 -0.776917 0
2.697203 1.158559 0.044172 0
1.897568 0.035503 0.010892 0
2.652519 0.857022 -1.057886 0
2.687315 0.606308 0.527404 0
1.615255 0.372320 -0.506416 0
2.700475 1.266554 -0.380400 0
2.135930 0.116666 0.371652 0
2.204754 0.564849 -1.071134 0
2.695562 1.048038 0.303192 0
1.722496 0.082007 -0.209265 0
2.674364 1.130028 -0.854849 0
2.534650 0.350017 0.608181 0
1.621436 0.517084 -0.682441 0
2.674992 1.304175 -0.085736 0
1.859517 0.079321 0.191981 0
2.621257 0.715787 -1.271373 0
2.715069 0.821890 0.537953 0
1.688664 0.098739 -0.472231 0
2.695502 1.316980 -0.580406 0
2.383133 0.056125 0.580925 0
1.864183 0.568166 -0.951428 0
2.703507 1.228303 0.206329 0
1.674659 0.068864 -0.035140 0
2.679960 1.050227 -1.099100 0
2.604955 0.543506 0.686650 0
1.451632 0.492996 -0.562306 0
2.684757 1.405068 -0.261434 0
1.927316 0.087494 0.377720 0
2.318863 0.639571 -1.272333 0
2.710154 1.045487 0.482191 0
1.590261 0.073334 -0.299830 0
2.682596 1.312241 -0.807926 0
2.195932 0.405394 0.646152 0
1.632222 0.528283 -0.837544 0
2.688675 1.382994 0.061667 0
1.677950 0.067346 0.148855 0
2.642900 0.908071 -1.330837 0
2.702175 0.751763 0.712577 0
1.502613 0.237644 -0.536144 0
2.677610 1.463276 -0.470644 0
2.073833 0.097826 0.572461 0
2.025887 0.558000 -1.202487 0
2.708012 1.247539 0.374742 0
1.543581 0.051970 -0.116208 0
2.656785 1.247817 -1.051074 0
2.355738 0.535311 0.756261 0
1.416281 0.526569 -0.674843 0
2.686565 1.498996 -0.122219 0
1.752034 0.055080 0.342495 0
2.591350 0.695361 -1.546192 0
2.722195 0.994467 0.659004 0
1.491991 0.080679 -0.409833 0
2.661701 0.356146 -0.392346 0
2.665603 0.467315 -0.299257 0
2.659237 0.135239 -0.403825 0
2.651322 0.540836 -0.532257 0
2.683429 0.332639 -0.133848 0
2.445739 0.270691 -0.581833 0
2.689050 0.686414 -0.326178 0
2.596092 0.061591 -0.201884 0
2.591787 0.484384 -0.728497 0
2.694482 0.554533 -0.050929 0
2.371375 0.083618 -0.489399 0
2.676194 0.772221 -0.531058 0
2.689460 0.138852 0.017588 0
2.111629 0.520792 -0.646661 0
2.687724 0.797617 -0.146196 0
2.290531 0.048216 -0.232821 0
2.673462 0.663892 -0.804941 0
2.677578 0.452721 0.127738 0
1.991191 0.336108 -0.552308 0
2.680690 0.933851 -0.386396 0
2.435420 0.054950 0.036887 0
2.361964 0.526383 -0.878418 0
2.685600 0.773692 0.056590 0
2.047768 0.099706 -0.357120 0
2.670606 0.893044 -0.711065 0
2.697773 0.208215 0.239228 0
1.857109 0.517791 -0.654761 0
2.691409 1.001720 -0.179150 0
2.121043 0.064260 -0.048142 0
2.636078 0.642358 -1.025427 0
2.700691 0.625922 0.244304 0
1.944184 0.146099 -0.544829 0
2.676322 1.065824 -0.526595 0
2.494169 0.039445 0.241891 0
2.069090 0.542158 -0.886508 0
2.701885 0.968008 0.051535 0
1.916569 0.069412 -0.207698 0
2.654009 0.909990 -0.917078 0
2.710458 0.369042 0.385552 0
1.647546 0.501972 -0.590622 0
2.692771 1.152842 -0.288837 0
2.103005 0.061223 0.133889 0
2.442009 0.601252 -1.134430 0
2.697928 0.832729 0.273411 0
1.791813 0.109381 -0.412975 0
2.679142 1.123225 -0.716673 0
2.631444 0.072272 0.432536 0
1.794343 0.543568 -0.817085 0
2.688587 1.146943 -0.024663 0
1.856243 0.058368 -0.037578 0
2.651459 0.836395 -1.148920 0
2.697258 0.589064 0.457038 0
1.528773 0.434800 -0.513593 0
2.680926 1.256806 -0.448566 0
2.122720 0.114918 0.312582 0
2.146989 0.570764 -1.117039 0
2.698870 1.033858 0.233924 0
1.718154 0.057032 -0.260065 0
2.657579 1.118744 -0.930564 0
2.637010 0.275328 0.559697 0
1.576890 0.527570 -0.713705 0
2.673898 1.291596 -0.154410 0
1.847640 0.074628 0.141707 0
2.619523 0.690853 -1.370583 0
2.708581 0.811656 0.465067 0
1.635884 0.126775 -0.504095 0
2.674256 1.307648 -0.649323 0
2.326320 0.091562 0.503569 0
1.855399 0.542410 -1.022987 0
2.699884 1.215836 0.137489 0
1.654224 0.069568 -0.079233 0
2.655279 1.039645 -1.176744 0
2.603205 0.533762 0.615137 0
1.422482 0.492276 -0.597722 0
2.673454 1.394338 -0.329418 0
1.910724 0.091890 0.323703 0
2.308963 0.615436 -1.362048 0
2.712475 1.031994 0.411956 0
1.548592 0.095492 -0.334508 0
2.656998 1.303735 -0.877675 0
2.414928 0.242326 0.644721 0
1.598855 0.524302 -0.880591 0
2.683806 1.370977 -0.006016 0
1.661438 0.068761 0.103812 0
2.668441 0.877987 -1.450319 0
2.700506 0.741028 0.638853 0
1.346236 0.408734 -0.489661 0
2.669583 1.452924 -0.541021 0
2.062108 0.099778 0.512751 0
1.950161 0.576764 -1.227965 0
2.709212 1.234242 0.305708 0
1.522460 0.052245 -0.156572 0
2.667532 1.232464 -1.145581 0
2.396960 0.503401 0.703377 0
1.386588 0.523704 -0.710986 0
2.675536 1.488021 -0.189087 0
1.736343 0.060301 0.293639 0
2.566416 0.678067 -1.638379 0
2.711307 0.985282 0.584279 0
1.458715 0.088946 -0.445197 0
2.654295 0.404527 -0.441091 0
2.667353 0.509881 -0.349911 0
2.650700 0.187881 -0.452639 0
2.675669 0.570901 -0.590511 0
2.684957 0.377851 -0.185278 0
2.238378 0.449273 -0.552375 0
2.693091 0.726493 -0.377270 0
2.634803 0.083024 -0.258713 0
2.624292 0.508020 -0.792819 0
2.704994 0.593395 -0.102676 0
2.316630 0.170162 -0.516508 0
2.687300 0.808771 -0.585315 0
2.680754 0.194519 -0.034728 0
2.121147 0.547581 -0.692583 0
2.691997 0.837230 -0.196312 0
2.342152 0.050964 -0.287840 0
2.679180 0.702100 -0.860606 0
2.689467 0.492086 0.075808 0
1.914308 0.433304 -0.555644 0
2.679513 0.974366 -0.435845 0
2.458942 0.086296 -0.013215 0
2.378946 0.552612 -0.935993 0
2.693094 0.812474 0.006408 0
2.121103 0.072638 -0.419091 0
2.683906 0.928879 -0.768523 0
2.701952 0.255873 0.184908 0
1.885555 0.524748 -0.707634 0
2.700690 1.039231 -0.229457 0
2.173845 0.062400 -0.096341 0
2.652428 0.674723 -1.089593 0
2.693711 0.672656 0.192177 0
1.885133 0.240346 -0.554532 0
2.686762 1.103217 -0.580265 0
2.499940 0.087066 0.190213 0
2.065240 0.575200 -0.927662 0
2.686882 1.012429 0.003149 0
1.972310 0.054706 -0.257768 0
2.661748 0.947288 -0.975440 0
2.725106 0.409351 0.331870 0
1.671579 0.506373 -0.637334 0
2.693339 1.192446 -0.337834 0
2.181776 0.036957 0.089459 0
2.485109 0.615404 -1.216236 0
2.687178 0.877728 0.222219 0
1.830278 0.105208 -0.462237 0
2.675782 1.164191 -0.767847 0
2.667919 0.100730 0.380367 0
1.847003 0.528067 -0.892601 0
2.684659 1.186914 -0.072319 0
1.913908 0.041248 -0.081907 0
2.669587 0.869596 -1.217832 0
2.721229 0.623100 0.406158 0
1.555855 0.432561 -0.558662 0
2.676200 1.297435 -0.496854 0
2.207335 0.089494 0.274443 0
2.209547 0.563040 -1.212828 0
2.700038 1.073153 0.184777 0
1.747243 0.063689 -0.301418 0
2.660878 1.158235 -0.987400 0
2.704108 0.285286 0.514761 0
1.609311 0.520095 -0.770683 0
2.678215 1.329943 -0.202458 0
1.922199 0.041740 0.102487 0
2.639716 0.720761 -1.446233 0
2.721583 0.849006 0.414302 0
1.658605 0.133991 -0.546510 0
2.679087 1.347526 -0.702646 0
2.431483 0.060154 0.469845 0
1.895215 0.537713 -1.098833 0
2.684534 1.257214 0.089801 0
1.713797 0.039158 -0.122352 0
2.673866 1.075076 -1.247438 0
2.671134 0.545481 0.574355 0
1.420084 0.518279 -0.623786 0
2.676478 1.433691 -0.378243 0
1.985107 0.065481 0.289516 0
2.319582 0.642075 -1.427521 0
2.704955 1.073520 0.360722 0
1.588882 0.079753 -0.379818 0
2.663388 1.343806 -0.935307 0
2.551117 0.199107 0.622468 0
1.616341 0.529791 -0.932018 0
2.684646 1.409449 -0.052887 0
1.710959 0.054621 0.067351 0
2.659740 0.920545 -1.508708 0
2.722171 0.775708 0.588529 0
1.363768 0.411472 -0.526447 0
2.674337 1.493268 -0.592591 0
2.145937 0.074176 0.482236 0
2.017110 0.556400 -1.338451 0
2.703665 1.273526 0.257030 0
1.556541 0.047690 -0.194508 0
2.666860 1.273998 -1.204775 0
2.476154 0.503231 0.671790 0
1.391446 0.538435 -0.744560 0
2.682870 1.526933 -0.237169 0
1.769532 0.071790 0.257769 0
2.610887 0.695340 -1.743320 0
2.706333 1.026579 0.531138 0
1.489840 0.079502 -0.488838 0
2.668115 0.425959 -0.476956 0
2.683722 0.530340 -0.385718 0
2.682482 0.198232 -0.493490 0
2.676237 0.598384 -0.623517 0
2.695624 0.402234 -0.219486 0
2.226590 0.480921 -0.575385 0
2.684958 0.757197 -0.407730 0
2.656580 0.100523 -0.295092 0
2.644644 0.524759 -0.834634 0
2.708689 0.620580 -0.135626 0
2.224790 0.268327 -0.512848 0
2.679509 0.838482 -0.615750 0
2.680007 0.227613 -0.068085 0
2.177233 0.533311 -0.747047 0
2.687657 0.865862 -0.227540 0
2.362617 0.064899 -0.321171 0
2.669027 0.733059 -0.890480 0
2.693918 0.519794 0.042605 0
1.877697 0.483586 -0.562215 0
2.688544 0.998249 -0.470322 0
2.542941 0.055579 -0.050774 0
2.414705 0.556574 -0.987289 0
2.690768 0.840715 -0.025440 0
2.139356 0.083951 -0.450805 0
2.679028 0.956939 -0.800621 0
2.700460 0.289638 0.150355 0
1.889038 0.540993 -0.733945 0
2.702935 1.065169 -0.261497 0
2.177400 0.089965 -0.124165 0
2.640769 0.705905 -1.119082 0
2.699635 0.698789 0.159378 0
1.811190 0.333549 -0.542453 0
2.686122 1.129835 -0.612990 0
2.584158 0.058821 0.159244 0
2.178287 0.522216 -1.029702 0
2.696632 1.036176 -0.028796 0
1.977334 0.078293 -0.283160 0
2.673544 0.970008 -1.016991 0
2.701130 0.453658 0.294852 0
1.682787 0.513365 -0.665566 0
2.692705 1.218857 -0.369411 0
2.203910 0.049518 0.060152 0
2.552574 0.606357 -1.296489 0
2.687380 0.904742 0.190045 0
1.866029 0.091822 -0.499297 0
2.670718 1.191767 -0.800005 0
2.676772 0.130250 0.345103 0
1.854199 0.539861 -0.923328 0
2.696236 1.210585 -0.104318 0
1.907131 0.078672 -0.105153 0
2.677117 0.893315 -1.260496 0
2.698072 0.662758 0.368993 0
1.518884 0.489359 -0.555185 0
2.679806 1.323298 -0.530148 0
2.297228 0.045297 0.250874 0
2.237078 0.567112 -1.266603 0
2.690663 1.101587 0.153103 0
1.731611 0.109446 -0.317237 0
2.654891 1.186054 -1.020527 0
2.712688 0.313926 0.479313 0
1.630376 0.515567 -0.808575 0
2.683446 1.355168 -0.234089 0
1.957547 0.036324 0.075940 0
2.671473 0.733366 -1.509324 0
2.708567 0.881079 0.379268 0
1.600439 0.227601 -0.534071 0
2.669814 1.375543 -0.732994 0
2.507593 0.036590 0.447406 0
1.918729 0.537038 -1.147169 0
2.689628 1.281933 0.059095 0
1.713867 0.068707 -0.143765 0
2.674139 1.101719 -1.286758 0
2.691974 0.565868 0.542736 0
1.433089 0.518099 -0.651936 0
2.675348 1.460162 -0.409450 0
2.009635 0.074036 0.263633 0
2.393746 0.624746 -1.526446 0
2.697194 1.101507 0.327947 0
1.594898 0.097497 -0.400994 0
2.658201 1.371606 -0.968784 0
2.588804 0.208402 0.594048 0
1.631265 0.530045 -0.969176 0
2.691440 1.434491 -0.083781 0
1.740010 0.050519 0.042960 0
2.655768 0.947890 -1.547835 0
2.713930 0.807172 0.551967 0
1.372737 0.416360 -0.549126 0
2.664425 1.520901 -0.622258 0
2.198061 0.061873 0.460451 0
2.062436 0.543121 -1.413857 0
2.706446 1.298550 0.226288 0
1.573836 0.052338 -0.218270 0
2.666595 1.301410 -1.243793 0
2.551379 0.491974 0.656335 0
1.409760 0.530273 -0.780488 0
2.681165 1.553283 -0.267565 0
1.804787 0.063900 0.235356 0
2.600790 0.724298 -1.778821 0
2.711760 1.051498 0.499008 0
1.506832 0.078974 -0.515692 0
2.655682 0.416948 -0.524393 0
2.673301 0.520976 -0.432722 0
2.599095 0.234040 -0.522146 0
2.676256 0.583926 -0.675458 0
2.717710 0.374785 -0.271808 0
2.180860 0.494299 -0.603921 0
2.695549 0.740387 -0.458816 0
2.614701 0.111477 -0.337225 0
2.587948 0.537928 -0.864571 0
2.699468 0.611465 -0.181544 0
2.183401 0.281331 -0.544804 0
2.671978 0.829211 -0.663613 0
2.679578 0.211813 -0.116245 0
2.156878 0.529557 -0.785911 0
2.696716 0.851072 -0.275249 0
2.308269 0.090028 -0.355218 0
2.656451 0.724860 -0.939775 0
2.697021 0.504653 -0.003793 0
1.828869 0.504910 -0.581806 0
2.682158 0.989521 -0.516398 0
2.456189 0.103847 -0.089591 0
2.334169 0.584790 -0.996858 0
2.690698 0.829021 -0.070417 0
2.108852 0.090406 -0.486517 0
2.670005 0.948914 -0.849175 0
2.673914 0.290908 0.103389 0
1.850325 0.552239 -0.757480 0
2.691055 1.057968 -0.304981 0
2.197520 0.053249 -0.169727 0
2.634676 0.694449 -1.174985 0
2.703794 0.684695 0.114430 0
1.690329 0.428478 -0.525814 0
2.680471 1.121829 -0.659819 0
2.510112 0.097566 0.112573 0
2.110112 0.548220 -1.039226 0
2.693429 1.026401 -0.072653 0
1.948629 0.086287 -0.317236 0
2.660652 0.963333 -1.066181 0
2.687528 0.447571 0.248221 0
1.653211 0.520019 -0.690825 0
2.687060 1.210889 -0.413721 0
2.180792 0.053039 0.019821 0
2.457136 0.637524 -1.294353 0
2.695138 0.890833 0.146467 0
1.832770 0.103707 -0.528919 0
2.663713 1.184794 -0.847842 0
2.670819 0.119533 0.297843 0
1.814375 0.551192 -0.944998 0
2.686311 1.202889 -0.146864 0
1.904516 0.061469 -0.143451 0
2.669612 0.884293 -1.317143 0
2.698353 0.650442 0.324349 0
1.500295 0.487297 -0.584295 0
2.675434 1.316053 -0.575350 0
2.220874 0.095402 0.204771 0
2.203432 0.569235 -1.301903 0
2.690741 1.091046 0.110148 0
1.724020 0.094853 -0.354230 0
2.651453 1.178719 -1.073108 0
2.702567 0.306547 0.431494 0
1.615911 0.507018 -0.845399 0
2.678334 1.347336 -0.276811 0
1.942625 0.033884 0.038734 0
2.639441 0.732427 -1.553760 0
2.698745 0.872951 0.334402 0
1.477202 0.352919 -0.505373 0
2.667752 1.368947 -0.780859 0
2.431928 0.081055 0.391996 0
1.884677 0.541899 -1.175805 0
2.684430 1.273141 0.016904 0
1.694409 0.070582 -0.176333 0
2.659319 1.096633 -1.337682 0
2.695327 0.552076 0.498282 0
1.400690 0.531050 -0.669813 0
2.664726 1.453780 -0.451227 0
1.994700 0.073190 0.225203 0
2.360329 0.625224 -1.566703 0
2.692230 1.091958 0.284802 0
1.591857 0.074524 -0.439813 0
2.652874 1.366120 -1.018386 0
2.587427 0.196353 0.548728 0
1.612432 0.524327 -1.005112 0
2.682173 1.426779 -0.125157 0
1.716615 0.059437 0.009667 0
2.642109 0.941446 -1.605046 0
2.713345 0.795785 0.507480 0
1.321819 0.457285 -0.552943 0
2.658033 1.515250 -0.666321 0
2.146604 0.094244 0.411506 0
1.959026 0.593210 -1.380550 0
2.705361 1.288668 0.184148 0
1.555770 0.052310 -0.249214 0
2.665731 1.295335 -1.301359 0
2.550654 0.480697 0.612666 0
1.364192 0.557265 -0.785364 0
2.670805 1.546425 -0.308412 0
1.795029 0.058370 0.200303 0
2.566319 0.724239 -1.823628 0
2.710392 1.040757 0.455547 0
1.462994 0.112598 -0.531625 0
2.643013 0.426416 -0.570131 0
2.660133 0.530278 -0.477569 0
2.625111 0.218833 -0.580447 0
2.653725 0.598154 -0.716998 0
2.683126 0.395987 -0.314483 0
2.150370 0.515048 -0.636147 0
2.673195 0.752915 -0.499809 0
2.645525 0.091165 -0.394193 0
2.609200 0.530673 -0.925718 0
2.693719 0.616441 -0.227089 0
2.055866 0.379770 -0.541500 0
2.663769 0.836961 -0.708313 0
2.662331 0.224219 -0.163400 0
2.114987 0.557496 -0.810430 0
2.681050 0.859829 -0.317254 0
2.345184 0.059491 -0.412150 0
2.638416 0.737451 -0.982339 0
2.682579 0.513572 -0.049488 0
1.825125 0.506605 -0.621671 0
2.668932 0.998217 -0.557762 0
2.499214 0.071974 -0.141816 0
2.322197 0.594230 -1.040440 0
2.687504 0.832558 -0.114191 0
2.112947 0.085189 -0.534370 0
2.658217 0.958792 -0.892600 0
2.678976 0.289151 0.055418 0
1.817202 0.576610 -0.780919 0
2.685176 1.063569 -0.347121 0
2.180401 0.068190 -0.212029 0
2.623882 0.704780 -1.223115 0
2.685709 0.693816 0.069634 0
1.645922 0.468259 -0.543311 0
2.665943 1.131430 -0.700073 0
2.549700 0.069157 0.064476 0
2.090852 0.561804 -1.076112 0
2.682815 1.032069 -0.114180 0
1.942959 0.090117 -0.358853 0
2.634673 0.978511 -1.103309 0
2.695725 0.444309 0.201950 0
1.622546 0.545129 -0.712471 0
2.678082 1.217850 -0.454258 0
2.172185 0.060763 -0.023975 0
2.430334 0.655381 -1.331253 0
2.695553 0.892248 0.103340 0
1.721704 0.221682 -0.520779 0
2.656383 1.193965 -0.891334 0
2.666373 0.123680 0.248299 0
1.816246 0.548299 -0.993825 0
2.675487 1.208596 -0.186788 0
1.900644 0.063984 -0.184580 0
2.673660 0.890895 -1.375368 0
2.699679 0.650681 0.279321 0
1.455334 0.531115 -0.594242 0
2.659938 1.325005 -0.613497 0
2.245313 0.074760 0.161478 0
2.180199 0.585518 -1.338538 0
2.691051 1.092902 0.068672 0
1.716018 0.100706 -0.392598 0
2.638959 1.190233 -1.115849 0
2.714682 0.300294 0.384822 0
1.594551 0.523535 -0.872952 0
2.669304 1.353385 -0.315827 0
1.927425 0.049212 -0.002086 0
2.625160 0.745646 -1.603500 0
2.702141 0.872527 0.291411 0
1.400343 0.441794 -0.498359 0
2.656272 1.378728 -0.820739 0
2.436923 0.078082 0.345670 0
1.863494 0.556927 -1.209148 0
2.683403 1.276067 -0.023143 0
1.681025 0.084190 -0.212833 0
2.645991 1.109668 -1.383120 0
2.725853 0.537802 0.456900 0
1.395353 0.531227 -0.706241 0
2.663673 1.460385 -0.491768 0
1.996565 0.071353 0.183495 0
2.360240 0.629836 -1.627646 0
2.694269 1.092443 0.243579 0
1.574907 0.091743 -0.472856 0
2.638469 1.377858 -1.058285 0
2.621392 0.174480 0.506973 0
1.578159 0.552506 -1.020756 0
2.670273 1.431980 -0.163112 0
1.711318 0.064157 -0.028925 0
2.637833 0.952455 -1.661857 0
2.712529 0.796156 0.462953 0
1.293218 0.488005 -0.569933 0
2.652260 1.523997 -0.706398 0
2.179219 0.065627 0.373088 0
1.219035 1.099197 -0.701034 0
2.699874 1.291257 0.144109 0
1.543936 0.064350 -0.284321 0
2.662637 1.307179 -1.351591 0
2.633223 0.435708 0.585537 0
1.299258 0.625832 -0.765229 0
2.659922 1.552706 -0.345443 0
1.793986 0.059097 0.160608 0
2.551238 0.738473 -1.875905 0
2.715434 1.039529 0.414080 0
1.345992 0.277857 -0.498391 0
2.617611 0.473239 -0.607905 0
2.658804 0.563494 -0.522667 0
2.450168 0.364170 -0.570668 0
2.665754 0.625026 -0.767296 0
2.664851 0.439667 -0.357220 0
2.162399 0.534590 -0.681103 0
2.684005 0.780106 -0.547675 0
2.647647 0.126673 -0.441628 0
2.594797 0.570202 -0.965183 0
2.690593 0.649747 -0.272100 0
1.979878 0.465017 -0.549503 0
2.679776 0.862769 -0.759555 0
2.670548 0.254761 -0.211682 0
2.167788 0.550806 -0.879422 0
2.686960 0.888265 -0.362631 0
2.369996 0.074479 -0.462247 0
2.638062 0.769566 -1.029047 0
2.687897 0.543514 -0.096192 0
1.826604 0.529327 -0.658126 0
2.686036 1.024029 -0.607164 0
2.545850 0.074010 -0.193911 0
2.337163 0.614816 -1.093611 0
2.690886 0.861485 -0.158972 0
1.955288 0.259815 -0.513539 0
2.667911 0.987499 -0.943197 0
2.680812 0.323079 0.007290 0
1.895535 0.540778 -0.867562 0
2.685099 1.093345 -0.390562 0
2.226675 0.062043 -0.262595 0
2.643967 0.728863 -1.284221 0
2.688377 0.723432 0.023915 0
1.641031 0.495848 -0.573846 0
2.673216 1.160682 -0.747343 0
2.567669 0.093405 0.015932 0
2.131860 0.561713 -1.147371 0
2.688575 1.059570 -0.158069 0
1.993114 0.072188 -0.412484 0
2.665072 1.001732 -1.167972 0
2.681660 0.484705 0.153389 0
1.652339 0.539502 -0.766514 0
2.688495 1.245886 -0.500049 0
2.194694 0.075994 -0.068837 0
2.489140 0.657393 -1.421967 0
2.690688 0.922981 0.058786 0
1.634595 0.342751 -0.512742 0
2.668671 1.223210 -0.942773 0
2.677333 0.153810 0.198489 0
1.849432 0.545299 -1.058415 0
2.685387 1.235446 -0.230475 0
1.926448 0.070477 -0.228257 0
2.670280 0.925203 -1.424207 0
2.679691 0.689980 0.230857 0
1.481944 0.523215 -0.643109 0
2.670048 1.354151 -0.660292 0
2.281236 0.080334 0.116869 0
2.223975 0.586681 -1.420702 0
2.681094 1.123316 0.025733 0
1.748106 0.094239 -0.439784 0
2.652670 1.219934 -1.171474 0
2.703416 0.341868 0.332830 0
1.610031 0.529420 -0.920451 0
2.678337 1.381383 -0.359509 0
1.962427 0.047771 -0.045191 0
2.632665 0.775771 -1.662806 0
2.680822 0.908326 0.244299 0
1.408406 0.454064 -0.532977 0
2.656057 1.410350 -0.865602 0
2.506750 0.062134 0.304001 0
1.883128 0.565085 -1.268455 0
2.682953 1.303957 -0.065012 0
1.713137 0.077878 -0.256339 0
2.667330 1.138162 -1.448882 0
2.699381 0.582223 0.403590 0
1.410663 0.533038 -0.749712 0
2.662736 1.490516 -0.533831 0
2.039217 0.065024 0.142294 0
2.396842 0.640639 -1.712254 0
2.694279 1.119921 0.199952 0
1.580539 0.114682 -0.508020 0
2.652568 1.409030 -1.113060 0
2.654013 0.189753 0.460536 0
1.595298 0.555912 -1.073654 0
2.672329 1.460054 -0.204456 0
1.734587 0.070656 -0.068838 0
2.651231 0.982203 -1.727636 0
2.703389 0.828602 0.414334 0
1.296943 0.503078 -0.601138 0
2.659376 1.555118 -0.752646 0
2.211147 0.074064 0.330490 0
1.184400 1.133789 -0.697204 0
2.686018 1.320396 0.101895 0
1.551063 0.087287 -0.319616 0
2.677868 1.339287 -1.412851 0
2.664465 0.451682 0.541325 0
1.158632 0.802276 -0.655891 0
2.665410 1.581909 -0.387684 0
1.822263 0.062759 0.120955 0
2.555156 0.769411 -1.936775 0
2.700734 1.070612 0.367219 0
1.309745 0.355806 -0.503356 0
2.578287 0.493646 -0.651683 0
2.656767 0.564483 -0.578148 0
2.296781 0.459465 -0.573642 0
2.659222 0.628171 -0.822765 0
2.661449 0.441312 -0.412306 0
2.193501 0.512815 -0.746894 0
2.685050 0.780559 -0.603251 0
2.632022 0.136065 -0.495696 0
2.548543 0.592547 -1.002046 0
2.684897 0.652618 -0.325566 0
1.926012 0.503095 -0.574984 0
2.681302 0.863677 -0.816841 0
2.659853 0.261122 -0.266463 0
2.194326 0.531813 -0.948913 0
2.688874 0.888615 -0.416417 0
2.304384 0.124990 -0.497520 0
2.644916 0.767893 -1.092771 0
2.682925 0.546215 -0.150195 0
1.819896 0.531006 -0.702069 0
2.685864 1.025993 -0.661411 0
2.545992 0.073286 -0.249587 0
2.328873 0.617842 -1.147516 0
2.694581 0.860865 -0.212131 0
1.774490 0.419467 -0.488773 0
2.666104 0.990459 -1.000331 0
2.680343 0.323688 -0.048259 0
1.895137 0.536978 -0.918996 0
2.681438 1.095834 -0.442004 0
2.236763 0.051548 -0.316292 0
2.643168 0.730047 -1.348285 0
2.686662 0.724514 -0.029198 0
1.627677 0.503815 -0.611015 0
2.670014 1.164288 -0.800782 0
2.626053 0.051587 -0.042218 0
2.122258 0.564552 -1.199122 0
2.690366 1.060023 -0.209738 0
2.000731 0.061049 -0.464474 0
2.671002 1.003061 -1.232547 0
2.690900 0.480481 0.098957 0
1.672772 0.515598 -0.828888 0
2.689198 1.248223 -0.552347 0
2.197979 0.072611 -0.119498 0
2.515463 0.644304 -1.508152 0
2.699210 0.920640 0.006621 0
1.565005 0.412354 -0.521804 0
2.657842 1.229159 -0.994223 0
2.680742 0.152494 0.141975 0
1.844302 0.543940 -1.109497 0
2.689321 1.236167 -0.281653 0
1.923484 0.071335 -0.274824 0
2.674447 0.926750 -1.493296 0
2.680802 0.689845 0.177534 0
1.476281 0.522847 -0.683314 0
2.674078 1.357185 -0.714250 0
2.289220 0.074323 0.065503 0
2.210312 0.591708 -1.474335 0
2.672122 1.125825 -0.024516 0
1.731772 0.108332 -0.479536 0
2.662334 1.222845 -1.236859 0
2.694506 0.347903 0.275851 0
1.620519 0.512415 -0.980584 0
2.686425 1.382751 -0.411414 0
1.954923 0.054916 -0.091598 0
2.633857 0.776768 -1.735665 0
2.687777 0.906124 0.192639 0
1.384889 0.475866 -0.559764 0
2.657324 1.415000 -0.920460 0
2.477541 0.085802 0.246346 0
1.244806 1.032001 -0.721741 0
2.689391 1.303872 -0.115142 0
1.701831 0.088295 -0.297642 0
2.676735 1.141027 -1.520881 0
2.692802 0.585815 0.347928 0
1.399575 0.537417 -0.786128 0
2.666425 1.493784 -0.585425 0
2.046467 0.058880 0.094375 0
2.416043 0.629351 -1.803182 0
2.694313 1.119858 0.149098 0
1.518594 0.189623 -0.520449 0
2.660953 1.414130 -1.175407 0
2.659648 0.187775 0.404479 0
1.162165 0.951366 -0.689424 0
2.682230 1.460981 -0.254755 0
1.742731 0.059720 -0.113785 0
2.662425 0.982878 -1.809242 0
2.684067 0.835451 0.358416 0
1.294689 0.497635 -0.641511 0
2.675505 1.559543 -0.811047 0
2.208140 0.078718 0.279194 0
1.162146 1.145711 -0.714507 0
2.684860 1.320752 0.052485 0
1.566705 0.060775 -0.368344 0
2.684325 1.345211 -1.480827 0
2.697191 0.435375 0.491648 0
1.179281 0.770907 -0.718507 0
2.673293 1.584726 -0.438408 0
1.837815 0.046070 0.076132 0
1.242991 1.306415 -0.738135 0
2.681046 1.075098 0.313372 0
1.275763 0.397041 -0.521323 0
2.536901 0.488415 -0.674971 0
2.653807 0.539203 -0.614619 0
2.224418 0.479387 -0.582394 0
2.660017 0.600031 -0.863198 0
2.657665 0.416534 -0.447292 0
2.103555 0.544180 -0.740318 0
2.683348 0.756357 -0.640463 0
2.539780 0.168964 -0.507738 0
2.491386 0.592426 -1.014448 0
2.686573 0.627615 -0.361265 0
1.902591 0.495587 -0.596130 0
2.680357 0.838705 -0.856341 0
2.674419 0.224319 -0.303274 0
2.174830 0.515503 -0.976613 0
2.694882 0.863670 -0.453898 0
2.272805 0.119955 -0.521330 0
2.646929 0.739247 -1.137285 0
2.672339 0.527504 -0.183224 0
1.818311 0.505691 -0.734099 0
2.697252 0.999706 -0.703304 0
2.513443 0.068317 -0.277556 0
2.306653 0.600817 -1.176128 0
2.703937 0.835578 -0.248244 0
1.783127 0.385138 -0.521585 0
2.675582 0.962647 -1.046744 0
2.677928 0.299925 -0.081382 0
1.884110 0.516818 -0.948923 0
2.695682 1.070735 -0.481592 0
2.170241 0.080788 -0.332428 0
2.636915 0.702756 -1.391915 0
2.688955 0.701799 -0.063090 0
1.597273 0.506413 -0.623992 0
2.681122 1.139294 -0.844380 0
2.565843 0.067900 -0.071025 0
2.103686 0.546132 -1.228766 0
2.691946 1.038873 -0.244912 0
1.970696 0.059473 -0.484851 0
2.678226 0.974901 -1.281903 0
2.680214 0.463355 0.065960 0
1.662753 0.495899 -0.856810 0
2.691692 1.226659 -0.590130 0
2.162975 0.076603 -0.143895 0
2.485019 0.627314 -1.535418 0
2.697613 0.900707 -0.027388 0
1.529227 0.423708 -0.531617 0
2.674832 1.203145 -1.043640 0
2.668348 0.135579 0.109634 0
1.823519 0.529749 -1.133726 0
2.690081 1.215871 -0.317184 0
1.908397 0.057640 -0.298690 0
2.674072 0.898558 -1.542767 0
2.675089 0.671681 0.144304 0
1.445702 0.527724 -0.692821 0
2.689722 1.334137 -0.758005 0
2.268348 0.066674 0.037796 0
2.173516 0.581597 -1.491933 0
2.671994 1.106401 -0.058657 0
1.708339 0.103293 -0.498751 0
2.678591 1.195896 -1.290987 0
2.690544 0.327817 0.243359 0
1.571633 0.528431 -0.976089 0
2.689206 1.362468 -0.448121 0
1.929123 0.054585 -0.114291 0
2.597029 0.759991 -1.760094 0
2.682795 0.888340 0.158899 0
1.356909 0.481793 -0.570070 0
2.667550 1.392789 -0.965035 0
2.484746 0.056279 0.217812 0
1.196994 1.050068 -0.705795 0
2.697864 1.283247 -0.150710 0
1.673922 0.091892 -0.315370 0
2.680565 1.114279 -1.573047 0
2.683264 0.570156 0.314197 0
1.378458 0.531547 -0.801910 0
2.678537 1.473073 -0.626022 0
2.005511 0.074468 0.069038 0
1.235077 1.214673 -0.728161 0
2.686781 1.102762 0.114823 0
1.440521 0.261315 -0.506674 0
2.681385 1.389996 -1.230045 0
2.648364 0.172835 0.371796 0
1.156160 0.936565 -0.714030 0
2.695241 1.440644 -0.292060 0
1.721075 0.057694 -0.134345 0
2.632095 0.963013 -1.839006 0
2.677980 0.818876 0.324486 0
1.261618 0.511262 -0.645238 0
2.686930 1.538920 -0.854415 0
2.202126 0.061345 0.252717 0
1.144786 1.141609 -0.726149 0
2.687893 1.301657 0.018006 0
1.542698 0.060462 -0.385274 0
2.683510 1.321749 -1.528233 0
2.695219 0.416374 0.459113 0
1.179489 0.744820 -0.751552 0
2.686579 1.565079 -0.477613 0
1.799126 0.064851 0.053438 0
1.209402 1.307599 -0.734168 0
2.680376 1.057086 0.279526 0
1.239926 0.418432 -0.524388 0
2.414700 0.532301 -0.666810 0
2.640423 0.522341 -0.646096 0
2.175838 0.488478 -0.596646 0
2.652532 0.579233 -0.898274 0
2.647808 0.398166 -0.479301 0
2.107924 0.518323 -0.775533 0
2.686574 0.733234 -0.677241 0
2.418929 0.227723 -0.508521 0
2.471079 0.578185 -1.042813 0
2.689304 0.604786 -0.395499 0
1.887689 0.484847 -0.619341 0
2.677526 0.817717 -0.892880 0
2.666919 0.204161 -0.335500 0
2.101818 0.538301 -0.969810 0
2.684036 0.847239 -0.485543 0
2.189802 0.162045 -0.526860 0
2.655641 0.711470 -1.183352 0
2.678230 0.503162 -0.216409 0
1.764739 0.526478 -0.734760 0
2.692313 0.980953 -0.737584 0
2.453387 0.088103 -0.299309 0
2.291064 0.584340 -1.206520 0
2.700336 0.817242 -0.280763 0
1.732270 0.409117 -0.527837 0
2.670594 0.942603 -1.083788 0
2.685888 0.272399 -0.113976 0
1.870453 0.502348 -0.975180 0
2.700101 1.050603 -0.516806 0
2.153020 0.070225 -0.357805 0
2.625396 0.681983 -1.429496 0
2.698226 0.678299 -0.095723 0
1.581919 0.498134 -0.643854 0
2.691340 1.117423 -0.885424 0
2.537530 0.064448 -0.099958 0
2.083673 0.532971 -1.254773 0
2.698351 1.018728 -0.278608 0
1.907968 0.096102 -0.492045 0
2.692495 0.948215 -1.333220 0
2.682069 0.441901 0.034519 0
1.617368 0.513033 -0.856494 0
2.690325 1.208555 -0.624342 0
2.142532 0.070866 -0.168833 0
2.440210 0.622661 -1.547901 0
2.706059 0.879537 -0.059817 0
1.480215 0.454182 -0.532252 0
2.668590 1.184891 -1.079283 0
2.661340 0.117522 0.078552 0
1.804151 0.518684 -1.156696 0
2.701376 1.195909 -0.352138 0
1.857838 0.085685 -0.312981 0
2.679483 0.872568 -1.593784 0
2.665323 0.657291 0.112735 0
1.421478 0.529805 -0.704805 0
2.688254 1.316236 -0.793163 0
2.249904 0.059733 0.010963 0
2.135902 0.577268 -1.505084 0
2.669410 1.089643 -0.090394 0
1.674881 0.114590 -0.512321 0
2.679812 1.175416 -1.333678 0
2.682259 0.312273 0.211824 0
1.565749 0.507370 -1.007377 0
2.689875 1.344969 -0.481782 0
1.908015 0.052578 -0.136723 0
2.682976 0.870685 0.127430 0
1.333452 0.486163 -0.581557 0
2.665764 1.375017 -1.001498 0
2.453564 0.058550 0.187070 0
1.150127 1.071433 -0.686918 0
2.695081 1.266526 -0.182830 0
1.660291 0.081528 -0.336465 0
2.667485 1.095643 -1.610027 0
2.689035 0.548966 0.283814 0
1.316847 0.577839 -0.778358 0
2.674983 1.456210 -0.659244 0
1.990917 0.066941 0.044776 0
1.203448 1.219517 -0.724528 0
2.682153 1.086901 0.083031 0
1.366163 0.335289 -0.491661 0
2.684695 1.371077 -1.272400 0
2.659435 0.144951 0.343249 0
1.154477 0.919983 -0.741621 0
2.695724 1.423654 -0.324912 0
1.699843 0.058509 -0.154357 0
2.672514 0.803743 0.292645 0
1.246365 0.505209 -0.661706 0
2.676217 1.522319 -0.886024 0
2.140860 0.095659 0.221036 0
1.132459 1.136589 -0.740870 0
2.688466 1.284851 -0.013938 0
1.528037 0.050983 -0.405043 0
2.687266 1.301544 -1.575848 0
2.693061 0.399040 0.427924 0
1.205140 0.690281 -0.811222 0
2.683959 1.548452 -0.510361 0
1.783835 0.059948 0.031352 0
1.182062 1.308877 -0.733274 0
2.677008 1.041400 0.247686 0
1.210146 0.435741 -0.529643 0
2.392305 0.524692 -0.683039 0
2.624539 0.509389 -0.666326 0
2.119165 0.506546 -0.598331 0
2.642933 0.562352 -0.921420 0
2.652726 0.373759 -0.504819 0
2.081264 0.516214 -0.786684 0
2.693282 0.710795 -0.704796 0
2.355641 0.250408 -0.514145 0
2.394000 0.597508 -1.029226 0
2.684805 0.587105 -0.418386 0
1.833133 0.508969 -0.616242 0
2.678574 0.797702 -0.920070 0
