ply
format ascii 1.0
element vertex 1627
property float x
property float y
property float z
property uchar label
end_header
0.204324 0.994599 1.164437 1
0.029622 1.006527 1.166522 1
0.153192 0.870466 1.173452 1
0.097194 0.965130 1.152187 1
0.090363 0.971535 1.152711 1
0.098193 0.951714 1.151880 1
0.107203 0.977848 1.153468 1
0.078698 0.962149 1.151445 1
0.114902 0.952791 1.155668 1
0.091535 0.987388 1.153234 1
0.085466 0.943238 1.149920 1
0.122173 0.973877 1.153324 1
0.071362 0.976135 1.153087 1
0.109599 0.936606 1.155984 1
0.106802 0.994475 1.155230 1
0.068935 0.949477 1.148987 1
0.130415 0.956671 1.155983 1
0.077454 0.993911 1.154612 1
0.092009 0.928246 1.151844 1
0.126031 0.988820 1.154588 1
0.058673 0.967330 1.151283 1
0.125678 0.934338 1.159582 1
0.095787 1.005601 1.156503 1
0.069910 0.933492 1.147546 1
0.140100 0.969718 1.156801 1
0.061440 0.990421 1.155383 1
0.106703 0.918513 1.156958 1
0.120333 1.004403 1.155814 1
0.052624 0.952096 1.147183 1
0.141366 0.942234 1.161122 1
0.078902 1.009690 1.159167 1
0.079643 0.917908 1.149335 1
0.141983 0.987938 1.154736 1
0.047804 0.978793 1.152990 1
0.125587 0.918051 1.157794 1
0.106727 1.016650 1.159109 1
0.054230 0.933100 1.146515 1
0.152296 0.958850 1.158178 1
0.059965 1.005719 1.158884 1
0.096737 0.906647 1.152906 1
0.135637 1.006650 1.155067 1
0.039800 0.960870 1.149288 1
0.145014 0.925305 1.163940 1
0.087254 1.022809 1.160862 1
0.064416 0.914584 1.146401 1
0.156200 0.979942 1.157445 1
0.042656 0.993348 1.157681 1
0.118715 0.902790 1.157716 1
0.121348 1.022462 1.157547 1
0.039368 0.938887 1.147644 1
0.160132 0.942672 1.163602 1
0.064827 1.020684 1.163164 1
0.082238 0.898554 1.152362 1
0.151506 1.002417 1.157723 1
0.030951 0.974221 1.152385 1
0.142031 0.908465 1.162556 1
0.100435 1.032385 1.161313 1
0.047954 0.916546 1.146445 1
0.167488 0.966786 1.159266 1
0.042963 1.009474 1.164418 1
0.106421 0.888303 1.163526 1
0.137987 1.022786 1.158053 1
0.026845 0.950094 1.148870 1
0.162501 0.924046 1.166520 1
0.075359 1.034058 1.163813 1
0.065210 0.896843 1.148273 1
0.166283 0.992697 1.159670 1
0.026633 0.990593 1.156708 1
0.133444 0.891663 1.163702 1
0.116940 1.037622 1.161242 1
0.032219 0.924413 1.145754 1
0.175134 0.949258 1.162496 1
0.049162 1.025934 1.168693 1
0.089789 0.882095 1.156273 1
0.155773 1.017424 1.164145 1
0.017269 0.965010 1.153445 1
0.158897 0.905004 1.166279 1
0.090209 1.044339 1.166848 1
0.047023 0.899937 1.146588 1
0.178623 0.978123 1.161133 1
0.027039 1.008474 1.163975 1
0.119969 0.873132 1.176156 1
0.135756 1.037896 1.166049 1
0.018240 0.936806 1.147393 1
0.177824 0.929103 1.164276 1
0.061156 1.041014 1.166517 1
0.069981 0.876744 1.161021 1
0.172535 1.006877 1.166619 1
0.011968 0.983104 1.158799 1
0.149937 0.885517 1.168912 1
0.108500 1.050544 1.164504 1
0.029535 0.908815 1.144107 1
0.186739 0.960098 1.158992 1
0.032638 1.026750 1.173193 1
0.101140 0.860748 1.180744 1
0.155947 1.032790 1.173927 1
0.006951 0.952905 1.152302 1
0.174613 0.908373 1.162850 1
0.077125 1.053102 1.169298 1
0.049348 0.880222 1.156710 1
0.186514 0.991713 1.165242 1
0.010936 1.002809 1.168706 1
0.135624 0.866897 1.174349 1
0.082438 0.963404 1.150465 1
0.075569 0.969708 1.151289 1
0.083478 0.949931 1.150551 1
0.092364 0.976202 1.151485 1
0.063972 0.960296 1.149760 1
0.100083 0.951435 1.152739 1
0.076685 0.985589 1.151587 1
0.070819 0.941386 1.148499 1
0.107312 0.972286 1.151649 1
0.056597 0.974304 1.150888 1
0.094857 0.935291 1.152997 1
0.091878 0.992837 1.152753 1
0.054308 0.947609 1.147082 1
0.115517 0.955276 1.153729 1
0.062516 0.991956 1.153574 1
0.077411 0.926633 1.149665 1
0.111099 0.987154 1.153423 1
0.044004 0.965487 1.148755 1
0.110797 0.933132 1.156649 1
0.080840 1.003875 1.153924 1
0.055263 0.931356 1.146795 1
0.125138 0.968214 1.155302 1
0.046702 0.988640 1.152077 1
0.092045 0.918188 1.150498 1
0.105334 1.002686 1.154623 1
0.037726 0.949667 1.147459 1
0.126300 0.941199 1.157753 1
0.063864 1.007783 1.157631 1
0.065036 0.915777 1.148724 1
0.127036 0.986307 1.154032 1
0.033020 0.976817 1.150773 1
0.110801 0.916889 1.154993 1
0.091649 1.014877 1.157412 1
0.039460 0.930670 1.146457 1
0.137278 0.957489 1.156476 1
0.045027 1.003799 1.156391 1
0.082184 0.905078 1.150822 1
0.120653 1.004934 1.154778 1
0.024748 0.958397 1.149546 1
0.129792 0.924871 1.158671 1
0.072158 1.020945 1.158972 1
0.049787 0.912217 1.146142 1
0.141096 0.978534 1.155764 1
0.027657 0.991267 1.155982 1
0.104022 0.901626 1.154924 1
0.106262 1.020697 1.156852 1
0.024536 0.936478 1.147106 1
0.144947 0.941587 1.161045 1
0.049656 1.018693 1.161746 1
0.067587 0.896049 1.152843 1
0.136195 1.001052 1.154416 1
0.015762 0.971786 1.152471 1
0.127047 0.907686 1.159001 1
0.085279 1.030558 1.159360 1
0.033378 0.914357 1.145083 1
0.152328 0.965498 1.157543 1
0.027742 1.007366 1.163069 1
0.091773 0.889007 1.154855 1
0.122782 1.021158 1.155994 1
0.011694 0.947428 1.149325 1
0.147057 0.923667 1.161589 1
0.060061 1.032084 1.163514 1
0.050567 0.894267 1.148466 1
0.150803 0.991507 1.156073 1
0.011233 0.988179 1.157071 1
0.118621 0.890565 1.161192 1
0.101708 1.035861 1.158401 1
0.017633 0.922220 1.143975 1
0.160024 0.947949 1.161426 1
0.033783 1.023848 1.167711 1
0.075226 0.880106 1.155261 1
0.140031 1.016096 1.158463 1
0.001825 0.962302 1.154285 1
0.143507 0.904974 1.160696 1
0.074970 1.042438 1.163968 1
0.032480 0.897668 1.145343 1
0.163288 0.976876 1.159247 1
0.010912 1.005908 1.167444 1
0.105050 0.872034 1.173332 1
0.120163 1.036241 1.160144 1
0.003490 0.934480 1.145779 1
0.162979 0.927462 1.164841 1
0.045741 1.038997 1.166140 1
0.055304 0.874511 1.160097 1
0.156543 1.005754 1.160903 1
-0.004000 0.980287 1.161169 1
0.134574 0.886082 1.161887 1
0.093187 1.048734 1.166152 1
0.015020 0.906579 1.142316 1
0.171896 0.958495 1.159878 1
0.017008 1.024563 1.172816 1
0.086344 0.861228 1.173284 1
0.139828 1.031294 1.166561 1
-0.008251 0.950300 1.151814 1
0.159838 0.906774 1.163108 1
0.061945 1.051097 1.165072 1
0.034968 0.878642 1.153411 1
0.170657 0.990669 1.161250 1
-0.004525 1.000504 1.167521 1
0.120825 0.864953 1.174327 1
0.069311 0.960800 1.150196 1
0.062473 0.967306 1.149664 1
0.070377 0.947246 1.150516 1
0.079218 0.973708 1.151004 1
0.050893 0.957790 1.148396 1
0.086999 0.949323 1.150316 1
0.063462 0.982988 1.151507 1
0.057705 0.938539 1.148741 1
0.094185 0.969904 1.150869 1
0.043504 0.971844 1.149050 1
0.081836 0.933338 1.149913 1
0.078674 0.990385 1.152086 1
0.041056 0.944580 1.147883 1
0.102374 0.953107 1.151963 1
0.049287 0.989430 1.152428 1
0.064438 0.924210 1.148140 1
0.097880 0.984947 1.151396 1
0.030635 0.962540 1.149383 1
0.097604 0.931930 1.150796 1
0.067525 1.001286 1.154398 1
0.042115 0.928370 1.147033 1
0.111778 0.966495 1.150948 1
0.033173 0.985746 1.153380 1
0.079063 0.915589 1.149926 1
0.092071 1.000439 1.152328 1
0.024382 0.946619 1.147957 1
0.112960 0.939715 1.153190 1
0.050525 1.005246 1.156680 1
0.052181 0.913581 1.146079 1
0.113701 0.984292 1.151049 1
0.019423 0.973784 1.152033 1
0.097743 0.914890 1.152633 1
0.078358 1.012541 1.155018 1
0.026422 0.927957 1.145198 1
0.123860 0.955807 1.152651 1
0.031209 1.000857 1.159177 1
0.069284 0.902915 1.148474 1
0.107327 1.002726 1.152631 1
0.011175 0.955236 1.150523 1
0.116535 0.923169 1.155494 1
0.058843 1.018494 1.157072 1
0.036802 0.909460 1.145109 1
0.127611 0.976704 1.152143 1
0.013976 0.988352 1.156822 1
0.091037 0.898842 1.155042 1
0.092909 1.018425 1.153882 1
0.011531 0.933847 1.145173 1
0.131253 0.940491 1.155107 1
0.036195 1.016104 1.160817 1
0.054928 0.894810 1.147292 1
0.122788 0.998951 1.151929 1
0.001624 0.968318 1.155668 1
0.113873 0.905909 1.156261 1
0.071959 1.028167 1.156362 1
0.020516 0.911841 1.142864 1
0.138987 0.963442 1.156031 1
0.014068 1.004600 1.163029 1
0.078783 0.886024 1.155142 1
0.109407 1.018873 1.154352 1
-0.001577 0.944547 1.148255 1
0.133617 0.922141 1.158113 1
0.046782 1.029604 1.160201 1
0.037673 0.891694 1.146705 1
0.137320 0.989490 1.153681 1
-0.003183 0.984802 1.160897 1
0.105599 0.887880 1.161152 1
0.088316 1.033501 1.155225 1
0.004706 0.919571 1.141901 1
0.146096 0.946872 1.155452 1
0.020383 1.021260 1.165310 1
0.062161 0.876837 1.155864 1
0.126371 1.014024 1.154371 1
-0.011960 0.959108 1.154873 1
0.130265 0.903177 1.158404 1
0.061752 1.039968 1.158137 1
0.019596 0.895019 1.143456 1
0.149574 0.975128 1.155739 1
-0.002897 1.003073 1.167223 1
0.091793 0.873609 1.160827 1
0.106697 1.033894 1.158557 1
-0.009629 0.931653 1.144128 1
0.149309 0.926072 1.161060 1
0.032388 1.036433 1.163298 1
0.043203 0.875247 1.149130 1
0.142618 1.003886 1.155975 1
-0.018075 0.977107 1.162236 1
0.121571 0.883493 1.161871 1
0.079734 1.046240 1.160747 1
0.001645 0.903099 1.142818 1
0.158267 0.956767 1.157170 1
0.003495 1.021897 1.170509 1
0.073469 0.862022 1.163063 1
0.125877 1.029116 1.160751 1
-0.021295 0.947648 1.149105 1
0.146443 0.905129 1.160622 1
0.048736 1.048515 1.160072 1
0.023214 0.878949 1.143189 1
0.156921 0.988753 1.158562 1
-0.018600 0.997515 1.168024 1
0.107773 0.861303 1.176595 1
0.056823 0.958091 1.148842 1
0.049942 0.964511 1.148678 1
0.057994 0.944831 1.147717 1
0.066668 0.970937 1.150399 1
0.038378 0.954933 1.147364 1
0.074549 0.946736 1.148748 1
0.050816 0.980105 1.151368 1
0.045381 0.936063 1.146016 1
0.081668 0.967093 1.150895 1
0.030779 0.968764 1.149382 1
0.069447 0.930833 1.147866 1
0.066054 0.987597 1.151854 1
0.028640 0.941814 1.146062 1
0.089888 0.950514 1.150794 1
0.036574 0.986525 1.152133 1
0.052102 0.921609 1.146117 1
0.085318 0.982297 1.150631 1
0.017867 0.959375 1.149571 1
0.085188 0.929400 1.149201 1
0.054871 0.998560 1.153253 1
0.030004 0.926169 1.142954 1
0.099271 0.963908 1.150064 1
0.020447 0.982816 1.152627 1
0.066724 0.913086 1.147832 1
0.079450 0.997710 1.152274 1
0.011755 0.943522 1.147286 1
0.100451 0.937378 1.151067 1
0.037811 1.002453 1.155527 1
0.039933 0.911043 1.143593 1
0.101120 0.981788 1.149671 1
0.006516 0.970606 1.152296 1
0.085352 0.912317 1.151145 1
0.065689 1.009882 1.153527 1
0.014143 0.925265 1.142728 1
0.111294 0.953448 1.150807 1
0.018504 0.998027 1.157465 1
0.056941 0.900016 1.147479 1
0.094677 1.000201 1.150993 1
-0.001717 0.951935 1.150684 1
0.104053 0.920774 1.153719 1
0.046068 1.015713 1.156412 1
0.024503 0.906662 1.143193 1
0.114963 0.974360 1.150093 1
0.000960 0.985224 1.157012 1
0.078684 0.897244 1.150228 1
0.080224 1.015762 1.153349 1
-0.000878 0.930940 1.143250 1
0.118657 0.938245 1.152972 1
0.023388 1.013264 1.159559 1
0.042524 0.891571 1.146991 1
0.110094 0.996534 1.149872 1
-0.011245 0.965177 1.154941 1
0.101472 0.903259 1.155300 1
0.059224 1.025466 1.155098 1
0.008443 0.909389 1.139462 1
0.126029 0.961628 1.151296 1
0.001418 1.001767 1.160456 1
0.066359 0.882471 1.156050 1
0.096692 1.016317 1.152862 1
-0.014071 0.941592 1.146261 1
0.120993 0.920046 1.155525 1
0.033892 1.026786 1.159740 1
0.025087 0.888025 1.147301 1
0.124531 0.987203 1.151163 1
-0.016261 0.981631 1.160603 1
0.093027 0.887304 1.153627 1
0.075559 1.030817 1.155474 1
-0.007629 0.916650 1.139830 1
0.133416 0.944683 1.153338 1
0.007809 1.018464 1.161865 1
0.049548 0.872577 1.158230 1
0.113557 1.011600 1.151842 1
-0.024487 0.956189 1.152401 1
0.117792 0.900793 1.156862 1
0.048942 1.037228 1.157151 1
0.007676 0.892831 1.139293 1
0.136822 0.972833 1.153933 1
-0.015501 1.000211 1.164093 1
0.079408 0.870223 1.161261 1
0.093846 1.031333 1.155241 1
-0.021961 0.928774 1.141613 1
0.136152 0.924911 1.154994 1
0.019549 1.033598 1.161636 1
0.030580 0.871203 1.150509 1
0.129663 1.001608 1.152818 1
-0.030677 0.974180 1.159500 1
0.109210 0.880570 1.161690 1
0.066953 1.043533 1.157782 1
-0.010447 0.900477 1.139611 1
0.145451 0.954638 1.154879 1
-0.008712 1.019128 1.164873 1
0.060621 0.855032 1.172307 1
0.112856 1.026648 1.156866 1
-0.034221 0.944305 1.148466 1
0.133843 0.902972 1.158619 1
0.035708 1.045752 1.160650 1
0.010239 0.874283 1.145991 1
0.143798 0.986674 1.154798 1
-0.031123 0.994637 1.164495 1
0.095425 0.856137 1.181786 1
0.045630 0.955020 1.147082 1
0.038683 0.961299 1.147575 1
0.046823 0.941692 1.146299 1
0.055397 0.967798 1.149310 1
0.027143 0.951679 1.146126 1
0.063396 0.943871 1.146410 1
0.039520 0.976957 1.149922 1
0.034296 0.933018 1.143894 1
0.070414 0.964062 1.149513 1
0.019524 0.965562 1.147727 1
0.058370 0.928091 1.144998 1
0.054687 0.984362 1.151640 1
0.017513 0.938650 1.144097 1
0.078665 0.947746 1.148268 1
0.025159 0.983231 1.151412 1
0.041113 0.918827 1.143131 1
0.074021 0.979061 1.150929 1
0.006494 0.955966 1.148646 1
0.074052 0.926729 1.146369 1
0.043433 0.995311 1.153002 1
0.018850 0.922812 1.141754 1
0.088071 0.960636 1.150548 1
0.008844 0.979324 1.152823 1
0.055714 0.910473 1.144560 1
0.068075 0.994481 1.152743 1
0.000698 0.940426 1.144601 1
0.089206 0.934836 1.147900 1
0.026267 0.999134 1.155377 1
0.028679 0.907257 1.143888 1
0.089926 0.978404 1.151570 1
-0.005080 0.967057 1.152086 1
0.074238 0.909827 1.147762 1
0.054202 1.006619 1.154357 1
0.003054 0.922009 1.140799 1
0.100112 0.950308 1.150674 1
0.007160 0.994819 1.155242 1
0.045743 0.896159 1.148075 1
0.083368 0.996986 1.152058 1
-0.012675 0.948928 1.147135 1
0.092779 0.918477 1.149844 1
0.034494 1.012444 1.156533 1
0.013527 0.903565 1.140818 1
0.103750 0.971248 1.150228 1
-0.010626 0.981782 1.156143 1
0.067582 0.893597 1.150507 1
0.068791 1.012584 1.154009 1
-0.011950 0.927705 1.140939 1
0.107312 0.935714 1.150103 1
0.011885 1.010000 1.158135 1
0.031007 0.886691 1.150211 1
0.098838 0.993413 1.150453 1
-0.022689 0.961742 1.153371 1
0.090259 0.900861 1.151937 1
0.047645 1.022242 1.156045 1
-0.003077 0.905250 1.140314 1
0.114889 0.958445 1.151893 1
-0.010140 0.998407 1.159078 1
0.055308 0.879731 1.153177 1
0.085314 1.013202 1.153418 1
-0.025091 0.938425 1.143329 1
0.109619 0.917716 1.152101 1
0.022083 1.023464 1.160927 1
0.014109 0.884918 1.144849 1
0.113187 0.984292 1.150189 1
-0.027608 0.978311 1.158089 1
0.082028 0.882144 1.158474 1
0.064069 1.027695 1.155286 1
-0.019281 0.912523 1.140516 1
0.122275 0.941548 1.153545 1
-0.003920 1.015094 1.161353 1
0.038618 0.870181 1.154092 1
0.102217 1.008560 1.151982 1
-0.035364 0.953141 1.148411 1
0.106486 0.898467 1.153579 1
0.037273 1.034024 1.157906 1
-0.004741 0.886775 1.145406 1
0.125343 0.970134 1.151838 1
-0.026888 0.996888 1.161445 1
0.068291 0.867437 1.158696 1
0.082370 1.028289 1.154134 1
-0.034189 0.924236 1.143967 1
0.125009 0.921829 1.154783 1
0.007576 1.030262 1.163013 1
0.018118 0.863509 1.160292 1
0.118205 0.998743 1.151392 1
-0.041527 0.971106 1.154955 1
0.097999 0.877871 1.159421 1
0.055398 1.040401 1.157352 1
-0.023051 0.894783 1.144721 1
0.133969 0.952031 1.152730 1
-0.020306 1.015762 1.163101 1
0.049649 0.853609 1.165773 1
0.101312 1.023677 1.155157 1
-0.045421 0.940934 1.145955 1
0.122421 0.900708 1.155392 1
0.023902 1.042535 1.161471 1
-0.001006 0.870426 1.145251 1
0.132256 0.983934 1.152904 1
-0.041801 0.991566 1.158894 1
0.084015 0.854596 1.175958 1
0.033196 0.951396 1.146988 1
0.026196 0.957640 1.147765 1
0.034490 0.938324 1.144814 1
0.043026 0.964326 1.148594 1
0.014502 0.947808 1.147085 1
0.051028 0.940275 1.146121 1
0.027035 0.973366 1.150073 1
0.021919 0.929526 1.142819 1
0.058065 0.960628 1.148615 1
0.006497 0.961359 1.151141 1
0.045955 0.924291 1.145279 1
0.042233 0.980749 1.152207 1
0.004991 0.934989 1.143689 1
0.066316 0.944256 1.147603 1
0.012265 0.979310 1.154222 1
0.028630 0.914975 1.143293 1
0.061651 0.975449 1.151418 1
-0.006342 0.952086 1.149621 1
0.061670 0.922799 1.147247 1
0.030804 0.991595 1.154982 1
0.006408 0.919223 1.140830 1
0.075715 0.957148 1.150014 1
-0.004347 0.975278 1.156146 1
0.043128 0.905877 1.147238 1
0.055673 0.990899 1.153433 1
-0.012093 0.936529 1.145134 1
0.076865 0.931189 1.147876 1
0.013496 0.995464 1.157083 1
0.016276 0.903766 1.142494 1
0.077591 0.974822 1.151878 1
-0.018562 0.962780 1.155840 1
0.061803 0.905558 1.149438 1
0.041650 1.002972 1.156466 1
-0.009807 0.917839 1.141908 1
0.087732 0.946892 1.149769 1
-0.006302 0.990785 1.160128 1
0.033368 0.892918 1.145903 1
0.071035 0.993375 1.153183 1
-0.025761 0.944897 1.148470 1
0.080428 0.914449 1.151023 1
0.021519 1.008682 1.161016 1
0.000566 0.898928 1.143005 1
0.091482 0.967559 1.151191 1
-0.024168 0.977712 1.159705 1
0.055151 0.890305 1.148658 1
0.056366 1.008991 1.155910 1
-0.025201 0.923248 1.143241 1
0.095010 0.931918 1.150844 1
-0.001534 1.006164 1.163222 1
0.018638 0.883576 1.147468 1
0.086588 0.989775 1.151774 1
-0.035356 0.958240 1.152155 1
0.077879 0.896176 1.154846 1
0.034867 1.018598 1.160567 1
-0.016115 0.900774 1.141881 1
0.102506 0.954986 1.151317 1
-0.023704 0.994523 1.162799 1
0.042382 0.873689 1.158954 1
0.072995 1.009616 1.155197 1
-0.038936 0.933659 1.147385 1
0.097315 0.913669 1.153453 1
0.009014 1.019872 1.164488 1
0.001478 0.881015 1.144292 1
0.100893 0.980778 1.150241 1
-0.040894 0.974503 1.159306 1
0.069466 0.878768 1.156865 1
0.051533 1.024122 1.159358 1
-0.033578 0.906683 1.146915 1
0.109747 0.938327 1.151814 1
-0.017337 1.011425 1.164820 1
0.025044 0.862590 1.163406 1
0.089922 1.005069 1.152143 1
-0.048924 0.948952 1.150564 1
0.094239 0.893647 1.156987 1
0.024269 1.030509 1.163295 1
-0.017688 0.882469 1.145866 1
0.112972 0.966667 1.151436 1
-0.040638 0.993018 1.164725 1
0.055298 0.858781 1.171031 1
0.070044 1.024749 1.157092 1
-0.048750 0.918700 1.150025 1
0.112465 0.918560 1.153326 1
-0.005783 1.026732 1.167164 1
0.005606 0.860394 1.157254 1
0.105861 0.995304 1.150850 1
-0.054867 0.967286 1.155854 1
0.085648 0.871995 1.165074 1
0.042843 1.036975 1.159862 1
-0.035839 0.890923 1.143837 1
0.121625 0.948440 1.152910 1
-0.034102 1.012067 1.167159 1
0.036649 0.848383 1.168291 1
0.088962 1.020225 1.154690 1
-0.059840 0.936020 1.150666 1
0.109973 0.897039 1.155235 1
0.010682 1.039142 1.166683 1
-0.014408 0.865046 1.148224 1
0.119669 0.980710 1.150642 1
-0.055882 0.987588 1.162614 1
0.071176 0.851756 1.172659 1
0.023426 0.947281 1.143680 1
0.016371 0.953377 1.145094 1
0.024734 0.934256 1.141479 1
0.033206 0.960158 1.145473 1
0.004781 0.943684 1.143670 1
0.041218 0.936230 1.142777 1
0.017127 0.968974 1.148095 1
0.012168 0.925379 1.139789 1
0.048207 0.956517 1.145361 1
-0.003240 0.957164 1.147746 1
0.036110 0.920032 1.142847 1
0.032414 0.976575 1.148668 1
-0.004724 0.930836 1.140485 1
0.056438 0.940164 1.144538 1
0.002496 0.975061 1.150862 1
0.018818 0.910716 1.140723 1
0.051732 0.971152 1.149082 1
-0.015707 0.948288 1.144223 1
0.051808 0.918693 1.144320 1
0.021066 0.987428 1.150744 1
-0.003308 0.915075 1.137724 1
0.065788 0.952855 1.147905 1
-0.013742 0.971316 1.150593 1
0.033255 0.901532 1.144970 1
0.045755 0.986591 1.150847 1
-0.021476 0.932741 1.140153 1
0.066954 0.927227 1.144449 1
0.003820 0.991244 1.152843 1
0.006357 0.899208 1.140769 1
0.067649 0.970348 1.150891 1
-0.027277 0.959404 1.147206 1
0.051900 0.901164 1.147455 1
0.031767 0.998647 1.153408 1
-0.019548 0.913614 1.138904 1
0.077790 0.942642 1.147574 1
-0.015611 0.986752 1.153982 1
0.023454 0.888362 1.144150 1
0.061076 0.988979 1.151573 1
-0.034690 0.941437 1.141521 1
0.070497 0.910241 1.148557 1
0.011839 1.004418 1.156228 1
-0.009642 0.893830 1.142782 1
0.081583 0.962985 1.150903 1
-0.032535 0.974311 1.149580 1
0.045231 0.885665 1.147281 1
0.046407 1.004596 1.153802 1
-0.035490 0.918332 1.142698 1
0.085017 0.927859 1.147890 1
-0.010827 1.002019 1.156627 1
0.008457 0.878291 1.147567 1
0.076655 0.985295 1.151139 1
-0.043842 0.954920 1.143544 1
0.067939 0.891550 1.153579 1
0.024942 1.014176 1.157847 1
-0.026121 0.896127 1.140122 1
0.092601 0.950484 1.150532 1
-0.032252 0.990749 1.153428 1
0.032353 0.868918 1.157475 1
0.063013 1.005264 1.152735 1
-0.048975 0.929097 1.145387 1
0.087321 0.909527 1.150843 1
-0.000617 1.015505 1.159665 1
-0.008836 0.875586 1.144626 1
0.090982 0.976322 1.149509 1
-0.048291 0.971564 1.146207 1
0.059502 0.874081 1.155483 1
0.041600 1.019721 1.156200 1
-0.043047 0.902792 1.142420 1
0.099797 0.933959 1.150298 1
-0.026088 1.007350 1.156022 1
0.014651 0.856649 1.164663 1
0.079986 1.000603 1.151660 1
-0.057698 0.945391 1.143636 1
0.084271 0.889220 1.155176 1
0.014252 1.026010 1.161485 1
-0.027226 0.878640 1.141470 1
0.103086 0.962154 1.150960 1
-0.047802 0.989748 1.150418 1
0.045236 0.854316 1.168513 1
0.060057 1.020375 1.153839 1
-0.057906 0.915028 1.144395 1
0.102446 0.914388 1.150969 1
-0.015077 1.022352 1.160657 1
-0.004400 0.855784 1.154907 1
0.095950 0.990849 1.150335 1
-0.062876 0.963964 1.146179 1
0.075646 0.867154 1.164061 1
0.032797 1.032489 1.158874 1
-0.044958 0.887545 1.137936 1
0.111665 0.944049 1.151632 1
-0.041856 1.008186 1.154738 1
0.026710 0.844403 1.164394 1
0.078931 1.015859 1.152246 1
-0.068957 0.932219 1.145117 1
0.100355 0.891276 1.157918 1
0.000851 1.034623 1.163241 1
-0.024036 0.861136 1.144069 1
0.109685 0.976370 1.149212 1
-0.062889 0.984360 1.149111 1
0.061099 0.847681 1.169228 1
0.016826 0.942688 1.141668 1
0.009766 0.948768 1.143003 1
0.018112 0.929528 1.140082 1
0.026574 0.955605 1.143354 1
-0.001743 0.939131 1.141173 1
0.034637 0.931720 1.140662 1
0.010442 0.964286 1.146382 1
0.005461 0.920397 1.139175 1
0.041569 0.952035 1.143121 1
-0.009809 0.952530 1.145355 1
0.029553 0.915439 1.140927 1
0.025706 0.971927 1.146994 1
-0.011437 0.925910 1.139482 1
0.049870 0.936213 1.140073 1
-0.004277 0.970242 1.149640 1
0.012155 0.905694 1.140077 1
0.045066 0.966779 1.145950 1
-0.022232 0.943649 1.141790 1
0.045270 0.914400 1.141446 1
0.014222 0.982596 1.150246 1
-0.010362 0.909413 1.139210 1
0.059115 0.948693 1.144204 1
-0.020143 0.966790 1.147092 1
0.026717 0.896849 1.143161 1
0.039005 0.981952 1.149302 1
-0.028636 0.927261 1.141253 1
0.060347 0.923486 1.139536 1
-0.003403 0.986093 1.154797 1
-0.000556 0.893533 1.141876 1
0.060916 0.965978 1.147981 1
-0.033421 0.955059 1.142791 1
0.045392 0.896898 1.144443 1
0.024928 0.993874 1.152685 1
-0.026859 0.907696 1.141020 1
0.071080 0.938588 1.143742 1
-0.022267 0.981991 1.151783 1
0.016843 0.883264 1.143386 1
0.054311 0.984428 1.149586 1
-0.041628 0.936310 1.141105 1
0.063878 0.906860 1.142612 1
0.004711 0.999416 1.157586 1
-0.016130 0.889116 1.140558 1
0.074835 0.958590 1.148505 1
-0.039043 0.969610 1.146881 1
0.038770 0.881362 1.144323 1
0.039555 0.999838 1.153487 1
-0.043182 0.912137 1.145752 1
0.078272 0.924076 1.143261 1
-0.017807 0.997087 1.156211 1
0.001560 0.872374 1.148743 1
0.069896 0.980673 1.150170 1
-0.050759 0.949874 1.142800 1
0.061347 0.889328 1.144255 1
0.017894 1.009272 1.158912 1
-0.033077 0.890627 1.140224 1
0.085830 0.946239 1.147634 1
-0.038865 0.985959 1.151068 1
0.025788 0.863870 1.156176 1
0.056192 1.000554 1.152503 1
-0.055475 0.924335 1.142941 1
0.080541 0.906154 1.145025 1
-0.007719 1.010565 1.160088 1
-0.015630 0.870096 1.144399 1
0.084275 0.971696 1.148882 1
-0.054938 0.966734 1.144223 1
0.053017 0.870251 1.151174 1
0.034620 1.014893 1.157415 1
-0.049888 0.897559 1.141552 1
0.092992 0.929946 1.146647 1
-0.032911 1.002472 1.154557 1
0.009182 0.855630 1.152527 1
0.073178 0.996020 1.150472 1
-0.065203 0.939835 1.144915 1
0.077564 0.885877 1.149532 1
0.006993 1.021075 1.163687 1
-0.033917 0.873455 1.140298 1
0.096346 0.957684 1.149396 1
-0.054144 0.985049 1.147049 1
0.038800 0.850333 1.164268 1
0.053183 1.015647 1.154310 1
-0.064628 0.909987 1.142812 1
0.095593 0.910739 1.146219 1
-0.022305 1.017381 1.161389 1
-0.010783 0.851186 1.151990 1
0.089174 0.986302 1.149288 1
-0.070080 0.958749 1.146168 1
0.069066 0.863229 1.160028 1
0.025779 1.027695 1.159483 1
-0.051361 0.882837 1.135355 1
0.104916 0.939701 1.149548 1
-0.049352 1.003066 1.156177 1
0.020406 0.840499 1.159898 1
0.072094 1.011245 1.151481 1
-0.076293 0.926715 1.145502 1
0.093123 0.889530 1.147327 1
-0.006748 1.029678 1.167066 1
-0.030228 0.856833 1.140428 1
0.102954 0.971855 1.148204 1
-0.069682 0.979418 1.147546 1
0.054617 0.844234 1.163824 1
0.010315 0.937449 1.140750 1
0.003092 0.943276 1.143293 1
0.011607 0.924205 1.139385 1
0.019954 0.950167 1.143811 1
-0.008455 0.933562 1.141453 1
0.028224 0.926680 1.139014 1
0.003743 0.958865 1.146634 1
-0.001084 0.914963 1.138623 1
0.035144 0.947177 1.140694 1
-0.016384 0.947249 1.144281 1
0.023106 0.910128 1.140080 1
0.019118 0.966699 1.146447 1
-0.018475 0.919771 1.141608 1
0.043441 0.931106 1.138972 1
-0.010886 0.964981 1.148625 1
0.005609 0.900095 1.139885 1
0.038592 0.961876 1.143644 1
-0.029102 0.937993 1.142303 1
0.038905 0.909512 1.139227 1
0.007520 0.977271 1.150291 1
-0.017523 0.902822 1.142287 1
0.052658 0.944013 1.141109 1
-0.026973 0.961310 1.147238 1
0.020322 0.891607 1.141757 1
0.032463 0.976891 1.147783 1
-0.036217 0.920608 1.145252 1
0.053957 0.918772 1.136907 1
-0.009930 0.980931 1.152910 1
-0.007243 0.887590 1.142344 1
0.054400 0.961207 1.145030 1
-0.040280 0.949520 1.142871 1
0.039055 0.892085 1.141844 1
0.018242 0.988610 1.152653 1
-0.034013 0.901341 1.142993 1
0.064582 0.934161 1.139773 1
-0.029129 0.976553 1.151886 1
0.010336 0.877536 1.143145 1
0.047756 0.979398 1.148125 1
-0.049699 0.929444 1.146448 1
0.057497 0.902223 1.139690 1
-0.002042 0.994105 1.157339 1
-0.023098 0.882717 1.142146 1
0.068281 0.953872 1.145546 1
-0.045702 0.964284 1.145799 1
0.032056 0.873493 1.150428 1
0.032917 0.994659 1.153015 1
-0.050096 0.906274 1.145866 1
0.071747 0.919865 1.138761 1
-0.024495 0.991795 1.155207 1
-0.004916 0.866809 1.147611 1
0.063322 0.975770 1.147984 1
-0.058198 0.943858 1.144886 1
0.055006 0.883596 1.144606 1
0.011130 1.003990 1.158964 1
-0.039611 0.885134 1.138936 1
0.079252 0.941641 1.144404 1
-0.045466 0.980686 1.149599 1
0.019282 0.857915 1.156081 1
0.049580 0.995410 1.152175 1
-0.063299 0.917690 1.146369 1
0.074034 0.902015 1.140519 1
-0.014590 1.005212 1.160256 1
-0.022300 0.864124 1.144231 1
0.077768 0.966631 1.148187 1
-0.062444 0.960854 1.146383 1
0.046534 0.861907 1.158089 1
0.027957 1.009728 1.156485 1
-0.056121 0.892503 1.138762 1
0.086366 0.925624 1.142555 1
-0.039638 0.997159 1.153631 1
0.001910 0.847016 1.158878 1
0.066629 0.990860 1.150802 1
-0.073133 0.933389 1.148239 1
0.071114 0.881644 1.145383 1
0.000278 1.015811 1.162686 1
-0.039702 0.869192 1.135430 1
0.089775 0.952859 1.147345 1
-0.061397 0.979453 1.148184 1
0.032456 0.845292 1.161636 1
0.046509 1.010447 1.155244 1
-0.071145 0.904600 1.141019 1
0.088971 0.906615 1.141728 1
-0.029129 1.012043 1.160900 1
-0.016640 0.847176 1.146585 1
0.082675 0.981192 1.149283 1
-0.077719 0.952751 1.148244 1
0.062743 0.857193 1.160509 1
0.018923 1.022444 1.160704 1
-0.057332 0.878124 1.131644 1
0.098246 0.935192 1.146176 1
-0.055432 0.997940 1.152293 1
0.014095 0.835355 1.157364 1
0.065509 1.006112 1.152027 1
-0.083557 0.920731 1.146092 1
0.086928 0.883798 1.147966 1
-0.013304 1.024397 1.164664 1
-0.035813 0.853046 1.134518 1
0.096609 0.966602 1.149154 1
-0.077402 0.973575 1.149917 1
0.048279 0.839386 1.160849 1
0.003490 0.930474 1.141636 1
-0.003645 0.936578 1.142863 1
0.004798 0.917096 1.140435 1
0.013292 0.943627 1.142989 1
-0.015342 0.926585 1.141908 1
0.021544 0.919730 1.139756 1
-0.002937 0.952347 1.145416 1
-0.008211 0.907210 1.141559 1
0.028458 0.940382 1.141464 1
-0.023050 0.940690 1.142895 1
0.016389 0.902916 1.141175 1
0.012400 0.960150 1.145831 1
-0.025776 0.912075 1.144258 1
0.036874 0.924540 1.138474 1
-0.017299 0.958753 1.145306 1
-0.001551 0.891821 1.143909 1
0.031951 0.955464 1.142635 1
-0.036171 0.930915 1.143012 1
0.032308 0.902403 1.140169 1
0.000826 0.970795 1.148861 1
-0.024626 0.895234 1.143828 1
0.046091 0.937897 1.138791 1
-0.032847 0.955512 1.141230 1
0.013441 0.883529 1.144890 1
0.025779 0.970483 1.146557 1
-0.043517 0.913114 1.146818 1
0.047447 0.911837 1.137773 1
-0.016233 0.974757 1.148520 1
-0.014509 0.879228 1.145813 1
0.047773 0.955087 1.142505 1
-0.046364 0.943487 1.138530 1
0.032449 0.884569 1.143492 1
0.011705 0.982393 1.149008 1
-0.040483 0.894878 1.140538 1
0.058021 0.928104 1.137422 1
-0.034545 0.970931 1.143266 1
0.003128 0.868431 1.148448 1
0.041092 0.973201 1.145606 1
-0.056649 0.922488 1.145921 1
0.051030 0.894715 1.141962 1
-0.008373 0.987881 1.152490 1
-0.029705 0.875935 1.140610 1
0.061611 0.947930 1.142312 1
-0.051884 0.958075 1.141902 1
0.024872 0.862225 1.161738 1
0.026280 0.988421 1.149687 1
-0.056005 0.900481 1.140843 1
0.065290 0.913222 1.138741 1
-0.030237 0.985801 1.147896 1
-0.011875 0.858875 1.148995 1
0.056624 0.969576 1.145824 1
-0.064790 0.937293 1.142799 1
0.048525 0.875402 1.148103 1
0.004775 0.997786 1.153172 1
-0.046125 0.878536 1.136785 1
0.072571 0.935772 1.141190 1
-0.050843 0.974867 1.141916 1
0.012034 0.847613 1.163443 1
0.042870 0.989234 1.148721 1
-0.068876 0.912088 1.140287 1
0.067694 0.894675 1.142418 1
-0.020588 0.998987 1.153561 1
-0.028956 0.857112 1.142984 1
0.071050 0.960507 1.145889 1
-0.069087 0.954261 1.144453 1
0.039831 0.851672 1.165837 1
0.021288 1.003369 1.153325 1
-0.061681 0.887164 1.132631 1
0.079818 0.919403 1.141046 1
-0.045326 0.991022 1.146945 1
-0.004294 0.841369 1.153964 1
0.059863 0.984669 1.148234 1
-0.078725 0.927579 1.142414 1
0.064817 0.873557 1.148664 1
-0.005922 1.009474 1.156109 1
-0.046270 0.862422 1.133631 1
0.083086 0.946739 1.145343 1
-0.067408 0.973195 1.143757 1
0.026085 0.839627 1.157024 1
0.039776 1.004186 1.151397 1
-0.076351 0.899402 1.133925 1
0.082580 0.899953 1.141629 1
-0.034922 1.005721 1.153865 1
-0.023282 0.840032 1.145388 1
0.075939 0.974956 1.147742 1
-0.084105 0.946271 1.145289 1
0.056373 0.847093 1.167778 1
0.012429 1.016052 1.155282 1
-0.062997 0.872699 1.126158 1
0.091595 0.929110 1.144161 1
-0.061441 0.991585 1.147639 1
0.008451 0.832630 1.145902 1
0.058711 0.999840 1.149783 1
-0.088830 0.915187 1.139450 1
0.080603 0.876702 1.148542 1
-0.019280 1.017936 1.157408 1
-0.042361 0.846205 1.132725 1
0.089933 0.960333 1.148085 1
-0.082895 0.967510 1.143868 1
0.042006 0.837510 1.147450 1
-0.005130 0.923384 1.141516 1
-0.012312 0.929495 1.142682 1
-0.004077 0.909214 1.143034 1
0.004607 0.936471 1.143726 1
-0.024525 0.918630 1.144851 1
0.013035 0.912642 1.139777 1
-0.011645 0.945333 1.145221 1
-0.017269 0.899043 1.144439 1
0.019929 0.933463 1.141367 1
-0.031947 0.933389 1.143430 1
0.007811 0.895448 1.141946 1
0.003639 0.953051 1.146738 1
-0.034510 0.904774 1.143828 1
0.028415 0.917443 1.139008 1
-0.025775 0.952055 1.143129 1
-0.010211 0.884279 1.144202 1
0.023356 0.948496 1.143252 1
-0.045491 0.923079 1.145227 1
0.023872 0.895189 1.140388 1
-0.007852 0.963944 1.148041 1
-0.032799 0.888793 1.140278 1
0.037649 0.931022 1.138917 1
-0.041743 0.948362 1.141390 1
0.004735 0.875416 1.146896 1
0.017126 0.963632 1.146546 1
-0.051968 0.906241 1.144418 1
0.039081 0.904756 1.138124 1
-0.024671 0.968117 1.145777 1
-0.023029 0.872022 1.144534 1
0.039273 0.948469 1.141555 1
-0.056294 0.935304 1.143072 1
0.023978 0.876871 1.144654 1
0.002918 0.975462 1.149432 1
-0.048512 0.888545 1.136476 1
0.049664 0.921076 1.138238 1
-0.043193 0.964069 1.141940 1
-0.006327 0.857918 1.156238 1
0.032501 0.966498 1.145117 1
-0.064813 0.915912 1.142213 1
0.042689 0.887689 1.141672 1
-0.016858 0.981226 1.149613 1
-0.037564 0.869985 1.135623 1
0.053106 0.941747 1.139367 1
-0.061618 0.950327 1.145077 1
0.016080 0.853254 1.165206 1
0.017663 0.981790 1.147989 1
-0.063864 0.894264 1.136107 1
0.056956 0.906567 1.137878 1
-0.038664 0.979106 1.145121 1
-0.020496 0.851231 1.148470 1
0.048056 0.963078 1.144280 1
-0.073940 0.929844 1.143004 1
0.040140 0.867391 1.150052 1
-0.003964 0.990980 1.152225 1
-0.053723 0.872811 1.131006 1
0.064083 0.929582 1.138649 1
-0.060083 0.967635 1.142977 1
0.003771 0.841420 1.159122 1
0.034230 0.982610 1.147602 1
-0.076790 0.905705 1.135863 1
0.059387 0.887851 1.141762 1
-0.029186 0.992198 1.151371 1
-0.036974 0.850835 1.138817 1
0.062437 0.954286 1.143016 1
-0.078349 0.946866 1.144898 1
0.031397 0.844996 1.163137 1
0.012677 0.996748 1.150684 1
-0.069105 0.881460 1.126594 1
0.071456 0.912811 1.140233 1
-0.053704 0.984294 1.143999 1
-0.012114 0.836199 1.147201 1
0.051227 0.978152 1.146742 1
-0.087675 0.920252 1.141520 1
0.056572 0.865537 1.150839 1
-0.014669 1.002645 1.154735 1
-0.053968 0.856529 1.128485 1
0.074489 0.940532 1.142846 1
-0.076517 0.966026 1.143699 1
0.018023 0.834763 1.149922 1
0.031092 0.997568 1.149767 1
-0.083994 0.893270 1.128809 1
0.074458 0.892425 1.143695 1
-0.043379 0.998933 1.150871 1
-0.030945 0.834688 1.139019 1
0.067325 0.968455 1.146626 1
-0.092246 0.939579 1.141520 1
0.047912 0.841024 1.163722 1
0.003507 1.009192 1.155928 1
-0.070166 0.867365 1.119456 1
0.083054 0.922922 1.141885 1
-0.069909 0.984759 1.145037 1
0.000551 0.827315 1.139979 1
0.050030 0.993217 1.149230 1
-0.097799 0.907780 1.138451 1
0.072538 0.868450 1.151767 1
-0.028197 1.011019 1.156887 1
-0.049848 0.840763 1.126630 1
0.081279 0.954015 1.146115 1
-0.091259 0.960689 1.140920 1
0.033910 0.833200 1.139647 1
-0.013971 0.916765 1.144064 1
-0.021417 0.922600 1.146536 1
-0.012683 0.902958 1.143688 1
-0.004020 0.930358 1.144660 1
-0.033549 0.911912 1.147167 1
0.004431 0.906124 1.141870 1
-0.020296 0.939338 1.145456 1
-0.025563 0.893441 1.142393 1
0.011406 0.927406 1.142327 1
-0.041831 0.925820 1.150169 1
-0.001061 0.887958 1.146540 1
-0.005101 0.946908 1.148258 1
-0.042808 0.899120 1.141725 1
0.019975 0.911295 1.140133 1
-0.034744 0.945763 1.144965 1
-0.018748 0.878024 1.144178 1
0.014811 0.942537 1.144163 1
-0.054489 0.916607 1.146336 1
0.015252 0.887870 1.144692 1
-0.016463 0.958109 1.147713 1
-0.040686 0.883794 1.136161 1
0.029280 0.925422 1.138217 1
-0.050921 0.941908 1.143651 1
-0.004370 0.866948 1.153288 1
0.008383 0.957455 1.149073 1
-0.059873 0.901039 1.140400 1
0.030710 0.898342 1.140054 1
-0.032959 0.962576 1.143231 1
-0.030913 0.867216 1.139999 1
0.030858 0.942985 1.140340 1
-0.065333 0.928933 1.144030 1
0.014822 0.865994 1.158455 1
-0.005825 0.969515 1.150401 1
-0.056274 0.883564 1.132169 1
0.041327 0.915779 1.136461 1
-0.052227 0.957887 1.143356 1
-0.014222 0.853647 1.150306 1
0.023930 0.960591 1.146414 1
-0.073140 0.910158 1.140084 1
0.034311 0.880466 1.145614 1
-0.025250 0.975618 1.147356 1
-0.045924 0.864007 1.134331 1
0.044710 0.936346 1.138083 1
-0.071233 0.943641 1.148160 1
0.007719 0.847915 1.162226 1
0.008903 0.975785 1.150238 1
-0.071511 0.889284 1.131520 1
0.048710 0.900047 1.140547 1
-0.046545 0.973752 1.140545 1
-0.028169 0.847086 1.142329 1
0.039575 0.957553 1.143398 1
-0.083154 0.923334 1.144056 1
0.031450 0.855541 1.165914 1
-0.012612 0.985206 1.151699 1
-0.061158 0.868282 1.125620 1
0.055705 0.924220 1.137400 1
-0.069623 0.961195 1.145876 1
-0.004038 0.837987 1.151416 1
0.025664 0.976941 1.147407 1
-0.085876 0.899117 1.136545 1
0.051177 0.880957 1.144955 1
-0.037109 0.986780 1.146269 1
-0.044491 0.846570 1.133015 1
0.053964 0.948881 1.141783 1
-0.087334 0.940659 1.144939 1
0.023000 0.839397 1.161072 1
0.003873 0.990851 1.152454 1
-0.077052 0.876040 1.123560 1
0.063107 0.907373 1.139287 1
-0.062230 0.978510 1.142677 1
-0.019712 0.832552 1.140242 1
0.042686 0.972706 1.145172 1
-0.097314 0.913353 1.143581 1
0.048484 0.853706 1.166712 1
-0.023040 0.997003 1.151782 1
-0.061222 0.852344 1.122463 1
0.065974 0.935378 1.140633 1
-0.085177 0.960102 1.142648 1
0.010241 0.832146 1.140940 1
0.022475 0.991891 1.149590 1
-0.094807 0.884759 1.135175 1
0.066144 0.886817 1.143120 1
-0.051241 0.993411 1.145964 1
-0.038323 0.830944 1.132274 1
0.058749 0.963123 1.144743 1
-0.100953 0.933535 1.140431 1
0.039541 0.839345 1.152181 1
-0.005106 1.003473 1.154559 1
-0.078443 0.861420 1.117870 1
0.074650 0.917526 1.140981 1
-0.078526 0.978900 1.143870 1
-0.007314 0.822904 1.135203 1
0.041436 0.987768 1.147116 1
-0.107983 0.900332 1.141841 1
0.065231 0.855218 1.172161 1
-0.036298 1.005370 1.152375 1
-0.057135 0.836634 1.120758 1
0.072680 0.948791 1.144097 1
-0.099355 0.955039 1.137914 1
0.025766 0.827901 1.137318 1
-0.024981 0.910008 1.144869 1
-0.032766 0.915420 1.149103 1
-0.023460 0.896599 1.142750 1
-0.014973 0.923715 1.145520 1
-0.044483 0.905418 1.146471 1
-0.006684 0.898637 1.145325 1
-0.031519 0.932477 1.147404 1
-0.035798 0.888118 1.137787 1
0.000489 0.920567 1.144245 1
-0.052125 0.920189 1.145796 1
-0.011794 0.881712 1.145121 1
-0.015749 0.940917 1.146031 1
-0.053386 0.893091 1.139239 1
0.009262 0.904862 1.140161 1
-0.045369 0.939701 1.142828 1
-0.028646 0.873699 1.136793 1
0.003941 0.935945 1.145464 1
-0.064171 0.911617 1.139519 1
0.004265 0.880339 1.147613 1
-0.026864 0.952357 1.143820 1
-0.050636 0.878768 1.130734 1
0.018470 0.918211 1.142004 1
-0.062363 0.935057 1.145282 1
-0.014296 0.863483 1.143628 1
-0.002530 0.951009 1.149747 1
-0.069592 0.896040 1.134187 1
0.019914 0.890887 1.143458 1
-0.043845 0.956271 1.142817 1
-0.040664 0.862933 1.132735 1
0.020118 0.936442 1.141796 1
-0.076182 0.922623 1.142515 1
0.003518 0.857345 1.163546 1
-0.016354 0.963647 1.146976 1
-0.066110 0.878498 1.126779 1
0.030668 0.908395 1.140657 1
-0.064386 0.950625 1.148349 1
-0.023633 0.851324 1.138131 1
0.013061 0.954054 1.148133 1
-0.083808 0.903988 1.137805 1
0.023148 0.868638 1.161469 1
-0.035312 0.970002 1.141620 1
-0.055133 0.860357 1.125443 1
0.034072 0.929810 1.139575 1
-0.081209 0.938029 1.143019 1
-0.002539 0.844540 1.152806 1
-0.002075 0.969330 1.151595 1
-0.082119 0.883110 1.129304 1
0.038091 0.892455 1.144736 1
-0.057849 0.967225 1.142069 1
-0.037736 0.843583 1.133491 1
0.028852 0.951267 1.143851 1
-0.094050 0.916987 1.142363 1
0.019904 0.842288 1.183122 1
-0.023013 0.979339 1.147388 1
-0.070497 0.863944 1.118553 1
0.045141 0.917557 1.139248 1
-0.080395 0.954989 1.144097 1
-0.013811 0.835472 1.140462 1
0.014768 0.970446 1.149613 1
-0.097819 0.891631 1.138507 1
0.040623 0.870077 1.158238 1
-0.047067 0.981050 1.140592 1
-0.053889 0.842785 1.124969 1
0.043266 0.942999 1.140147 1
-0.097110 0.935122 1.139416 1
0.012483 0.835866 1.152535 1
-0.007080 0.984530 1.152968 1
-0.088568 0.868637 1.124730 1
0.052663 0.899874 1.143731 1
-0.073911 0.971868 1.145078 1
-0.029289 0.829503 1.130900 1
0.031944 0.966508 1.145289 1
-0.109002 0.906337 1.144105 1
0.037583 0.841841 1.180243 1
-0.033068 0.991208 1.145399 1
-0.070325 0.848509 1.114534 1
0.055285 0.929449 1.139483 1
-0.095080 0.954378 1.137780 1
-0.000282 0.826483 1.137906 1
0.011610 0.985612 1.150270 1
-0.108105 0.875782 1.140971 1
0.055749 0.878661 1.148698 1
-0.062001 0.987233 1.144565 1
-0.047378 0.828308 1.122084 1
0.047971 0.957320 1.142379 1
-0.110709 0.927988 1.135127 1
0.028858 0.834858 1.146477 1
-0.015756 0.997371 1.151830 1
-0.089369 0.854654 1.117038 1
0.064080 0.911099 1.141861 1
-0.083328 0.975300 1.120353 1
-0.017541 0.818005 1.130383 1
0.030682 0.981741 1.145618 1
-0.118799 0.894023 1.139410 1
0.055136 0.839763 1.195929 1
-0.046271 0.999440 1.146369 1
-0.066091 0.833316 1.112071 1
0.061827 0.943160 1.141262 1
-0.100327 0.954083 1.105686 1
0.015220 0.821942 1.135204 1
-0.036172 0.901619 1.143154 1
-0.044019 0.906972 1.147342 1
-0.034074 0.889343 1.137189 1
-0.026494 0.914742 1.146559 1
-0.055102 0.897851 1.141335 1
-0.017728 0.890658 1.142357 1
-0.043527 0.923014 1.150623 1
-0.046033 0.881352 1.130845 1
-0.010925 0.911627 1.145368 1
-0.062455 0.912809 1.139569 1
-0.022158 0.875575 1.136436 1
-0.027421 0.931830 1.148252 1
-0.063374 0.886358 1.131717 1
-0.002317 0.894825 1.145026 1
-0.057185 0.930647 1.144471 1
-0.038949 0.867068 1.129897 1
-0.007357 0.927392 1.145292 1
-0.074540 0.904103 1.134137 1
-0.006693 0.872937 1.142935 1
-0.038029 0.944028 1.142271 1
-0.060673 0.872062 1.123883 1
0.007219 0.909491 1.142582 1
-0.073588 0.926616 1.143412 1
-0.024616 0.857544 1.134962 1
-0.013639 0.942917 1.146868 1
-0.079320 0.889325 1.126523 1
0.008679 0.882102 1.143591 1
-0.055978 0.947057 1.146339 1
-0.050622 0.856765 1.124772 1
0.008778 0.927443 1.144239 1
-0.087027 0.914511 1.139035 1
-0.006798 0.853641 1.148308 1
-0.027150 0.955784 1.142322 1
-0.075770 0.872067 1.119078 1
0.019437 0.899182 1.143065 1
-0.075520 0.942258 1.145997 1
-0.034169 0.844421 1.132255 1
0.001687 0.945408 1.148881 1
-0.095783 0.894722 1.138416 1
0.011923 0.861519 1.155779 1
-0.046505 0.961636 1.140466 1
-0.065156 0.853683 1.118907 1
0.022893 0.921153 1.140577 1
-0.092977 0.929162 1.143036 1
-0.012932 0.839635 1.141802 1
-0.013157 0.961236 1.148194 1
-0.094204 0.873492 1.130549 1
0.026923 0.884671 1.141881 1
-0.070063 0.958169 1.145218 1
-0.047483 0.838216 1.123983 1
0.017612 0.942844 1.143839 1
-0.105894 0.907983 1.142092 1
0.009257 0.841918 1.159217 1
-0.033563 0.971510 1.141341 1
-0.081115 0.856077 1.115067 1
0.034025 0.908447 1.141925 1
-0.090758 0.947094 1.139003 1
-0.024099 0.829873 1.131749 1
0.003377 0.961861 1.150346 1
-0.111130 0.881013 1.142762 1
0.029245 0.859967 1.161638 1
-0.058822 0.972356 1.142301 1
-0.063501 0.837059 1.116426 1
0.032096 0.934592 1.140401 1
-0.107042 0.927572 1.133140 1
0.001846 0.831344 1.141159 1
-0.018026 0.976457 1.148379 1
-0.099975 0.859763 1.123469 1
0.041514 0.891112 1.144526 1
-0.085265 0.963366 1.143888 1
-0.039312 0.823840 1.122584 1
0.020630 0.957817 1.147337 1
-0.118522 0.899263 1.136224 1
0.026061 0.837080 1.168219 1
-0.043869 0.983048 1.141706 1
-0.080490 0.841341 1.109415 1
0.044126 0.921254 1.138814 1
-0.106695 0.945730 1.137263 1
-0.011108 0.819160 1.133447 1
0.000112 0.976935 1.152286 1
-0.118602 0.867999 1.135898 1
0.044784 0.867101 1.157330 1
-0.074608 0.978211 1.149234 1
-0.056959 0.822956 1.113185 1
0.036757 0.948989 1.142369 1
-0.118327 0.922000 1.122377 1
0.017802 0.827942 1.141250 1
-0.026629 0.989188 1.147340 1
-0.100861 0.845545 1.116225 1
0.052891 0.902924 1.140993 1
-0.094049 0.967233 1.118030 1
-0.027904 0.811757 1.123639 1
0.019335 0.973085 1.148127 1
-0.128854 0.886514 1.133313 1
0.042763 0.839251 1.172240 1
-0.057617 0.990977 1.145741 1
-0.075471 0.827651 1.103861 1
0.050570 0.935188 1.139563 1
-0.109634 0.946855 1.099464 1
0.004237 0.813718 1.132981 1
-0.040829 0.892081 1.136842 1
-0.048186 0.898015 1.138168 1
-0.038608 0.880048 1.130793 1
-0.031629 0.904640 1.142235 1
-0.058948 0.889060 1.132011 1
-0.022629 0.881035 1.137251 1
-0.048945 0.912205 1.148120 1
-0.050295 0.872184 1.124180 1
-0.016360 0.901108 1.143385 1
-0.066845 0.903029 1.133063 1
-0.026844 0.866143 1.131093 1
-0.033247 0.920691 1.148202 1
-0.067181 0.877431 1.123584 1
-0.007761 0.883900 1.144621 1
-0.062288 0.920112 1.140540 1
-0.043272 0.857888 1.123759 1
-0.013091 0.916484 1.145253 1
-0.078625 0.894462 1.127272 1
-0.011788 0.862552 1.140512 1
-0.044603 0.932086 1.146559 1
-0.064708 0.862861 1.117382 1
0.001529 0.898031 1.144990 1
-0.077255 0.917249 1.133837 1
-0.029081 0.848360 1.129106 1
-0.019436 0.932121 1.146118 1
-0.084530 0.878207 1.124824 1
0.002939 0.868655 1.151087 1
-0.061235 0.936406 1.142587 1
-0.054544 0.847997 1.117616 1
0.003121 0.916900 1.143404 1
-0.092044 0.903624 1.135772 1
-0.011494 0.844400 1.142513 1
-0.032929 0.945041 1.141005 1
-0.080786 0.861079 1.117189 1
0.013964 0.888160 1.143998 1
-0.080646 0.931437 1.142231 1
-0.037940 0.836634 1.123029 1
-0.004047 0.935010 1.146685 1
-0.102227 0.882098 1.140535 1
0.006835 0.851419 1.152478 1
-0.053189 0.949941 1.144243 1
-0.068921 0.844763 1.112038 1
0.017247 0.910208 1.142178 1
-0.098726 0.917607 1.142099 1
-0.017079 0.831929 1.132581 1
-0.018915 0.950725 1.145658 1
-0.099432 0.862019 1.128959 1
0.021579 0.872832 1.145268 1
-0.075893 0.946923 1.144095 1
-0.051290 0.829667 1.116672 1
0.011766 0.932111 1.144647 1
-0.112600 0.895297 1.144475 1
0.004643 0.834306 1.149405 1
-0.039553 0.960606 1.140849 1
-0.085549 0.845741 1.111348 1
0.028534 0.897505 1.143481 1
-0.097197 0.935246 1.140388 1
-0.028176 0.821445 1.124518 1
-0.002640 0.951111 1.150228 1
-0.116228 0.869524 1.140231 1
0.023865 0.841862 1.180728 1
-0.064909 0.961147 1.142155 1
-0.067026 0.828568 1.108921 1
0.026372 0.923681 1.142785 1
-0.115133 0.914242 1.139746 1
-0.002707 0.822312 1.135543 1
-0.023668 0.966060 1.144037 1
-0.104936 0.848469 1.121284 1
0.036211 0.879813 1.146869 1
-0.090034 0.952628 1.138593 1
-0.043205 0.815186 1.115891 1
0.014632 0.947090 1.148386 1
-0.125038 0.886639 1.137799 1
0.021185 0.830752 1.155351 1
-0.049696 0.972200 1.139805 1
-0.084607 0.831401 1.104940 1
0.038670 0.909647 1.144167 1
-0.110749 0.935270 1.130677 1
-0.015395 0.810239 1.127601 1
-0.006003 0.966198 1.151718 1
-0.123105 0.857026 1.131871 1
0.040226 0.846790 1.184266 1
-0.079266 0.967523 1.142535 1
-0.060502 0.814540 1.105961 1
0.030907 0.938449 1.143465 1
-0.126272 0.908798 1.128002 1
0.013128 0.818759 1.136404 1
-0.032477 0.978479 1.144541 1
-0.104577 0.835842 1.110396 1
0.047646 0.891457 1.145007 1
-0.099811 0.956147 1.117150 1
-0.031962 0.802757 1.117923 1
0.013104 0.962016 1.152154 1
-0.134558 0.874431 1.132516 1
0.037430 0.833458 1.158163 1
-0.063010 0.980126 1.141472 1
-0.079340 0.818120 1.098808 1
0.044998 0.924181 1.143385 1
-0.117101 0.934728 1.104022 1
-0.000281 0.803765 1.129653 1
-0.043542 0.886352 1.134469 1
-0.050812 0.892327 1.135331 1
-0.041385 0.874140 1.129329 1
-0.034628 0.898580 1.140973 1
-0.061211 0.883743 1.128049 1
-0.025465 0.875264 1.135537 1
-0.051905 0.906019 1.146609 1
-0.053030 0.866141 1.123063 1
-0.019463 0.894978 1.142763 1
-0.069913 0.896511 1.132865 1
-0.029766 0.859842 1.131022 1
-0.036466 0.914333 1.147824 1
-0.069558 0.871788 1.120924 1
-0.010721 0.878105 1.143097 1
-0.064760 0.914385 1.136828 1
-0.045944 0.851924 1.122590 1
-0.016341 0.910224 1.145159 1
-0.080899 0.888786 1.124082 1
-0.014643 0.856631 1.139462 1
-0.048135 0.925299 1.147944 1
-0.067113 0.857167 1.115218 1
-0.001675 0.891698 1.145521 1
-0.080267 0.910776 1.133151 1
-0.031809 0.842309 1.128307 1
-0.022906 0.925535 1.147373 1
-0.087094 0.872066 1.123232 1
-0.000057 0.862576 1.150553 1
-0.064326 0.930024 1.141520 1
-0.056895 0.842478 1.115287 1
-0.000183 0.910629 1.143896 1
-0.095234 0.896787 1.136020 1
-0.014138 0.839001 1.140108 1
-0.036438 0.938472 1.142030 1
-0.083024 0.855403 1.114684 1
0.010786 0.881581 1.145611 1
-0.083402 0.925154 1.140112 1
-0.040311 0.831297 1.120507 1
-0.007310 0.929090 1.145078 1
-0.103810 0.876796 1.135429 1
0.004067 0.846458 1.148947 1
-0.056259 0.943671 1.142520 1
-0.071113 0.839294 1.109483 1
0.013999 0.904211 1.141967 1
-0.102051 0.910656 1.142530 1
-0.019576 0.826665 1.130065 1
-0.022300 0.944469 1.145163 1
-0.101044 0.856851 1.124390 1
0.018483 0.865734 1.148372 1
-0.078984 0.940410 1.142993 1
-0.053346 0.824760 1.113158 1
0.008420 0.926197 1.143680 1
-0.116399 0.887687 1.146643 1
0.002068 0.829981 1.144586 1
-0.043107 0.954052 1.141619 1
-0.088079 0.839490 1.110360 1
0.025336 0.891867 1.142232 1
-0.100822 0.928175 1.141667 1
-0.030609 0.815909 1.122634 1
-0.005970 0.945203 1.147990 1
-0.119125 0.862615 1.139846 1
0.020916 0.836653 1.177554 1
-0.068380 0.954484 1.142445 1
-0.068818 0.823850 1.104937 1
0.023016 0.917597 1.143202 1
-0.119069 0.906715 1.142105 1
-0.005342 0.816501 1.134470 1
-0.027011 0.959868 1.142644 1
-0.107688 0.841735 1.120928 1
0.033156 0.872728 1.150418 1
-0.092829 0.946203 1.136534 1
-0.045351 0.810110 1.113001 1
0.011210 0.941311 1.146294 1
-0.129202 0.878617 1.140966 1
0.018481 0.827713 1.147618 1
-0.053190 0.965671 1.139913 1
-0.086705 0.825788 1.102664 1
0.035358 0.903944 1.143320 1
-0.113735 0.928594 1.129897 1
-0.017778 0.805025 1.125211 1
-0.009462 0.960063 1.150290 1
-0.125461 0.850624 1.130116 1
0.036864 0.845642 1.169905 1
-0.082132 0.961096 1.140183 1
-0.062486 0.809470 1.103001 1
0.027450 0.932591 1.142848 1
-0.128971 0.902178 1.126777 1
0.010514 0.813583 1.134183 1
-0.035631 0.972329 1.141576 1
-0.106811 0.829774 1.108664 1
0.044479 0.885375 1.145756 1
-0.034255 0.797278 1.116005 1
0.009534 0.955891 1.151691 1
-0.137352 0.867547 1.131864 1
0.034453 0.829866 1.151898 1
-0.066169 0.973665 1.139796 1
-0.081357 0.812664 1.096459 1
0.041598 0.918333 1.143288 1
-0.126176 0.924374 1.121022 1
-0.002706 0.798695 1.127189 1
-0.044051 0.882392 1.135512 1
-0.051372 0.888265 1.136770 1
-0.042109 0.869782 1.131603 1
-0.035363 0.894082 1.143895 1
-0.061916 0.879528 1.130086 1
-0.026448 0.869980 1.140536 1
-0.052211 0.902241 1.146785 1
-0.053613 0.862171 1.124265 1
-0.020249 0.890149 1.146726 1
-0.070436 0.892535 1.134152 1
-0.030545 0.855216 1.133807 1
-0.037096 0.910007 1.150209 1
-0.070152 0.867826 1.122230 1
-0.011415 0.873382 1.146273 1
-0.065646 0.909930 1.140114 1
-0.046454 0.848152 1.123187 1
-0.017023 0.905650 1.148457 1
-0.082393 0.883681 1.129272 1
-0.015497 0.851348 1.143867 1
-0.048570 0.921282 1.149070 1
-0.067619 0.853420 1.115942 1
-0.002270 0.887218 1.148039 1
-0.081187 0.906378 1.136264 1
-0.032331 0.838520 1.128802 1
-0.023411 0.921396 1.148956 1
