ply
format ascii 1.0
element vertex 1647
property float x
property float y
property float z
property uchar label
end_header
2.035198 0.942286 0.841720 0
0.581172 0.475752 1.594598 0
0.943511 0.483863 0.174431 0
1.570795 1.185442 1.503423 0
0.319743 0.448367 0.727286 0
0.967345 1.083110 0.193746 0
0.602708 0.408586 0.282315 0
1.880139 1.156932 1.070323 0
0.356852 0.477680 1.187481 0
1.256401 0.518128 0.156278 0
1.376387 1.118309 1.792196 0
0.399976 0.321866 0.560883 0
0.896508 1.269216 0.258170 0
0.699055 0.538537 1.887065 0
0.788664 0.440046 0.160059 0
1.684977 1.270128 1.331619 0
0.262671 0.468318 0.864802 0
1.750543 0.537889 0.245434 0
0.542840 0.248578 0.381023 0
1.987782 1.126692 0.872749 0
0.408471 0.474089 1.475131 0
1.031701 0.504123 0.089667 0
1.495559 1.265040 1.642344 0
0.323615 0.272835 0.710060 0
-2.017128 2.374638 -0.496336 0
0.839878 0.689470 2.085276 0
0.661190 0.367763 0.188147 0
1.263146 0.490096 0.973873 0
1.316161 0.484297 1.123097 0
1.092477 0.481679 0.816665 0
1.487419 0.553417 1.012540 0
1.086875 0.473019 1.088425 0
1.209894 0.508749 0.697129 0
1.653109 0.474814 1.401326 0
0.906242 0.474793 0.819188 0
1.381618 0.658297 0.748008 0
1.247886 0.464281 1.373640 0
1.025642 0.462275 0.620118 0
0.858075 0.471202 0.997133 0
1.297789 0.574438 0.581046 0
0.804153 0.480176 0.646356 0
1.663888 0.691500 0.885192 0
0.977752 0.489822 1.290981 0
1.093540 0.484253 0.491983 0
1.721870 0.724705 1.409217 0
0.711683 0.469437 0.826002 0
1.473092 0.651007 0.585810 0
1.418150 0.466722 1.751549 0
0.827847 0.469380 0.503974 0
1.916949 0.743216 1.145908 0
0.760353 0.477646 1.127965 0
0.731718 0.936612 0.240082 0
1.579276 0.763289 1.584429 0
0.647134 0.474609 0.640797 0
2.029188 0.579405 0.841582 0
1.082796 0.458119 1.619551 0
0.931967 0.474595 0.387573 0
1.778327 0.898601 1.292342 0
0.611970 0.466006 0.919073 0
0.922545 0.947630 0.261748 0
0.666566 0.475911 0.476739 0
2.006134 0.805863 0.974916 0
0.756377 0.486270 1.327185 0
1.034470 0.568320 0.289051 0
1.620488 0.954834 1.488367 0
0.537405 0.468770 0.701047 0
0.898306 1.112190 0.264707 0
0.774876 0.463605 0.347511 0
1.869733 0.994220 1.144842 0
0.558536 0.481217 1.055866 0
0.954013 0.842535 0.196877 0
1.459368 0.897488 1.719419 0
0.539529 0.474485 0.506700 0
0.850257 0.482687 1.621839 0
0.935900 0.489769 0.244134 0
1.695289 1.092629 1.352802 0
0.458102 0.474484 0.802862 0
0.975055 1.018182 0.198171 0
0.627451 0.460186 0.352397 0
1.973003 1.024859 0.973000 0
0.563845 0.491103 1.256558 0
1.188833 0.519244 0.196101 0
1.517197 1.081686 1.597310 0
0.440686 0.468978 0.580714 0
0.913102 1.205778 0.233710 0
0.792585 0.449883 0.229242 0
1.782734 1.178459 1.184714 0
0.415984 0.479354 0.951970 0
1.607802 0.527073 0.236617 0
1.354092 0.942800 1.882479 0
0.520447 0.420926 0.410409 0
2.060617 0.998096 0.779214 0
0.652084 0.476175 1.565545 0
1.018109 0.478116 0.141385 0
1.606622 1.219124 1.448980 0
0.368193 0.461789 0.695113 0
1.884869 0.705522 0.347778 0
0.644463 0.429941 0.248103 0
1.928753 1.199533 1.024420 0
0.424373 0.465201 1.174766 0
1.314665 0.541019 0.113159 0
1.414472 1.145911 1.730880 0
0.434133 0.369948 0.512699 0
0.921421 1.294586 0.230839 0
0.826846 0.476991 1.966373 0
0.843194 0.447995 0.126025 0
1.717377 1.307803 1.279416 0
0.317242 0.469968 0.839841 0
1.790864 0.587914 0.189787 0
0.558052 0.328643 0.326917 0
2.024490 1.176378 0.819614 0
0.464936 0.492877 1.420881 0
1.076783 0.529425 0.049243 0
1.530921 1.294828 1.587755 0
0.346758 0.363857 0.633115 0
2.237868 0.751398 0.394306 0
0.698329 0.397181 0.151433 0
1.330584 0.501438 0.963268 0
1.376392 0.502576 1.106867 0
1.178299 0.470043 0.820236 0
1.560002 0.569934 1.002952 0
1.176384 0.457003 1.102133 0
1.242974 0.545703 0.666368 0
1.691351 0.516572 1.362400 0
0.973637 0.470317 0.814793 0
1.407047 0.700574 0.715468 0
1.343802 0.451147 1.393408 0
1.102092 0.455667 0.614183 0
1.857606 0.625275 1.241055 0
0.919523 0.470582 0.990574 0
1.354264 0.596257 0.562180 0
0.869021 0.472958 0.640179 0
1.990613 0.592124 1.002693 0
1.064540 0.469385 1.312549 0
1.164813 0.486316 0.479571 0
1.759648 0.763911 1.377545 0
0.773992 0.460304 0.822771 0
1.597477 0.640093 0.592257 0
0.890087 0.466555 0.492720 0
1.958222 0.787937 1.116904 0
0.831539 0.460604 1.137375 0
0.921861 0.835574 0.277790 0
1.607026 0.801718 1.544187 0
0.708372 0.462654 0.636062 0
2.137656 0.600769 0.835262 0
1.154711 0.456379 1.621470 0
0.986709 0.484838 0.369321 0
1.805664 0.941930 1.259258 0
0.671189 0.455671 0.916524 0
0.915734 0.994376 0.233369 0
0.714843 0.482163 0.460327 0
2.041700 0.855931 0.944321 0
0.816736 0.481991 1.324082 0
1.012383 0.647625 0.248316 0
1.647448 0.991895 1.455519 0
0.585354 0.470879 0.686975 0
0.902847 1.146651 0.242905 0
0.827618 0.469188 0.330210 0
1.902355 1.038503 1.118199 0
0.610415 0.479146 1.046009 0
1.474393 0.538175 0.287529 0
1.493372 0.926756 1.689065 0
0.591319 0.469581 0.495397 0
0.918028 1.263820 0.313151 0
0.920086 0.472086 1.630285 0
0.985902 0.504918 0.223037 0
1.720059 1.131722 1.323870 0
0.505958 0.473642 0.790320 0
-1.138774 2.142411 -0.301796 0
0.673037 0.468660 0.334020 0
2.000365 1.074677 0.944204 0
0.626643 0.473250 1.264783 0
1.278669 0.512472 0.179182 0
1.541202 1.114401 1.565398 0
0.487563 0.467870 0.567447 0
0.949641 1.226667 0.222873 0
0.837418 0.465876 0.207596 0
1.827073 1.216538 1.171481 0
0.467449 0.470668 0.945701 0
1.703843 0.538600 0.215600 0
1.373364 0.973897 1.833752 0
0.555335 0.444681 0.385634 0
0.927286 1.354336 0.319554 0
0.711402 0.469118 1.562580 0
1.055987 0.508246 0.116053 0
1.644102 1.251115 1.434735 0
0.412215 0.464398 0.679131 0
1.963786 0.739361 0.325660 0
0.687981 0.442700 0.227468 0
1.960226 1.245907 1.002334 0
0.468084 0.473823 1.150348 0
1.477895 0.490551 0.099547 0
1.442718 1.172764 1.704658 0
0.462625 0.409417 0.478902 0
0.965077 1.314685 0.223476 0
0.901194 0.460160 1.984395 0
0.889495 0.464249 0.103386 0
1.738277 1.347242 1.254923 0
0.367707 0.456982 0.834948 0
1.802503 0.651863 0.155484 0
1.264160 0.957407 2.002454 0
0.580635 0.378779 0.294229 0
2.044924 1.229470 0.791610 0
0.523513 0.476645 1.425652 0
1.135809 0.542428 0.025621 0
1.550253 1.326641 1.559477 0
0.385383 0.383525 0.606355 0
2.294724 0.805739 0.365064 0
0.730431 0.428460 0.126478 0
1.393781 0.515285 0.976587 0
1.424459 0.528455 1.110810 0
1.230894 0.486575 0.825324 0
1.617801 0.596138 1.011920 0
1.245679 0.458400 1.125209 0
1.279015 0.577190 0.661488 0
1.766311 0.536141 1.386746 0
1.020214 0.484322 0.817831 0
1.468034 0.720743 0.725440 0
1.400054 0.469153 1.406603 0
1.171107 0.455268 0.625552 0
1.885837 0.674881 1.232281 0
0.985748 0.461456 1.015286 0
1.410158 0.617729 0.565583 0
1.630597 0.613720 1.539068 0
0.924242 0.473889 0.648180 0
2.042318 0.635897 1.004986 0
1.162949 0.437622 1.377220 0
1.245902 0.479748 0.491767 0
1.782562 0.811018 1.368160 0
0.825278 0.460474 0.832621 0
0.692450 1.186502 0.234990 0
0.931388 0.483978 0.489789 0
1.979211 0.841758 1.107290 0
0.868874 0.478541 1.134726 0
0.912895 0.886711 0.261742 0
1.620861 0.847747 1.527252 0
0.743548 0.480837 0.630781 0
1.214892 0.462669 1.646605 0
1.038696 0.495458 0.369207 0
1.823244 0.990709 1.250560 0
0.706835 0.471533 0.912183 0
0.926564 1.027561 0.226105 0
1.487425 0.750843 1.735549 0
0.774008 0.470019 0.469286 0
2.046610 0.917241 0.928779 0
0.893044 0.453948 1.377491 0
0.954767 0.747651 0.218316 0
1.666169 1.034825 1.448653 0
0.623845 0.479799 0.685918 0
0.910943 1.177980 0.236706 0
0.868829 0.484881 0.326236 0
1.911887 1.091730 1.107065 0
0.654724 0.479433 1.055456 0
1.557661 0.547802 0.290709 0
1.507113 0.967400 1.674451 0
0.626599 0.484052 0.490489 0
0.921653 1.295045 0.306651 0
0.968531 0.479327 1.645588 0
1.032426 0.521028 0.219200 0
1.737875 1.176399 1.319878 0
0.542068 0.483019 0.787978 0
1.837475 0.684099 0.353896 0
1.351231 0.779292 1.901093 0
0.722077 0.467710 0.334736 0
2.014191 1.129803 0.936540 0
0.672950 0.471027 1.279550 0
1.376095 0.501572 0.182414 0
1.552561 1.155150 1.555077 0
0.529979 0.466362 0.570157 0
0.965650 1.255375 0.219866 0
0.882751 0.477743 0.203524 0
1.847607 1.263937 1.170734 0
0.502376 0.480559 0.942260 0
1.782271 0.561639 0.214223 0
1.390240 1.008990 1.823299 0
0.589370 0.461146 0.379165 0
0.931848 1.384391 0.314677 0
0.760797 0.466195 1.584186 0
1.108049 0.522511 0.111354 0
1.653048 1.294464 1.426743 0
0.448085 0.471360 0.676507 0
2.080812 0.759478 0.334696 0
0.725175 0.459299 0.221449 0
1.945138 1.303367 0.983057 0
0.511080 0.468827 1.162488 0
1.546979 0.509861 0.094751 0
1.458157 1.208694 1.700026 0
0.495798 0.426182 0.471136 0
0.982853 1.343108 0.221966 0
0.946546 0.468965 1.997402 0
0.942321 0.470597 0.098906 0
1.714059 1.397623 1.226444 0
0.399748 0.470541 0.826650 0
1.941006 0.652192 0.159895 0
1.277611 0.990834 1.985304 0
0.605198 0.414335 0.281817 0
2.053080 1.286522 0.784300 0
0.558030 0.487681 1.421369 0
1.249898 0.510100 0.023883 0
1.546386 1.368514 1.541024 0
0.405912 0.427411 0.582271 0
2.348507 0.861224 0.362240 0
0.772434 0.440939 0.120654 0
1.414202 0.541061 1.006145 0
1.495256 0.519785 1.181628 0
1.270098 0.494325 0.863641 0
1.810443 0.529161 1.152637 0
1.282334 0.466377 1.170094 0
1.289736 0.608666 0.681108 0
1.761217 0.583015 1.405771 0
1.083947 0.460348 0.875793 0
1.506565 0.738930 0.762856 0
1.470179 0.456234 1.491976 0
1.189975 0.479930 0.647119 0
1.874941 0.725128 1.250119 0
1.010600 0.471898 1.047354 0
1.414496 0.655756 0.583771 0
1.616037 0.661746 1.549430 0
0.964670 0.469521 0.682803 0
2.046536 0.683364 1.032615 0
1.194632 0.444690 1.425639 0
1.274939 0.498628 0.517272 0
1.755810 0.863723 1.374209 0
0.850140 0.467292 0.860323 0
1.925408 0.574157 0.719580 0
0.983139 0.469880 0.525490 0
1.956477 0.895810 1.121212 0
0.922717 0.451245 1.205925 0
0.919243 0.912401 0.275394 0
1.612872 0.889046 1.547072 0
0.778916 0.473735 0.662369 0
2.144797 0.719963 0.844313 0
1.236004 0.478494 1.690870 0
1.089612 0.488933 0.399836 0
1.815780 1.034901 1.273245 0
0.738237 0.463944 0.950469 0
0.910863 1.063759 0.233880 0
1.475465 0.792126 1.749489 0
0.798841 0.479369 0.489188 0
2.023678 0.971414 0.945198 0
0.923610 0.450895 1.429234 0
0.947329 0.787561 0.228170 0
1.645248 1.079631 1.460005 0
0.646950 0.483060 0.708866 0
0.913959 1.201929 0.250358 0
1.338775 0.577622 1.931900 0
0.914767 0.475389 0.353314 0
1.902791 1.137450 1.130074 0
0.685432 0.467858 1.100164 0
1.590960 0.573001 0.317610 0
1.486134 1.010126 1.682466 0
0.662495 0.471799 0.518540 0
0.928010 1.317301 0.322488 0
1.006835 0.469252 1.719694 0
1.060119 0.537024 0.238892 0
1.721540 1.219810 1.337522 0
0.574825 0.465367 0.826456 0
1.883192 0.710360 0.387367 0
1.337235 0.818273 1.912484 0
0.745727 0.478688 0.351531 0
2.001346 1.178073 0.958725 0
0.691102 0.474739 1.313217 0
1.428512 0.509039 0.209616 0
1.543631 1.193222 1.578410 0
0.549548 0.473852 0.586740 0
0.956877 1.283623 0.231065 0
0.919734 0.479971 0.224155 0
1.803802 1.313297 1.172709 0
0.531600 0.463271 0.984240 0
1.802919 0.599502 0.240364 0
1.381681 1.044004 1.846436 0
0.609597 0.472664 0.393546 0
0.935090 1.407591 0.329963 0
0.773151 0.476784 1.616816 0
1.147701 0.531161 0.132577 0
1.637938 1.335225 1.446429 0
0.465644 0.477553 0.692978 0
2.200556 0.765224 0.384551 0
0.757688 0.460447 0.239980 0
1.913620 1.351731 0.995970 0
0.522498 0.479011 1.181720 0
1.628066 0.505393 0.124698 0
1.447060 1.245139 1.723038 0
0.503739 0.456646 0.475292 0
0.951597 1.375715 0.227411 0
0.969070 0.470434 2.061766 0
0.970416 0.485358 0.116368 0
1.633764 1.446051 1.199980 0
0.414422 0.477682 0.842530 0
2.003162 0.674246 0.192858 0
1.271252 1.022280 2.013210 0
0.619770 0.437901 0.292210 0
2.029955 1.335754 0.803662 0
0.592453 0.457732 1.498466 0
1.286236 0.526552 0.044711 0
1.494946 1.411994 1.526105 0
0.417285 0.448710 0.588359 0
2.348735 0.915129 0.391921 0
1.088019 0.668943 2.236383 0
0.797545 0.454684 0.135940 0
1.407973 0.540154 1.057254 0
1.531591 0.488223 1.273025 0
1.248858 0.505680 0.898390 0
1.785413 0.541300 1.201220 0
1.260895 0.473285 1.210572 0
1.324081 0.582029 0.745325 0
1.714262 0.604615 1.440040 0
1.067386 0.466730 0.910112 0
1.553968 0.713659 0.838780 0
1.461112 0.450743 1.556823 0
1.186149 0.479599 0.687632 0
1.822593 0.748885 1.282774 0
0.991068 0.477435 1.081367 0
1.387124 0.673847 0.616621 0
1.592019 0.668454 1.603362 0
0.946514 0.480871 0.710041 0
2.001930 0.705582 1.074404 0
1.139112 0.477379 1.431876 0
1.245464 0.521783 0.545668 0
1.729417 0.874372 1.424551 0
0.836926 0.468591 0.892788 0
1.880261 0.600721 0.758381 0
0.978227 0.470674 0.559193 0
1.907186 0.916845 1.157867 0
0.891209 0.466159 1.228082 0
0.798300 0.996043 0.262306 0
1.580578 0.900340 1.593118 0
0.772517 0.470674 0.694507 0
2.116340 0.736468 0.895649 0
1.244165 0.451381 1.787097 0
1.092514 0.485729 0.437038 0
1.771350 1.052069 1.309885 0
0.726249 0.459861 0.985571 0
0.888845 1.078126 0.255985 0
1.437626 0.803851 1.791734 0
0.792515 0.480824 0.517802 0
2.006256 0.982537 0.999594 0
0.874361 0.480938 1.431386 0
0.927946 0.804443 0.252533 0
1.614659 1.091058 1.506484 0
0.647351 0.466416 0.747718 0
0.902095 1.209856 0.275620 0
0.909694 0.479419 0.382967 0
1.866832 1.152283 1.173367 0
0.660189 0.477480 1.121662 0
0.982080 0.949682 0.209140 0
1.468850 1.014283 1.746702 0
0.651112 0.478358 0.541277 0
2.093296 0.975471 0.817606 0
0.979926 0.468742 1.767902 0
1.033393 0.563553 0.264382 0
1.699365 1.230177 1.389872 0
0.556770 0.472286 0.847186 0
0.978338 1.127967 0.209665 0
1.309089 0.822314 1.970809 0
0.744560 0.476536 0.379561 0
1.987505 1.188662 1.014488 0
0.668566 0.474304 1.347460 0
1.412334 0.525686 0.247164 0
1.522011 1.201610 1.635113 0
0.542347 0.470608 0.612537 0
0.927037 1.297089 0.251657 0
0.915529 0.485842 0.253022 0
1.776446 1.325522 1.219727 0
0.510388 0.469889 1.004459 0
1.808832 0.603299 0.290543 0
1.340714 1.055897 1.886146 0
0.600513 0.479448 0.414851 0
2.071835 1.172801 0.818898 0
0.745445 0.476211 1.657136 0
1.183036 0.505621 0.173410 0
1.602165 1.347917 1.488004 0
0.455275 0.474559 0.717511 0
2.194820 0.775727 0.441742 0
0.752143 0.467056 0.264911 0
1.880730 1.365218 1.040022 0
0.500819 0.479021 1.209576 0
1.638097 0.506228 0.170879 0
1.418844 1.254592 1.776164 0
0.496824 0.456311 0.497550 0
0.934970 1.384154 0.251753 0
0.878187 0.531155 1.999318 0
0.972482 0.487136 0.147104 0
1.629447 1.455270 1.261132 0
0.401824 0.471722 0.869590 0
1.996899 0.685435 0.244917 0
1.234413 1.030689 2.062905 0
0.608238 0.452052 0.311503 0
1.992747 1.350341 0.847548 0
0.555683 0.472900 1.510695 0
1.300874 0.521861 0.083208 0
1.468194 1.422831 1.575512 0
0.408069 0.447040 0.609954 0
2.257952 0.950706 0.434073 0
0.992191 0.718462 2.177558 0
0.788831 0.467999 0.160497 0
1.371605 0.511769 1.117539 0
1.465553 0.474575 1.319022 0
1.229140 0.467511 0.962060 0
1.707164 0.533123 1.246054 0
1.176380 0.481456 1.226977 0
1.295587 0.556729 0.799100 0
1.671894 0.571464 1.516267 0
1.005585 0.467996 0.934990 0
1.743147 0.563420 1.027390 0
1.346141 0.468760 1.555519 0
1.143785 0.467277 0.727893 0
1.777292 0.721531 1.353273 0
0.919361 0.485144 1.095370 0
1.364583 0.648597 0.671809 0
1.553648 0.631110 1.687751 0
0.900161 0.475263 0.739570 0
1.952773 0.681545 1.143131 0
1.063158 0.474014 1.455886 0
1.213736 0.504110 0.591153 0
1.673324 0.851448 1.487023 0
0.775257 0.476565 0.906909 0
1.614583 0.698528 0.721483 0
1.427542 0.534225 1.873979 0
0.931269 0.470526 0.587593 0
1.857351 0.893724 1.223896 0
0.827330 0.462006 1.250612 0
1.363910 0.573017 0.524907 0
1.541950 0.868302 1.674610 0
0.720062 0.477046 0.711733 0
2.067164 0.714094 0.965290 0
1.159892 0.442804 1.816630 0
1.056722 0.476356 0.474261 0
1.741337 1.022491 1.389840 0
0.654181 0.482309 0.982381 0
0.923466 1.036283 0.309315 0
1.387862 0.772366 1.869317 0
0.748867 0.482667 0.540723 0
1.964897 0.957799 1.070451 0
0.805250 0.475411 1.453261 0
0.941391 0.764098 0.299436 0
1.574308 1.064054 1.581507 0
0.589167 0.483232 0.753589 0
0.915583 1.184445 0.322323 0
0.877754 0.470334 0.415289 0
1.818261 1.129747 1.238179 0
0.603685 0.472481 1.141087 0
0.931334 0.957154 0.236891 0
1.415602 0.988661 1.816074 0
0.614732 0.471790 0.564830 0
2.047165 0.953456 0.886384 0
0.896367 0.465037 1.785510 0
1.029124 0.531242 0.308717 0
1.650333 1.207615 1.454133 0
0.512410 0.463518 0.868954 0
0.916702 1.136431 0.233958 0
1.252298 0.791889 2.047264 0
0.713668 0.468419 0.406924 0
1.951880 1.163466 1.087476 0
0.597105 0.480846 1.351255 0
0.984931 0.804679 0.199831 0
1.470057 1.178722 1.700485 0
0.500835 0.470617 0.629044 0
0.907647 1.285980 0.286588 0
1.030876 0.532480 2.109997 0
0.886657 0.478125 0.285524 0
1.740339 1.301625 1.290765 0
0.461523 0.460396 1.025504 0
1.709337 0.622975 0.336635 0
1.291070 1.027986 1.965203 0
0.569518 0.471620 0.438037 0
2.049371 1.145495 0.896936 0
0.660141 0.485715 1.652272 0
1.138438 0.510555 0.210895 0
1.568609 1.323272 1.566526 0
0.411240 0.475070 0.730573 0
0.999876 1.198028 0.219500 0
0.721160 0.463942 0.291237 0
1.841300 1.342333 1.107411 0
0.439576 0.480938 1.217378 0
1.581158 0.509744 0.221852 0
1.370265 1.230707 1.849306 0
0.466065 0.443681 0.520127 0
0.916518 1.372770 0.287137 0
0.752904 0.570103 1.931677 0
0.934486 0.491990 0.178965 0
1.627526 1.429465 1.356182 0
0.354179 0.470657 0.881340 0
1.908476 0.692841 0.301615 0
1.172804 1.005267 2.133852 0
0.583318 0.439323 0.336733 0
1.990320 1.322052 0.932827 0
0.488614 0.466038 1.527924 0
1.270302 0.515186 0.127808 0
1.438752 1.399201 1.659650 0
0.374838 0.431601 0.632101 0
1.022145 1.287683 0.214382 0
0.888420 0.720163 2.171289 0
0.761499 0.463945 0.188813 0
1.273578 0.491030 1.170072 0
1.345980 0.461568 1.362057 0
1.093227 0.491401 0.973396 0
1.585965 0.513770 1.299177 0
1.076194 0.465567 1.270944 0
1.252871 0.503694 0.879718 0
1.601240 0.514842 1.619801 0
0.885361 0.492331 0.942985 0
1.615640 0.551166 1.076627 0
1.218746 0.459951 1.588353 0
1.016473 0.496799 0.743720 0
1.728001 0.659090 1.466298 0
0.827184 0.475509 1.129988 0
1.310573 0.609103 0.741868 0
0.799487 0.492450 0.758082 0
1.873932 0.633446 1.233391 0
0.939557 0.477936 1.470897 0
1.133733 0.489996 0.641125 0
1.604381 0.801844 1.583624 0
0.676446 0.491671 0.919296 0
1.455271 0.713731 0.748320 0
0.839138 0.482283 0.615327 0
1.803256 0.838830 1.326038 0
0.704052 0.489353 1.240807 0
1.269612 0.566219 0.574504 0
1.459624 0.825054 1.762333 0
0.647667 0.468075 0.745213 0
1.999919 0.661015 1.062206 0
0.984224 0.481369 1.770493 0
0.971500 0.478172 0.513775 0
1.669620 0.977030 1.477998 0
0.570201 0.478061 1.008337 0
1.477544 0.655863 0.599301 0
1.311099 0.722084 1.976059 0
0.674235 0.484891 0.570109 0
1.912385 0.903202 1.170722 0
0.692925 0.479245 1.466217 0
1.166941 0.509912 0.455187 0
1.505823 1.019437 1.674736 0
0.520749 0.470207 0.786699 0
2.076970 0.607937 0.875867 0
0.798163 0.477899 0.448574 0
1.751404 1.083683 1.325556 0
0.502782 0.489097 1.143021 0
0.632375 1.108668 0.196292 0
1.346618 0.941954 1.922109 0
0.546028 0.470176 0.592546 0
2.025259 0.888499 0.999752 0
0.763919 0.473959 1.785680 0
0.985850 0.498486 0.364057 0
1.587078 1.163514 1.544877 0
0.434538 0.461928 0.891078 0
0.901224 1.103175 0.286751 0
0.633847 0.487243 0.430743 0
1.872892 1.118737 1.168177 0
0.484988 0.503855 1.339768 0
0.960582 0.767461 0.254789 0
1.408787 1.134946 1.802850 0
0.431541 0.471198 0.651735 0
2.143740 0.798746 0.827431 0
0.829301 0.595138 1.993093 0
0.813373 0.483403 0.323215 0
1.698127 1.253290 1.392656 0
0.372805 0.471727 1.033220 0
0.940493 0.999040 0.224028 0
1.221462 0.982276 2.079635 0
0.517036 0.452194 0.474236 0
2.001597 1.091723 0.995270 0
0.550824 0.480792 1.674312 0
1.027121 0.541397 0.250917 0
1.506984 1.281628 1.658791 0
0.347293 0.459121 0.761625 0
0.917146 1.192778 0.254110 0
0.947698 0.757825 2.169358 0
0.654072 0.470063 0.323410 0
1.812685 1.290930 1.213135 0
0.343416 0.494692 1.218232 0
1.411144 0.554169 0.270869 0
1.289655 1.194684 1.932297 0
0.419847 0.404657 0.563747 0
0.658873 1.411359 0.245021 0
0.596557 0.613303 1.859898 0
0.880263 0.477789 0.225825 0
1.593905 1.384574 1.462610 0
0.283407 0.457758 0.909434 0
1.027748 1.055249 0.199822 0
0.550519 0.390335 0.383913 0
1.954443 1.268981 1.033388 0
0.377261 0.482942 1.519639 0
1.199937 0.505049 0.185867 0
1.400629 1.357003 1.779240 0
0.325608 0.385260 0.679976 0
0.940367 1.277605 0.249872 0
0.703573 0.767959 2.053611 0
0.700357 0.464922 0.225961 0
1.179475 0.477890 1.269056 0
1.230827 0.458830 1.454111 0
1.029305 0.458988 1.082012 0
1.522131 0.471084 1.446947 0
0.969940 0.464586 1.352330 0
1.183510 0.478210 0.984392 0
1.486281 0.500966 1.738130 0
0.816892 0.466818 1.037159 0
1.518975 0.535323 1.185843 0
1.085611 0.470191 1.662568 0
0.933884 0.493237 0.820028 0
1.607070 0.650197 1.572609 0
0.741229 0.462286 1.215308 0
1.291051 0.551296 0.872576 0
1.360705 0.565217 1.909641 0
0.734541 0.472139 0.839772 0
1.775808 0.611263 1.358633 0
0.845774 0.457310 1.579978 0
1.063765 0.474291 0.730052 0
1.508072 0.782897 1.708710 0
0.608787 0.465970 1.005856 0
1.489050 0.628659 0.912761 0
0.761952 0.483560 0.681713 0
1.704020 0.820025 1.443585 0
0.614650 0.476051 1.325942 0
1.226050 0.529316 0.681088 0
1.369241 0.803657 1.901486 0
0.560983 0.483090 0.794819 0
1.898123 0.639664 1.185937 0
0.875158 0.465124 1.886827 0
0.878552 0.496360 0.576284 0
1.570802 0.961488 1.590989 0
0.491324 0.463301 1.083860 0
1.364412 0.662983 0.680179 0
0.611530 0.473483 0.637679 0
1.820201 0.880361 1.291734 0
0.598291 0.458854 1.568957 0
1.123026 0.475978 0.553583 0
1.422507 1.000643 1.808308 0
0.444327 0.469033 0.844132 0
1.987072 0.580300 1.007826 0
0.906812 0.601800 2.058311 0
0.723180 0.486190 0.510373 0
1.665999 1.063197 1.443514 0
0.414831 0.480861 1.213561 0
1.331498 0.575512 0.553406 0
1.243685 0.930316 2.049624 0
0.477990 0.468411 0.649594 0
1.943280 0.859769 1.128512 0
0.626849 0.496149 1.834700 0
0.915197 0.497849 0.438283 0
1.503653 1.146875 1.666208 0
0.347111 0.476805 0.933232 0
1.648269 0.664098 0.676347 0
1.009686 0.764040 2.210134 0
0.579423 0.472812 0.496653 0
1.779057 1.098153 1.279234 0
0.395812 0.480715 1.435522 0
1.214504 0.503869 0.440367 0
1.307430 1.126742 1.915249 0
0.364937 0.463777 0.708508 0
2.042523 0.774932 0.952110 0
0.647846 0.660995 1.952594 0
0.750151 0.482272 0.390840 0
1.616130 1.234964 1.508332 0
0.282966 0.479724 1.080629 0
0.909942 0.976440 0.297826 0
1.115993 0.973067 2.214625 0
0.461420 0.436513 0.536817 0
1.914475 1.065975 1.114064 0
0.421741 0.506299 1.712258 0
0.989060 0.511471 0.337735 0
1.422976 1.269099 1.779409 0
0.275953 0.450845 0.817849 0
0.200852 1.477035 0.068754 0
0.744700 0.824487 2.099345 0
0.596533 0.466375 0.385292 0
1.741266 1.267456 1.333285 0
0.256154 0.473882 1.301330 0
0.936493 0.836496 0.251410 0
1.207619 1.183192 2.079139 0
0.361174 0.384093 0.626983 0
2.026115 0.977792 0.931790 0
0.442805 0.667381 1.840987 0
0.805312 0.492414 0.292430 0
1.528628 1.367521 1.588678 0
0.198504 0.470382 0.948584 0
0.902503 1.081647 0.248482 0
0.901021 1.002706 2.219860 0
0.503177 0.362994 0.452243 0
1.887323 1.240417 1.157381 0
0.281534 0.447135 1.639812 0
1.047542 0.574031 0.251001 0
1.321153 1.347732 1.908578 0
0.270471 0.334032 0.761842 0
0.172898 1.519199 0.054128 0
0.502791 0.859478 1.921444 0
0.646663 0.459766 0.290773 0
1.111807 0.451862 1.404963 0
1.141458 0.447650 1.581435 0
0.933460 0.466904 1.168329 0
1.457018 0.439268 1.608706 0
0.871441 0.468630 1.449175 0
1.097919 0.475015 1.083813 0
1.381444 0.496144 1.874632 0
0.740521 0.457500 1.133745 0
1.513086 0.467929 1.376763 0
0.991324 0.459840 1.797442 0
0.869965 0.477032 0.918727 0
1.505052 0.646587 1.699006 0
0.639669 0.480663 1.285104 0
1.282270 0.487765 1.028162 0
1.253164 0.563709 2.048863 0
0.670426 0.455415 0.933262 0
1.672751 0.605075 1.483647 0
0.750060 0.450164 1.700575 0
0.979176 0.479378 0.814718 0
1.403565 0.784598 1.829767 0
0.530536 0.461946 1.089906 0
1.526065 0.542100 1.103924 0
1.042125 0.523795 2.139954 0
0.712441 0.454641 0.779380 0
1.609488 0.813696 1.567185 0
0.529519 0.464639 1.433069 0
1.187786 0.491557 0.801459 0
1.265319 0.807094 2.031732 0
0.495715 0.470874 0.877076 0
1.796149 0.630706 1.311139 0
0.725881 0.513852 1.929167 0
0.835757 0.464466 0.676068 0
1.482703 0.957707 1.716763 0
0.401274 0.477018 1.148983 0
1.367997 0.601252 0.825033 0
1.100020 0.705224 2.267514 0
0.553824 0.457680 0.719421 0
1.714399 0.876362 1.403324 0
0.481766 0.485625 1.634276 0
1.047813 0.474322 0.643853 0
1.322071 1.006249 1.926597 0
0.370688 0.468709 0.914501 0
1.905123 0.558589 1.147474 0
0.725145 0.679567 2.033564 0
0.676454 0.461154 0.597991 0
1.576051 1.058947 1.558631 0
0.332571 0.466858 1.312522 0
1.261599 0.564600 0.654429 0
1.136194 0.940584 2.177110 0
0.411141 0.469214 0.715812 0
1.842334 0.850008 1.246895 0
0.462403 0.587784 1.795266 0
0.878673 0.463538 0.536093 0
1.411565 1.149588 1.780428 0
0.271703 0.472109 1.007138 0
1.462106 0.711482 0.736613 0
0.813957 0.839712 2.167256 0
0.526738 0.457128 0.573314 0
1.694748 1.088616 1.395991 0
0.302400 0.470597 1.542677 0
1.151692 0.491104 0.538942 0
1.214413 1.134797 2.042351 0
0.301673 0.451074 0.781530 0
1.970909 0.749711 1.091616 0
0.476816 0.750423 1.893606 0
0.691895 0.477911 0.466910 0
1.533581 1.232349 1.623807 0
0.200812 0.474846 1.158958 0
1.378719 0.631330 0.584446 0
0.977890 1.002732 2.293525 0
0.400241 0.433212 0.603627 0
1.829343 1.051875 1.232921 0
0.291937 0.558632 1.736479 0
0.943671 0.489615 0.430108 0
1.339018 1.274576 1.902589 0
0.205328 0.442564 0.888438 0
2.014434 0.613942 0.908914 0
0.543174 0.926624 1.971786 0
0.546113 0.453179 0.459285 0
1.657287 1.260474 1.443502 0
0.164419 0.466503 1.393318 0
1.284511 0.522049 0.473491 0
1.112396 1.196302 2.214252 0
0.298284 0.373123 0.697297 0
1.964989 0.951494 1.068223 0
0.294123 0.749642 1.796488 0
0.765806 0.467050 0.377984 0
1.459132 1.367359 1.713027 0
0.124262 0.451473 1.031568 0
0.700797 1.158887 0.258708 0
0.678843 1.092044 2.072419 0
0.432684 0.381604 0.511178 0
1.794187 1.229538 1.263926 0
0.159995 0.490547 1.676975 0
1.053275 0.507453 0.359936 0
1.223900 1.361327 2.016120 0
0.200593 0.319888 0.835703 0
2.066293 0.796455 0.895135 0
0.341915 0.945270 1.836296 0
0.594014 0.454233 0.362941 0
0.992184 0.450514 1.498064 0
0.998065 0.463356 1.655139 0
0.816468 0.478035 1.237834 0
1.311064 0.444663 1.703347 0
0.751295 0.473368 1.530232 0
0.990365 0.473182 1.170389 0
1.255540 0.482603 2.006829 0
0.632182 0.466416 1.200598 0
1.393373 0.456412 1.490282 0
0.832628 0.490861 1.847765 0
0.787355 0.459976 1.010212 0
1.407267 0.619415 1.849116 0
0.534254 0.479408 1.364179 0
1.189245 0.469178 1.135826 0
0.574499 0.460072 0.999690 0
1.568691 0.580329 1.620354 0
0.612289 0.468963 1.766083 0
0.893378 0.468007 0.902563 0
1.302924 0.764202 1.977438 0
0.428043 0.471908 1.149257 0
1.464298 0.495613 1.250587 0
0.795564 0.632436 2.032641 0
0.625191 0.453959 0.849856 0
1.499368 0.797521 1.690006 0
0.413731 0.471809 1.503849 0
1.111750 0.466302 0.907127 0
1.146506 0.798186 2.167318 0
0.414098 0.459034 0.951016 0
1.697965 0.602187 1.448721 0
0.525440 0.614390 1.847902 0
0.749744 0.463423 0.750114 0
1.381979 0.942318 1.847561 0
0.306004 0.468625 1.225828 0
1.349008 0.533115 0.975348 0
0.868154 0.781587 2.195360 0
0.469874 0.461309 0.780549 0
1.613650 0.855022 1.528747 0
0.356060 0.497178 1.704531 0
0.970745 0.457863 0.735586 0
1.227807 0.991552 2.078531 0
0.283994 0.465090 0.978346 0
1.779401 0.543011 1.267912 0
0.523991 0.769379 1.942233 0
0.599540 0.457204 0.667595 0
1.488232 1.039065 1.691009 0
0.229520 0.456387 1.397028 0
1.199875 0.531678 0.764232 0
1.019499 0.935491 2.322585 0
0.339567 0.450967 0.787105 0
1.742354 0.825102 1.373943 0
0.308461 0.649475 1.778441 0
0.794973 0.464249 0.610516 0
1.309326 1.140826 1.901231 0
0.186600 0.449119 1.089215 0
1.424557 0.662497 0.868503 0
0.581416 0.938491 2.007146 0
0.451586 0.456853 0.634856 0
1.602150 1.067765 1.518092 0
0.197870 0.427729 1.685166 0
1.095977 0.455405 0.644643 0
1.115774 1.128420 2.190975 0
0.226260 0.430985 0.852528 0
1.868625 0.721777 1.222854 0
0.302471 0.839316 1.796638 0
0.630850 0.458342 0.543978 0
1.440401 1.218918 1.744618 0
0.106987 0.450441 1.248531 0
1.305612 0.607104 0.689675 0
0.720042 1.087634 2.110011 0
0.330091 0.420868 0.668196 0
1.739177 1.025853 1.358096 0
0.143682 0.635231 1.694957 0
0.892680 0.455847 0.523863 0
1.235709 1.270996 2.022668 0
0.125936 0.410407 0.970391 0
1.926684 0.577299 1.050537 0
0.357789 1.009755 1.845868 0
0.480532 0.443333 0.525793 0
1.570548 1.241537 1.564075 0
0.059050 0.432638 1.508569 0
1.208614 0.503250 0.573310 0
0.964081 1.212654 2.280194 0
0.233389 0.323378 0.784729 0
1.867263 0.923209 1.194107 0
0.138610 0.841045 1.697983 0
0.696534 0.461457 0.451082 0
1.361859 1.359510 1.825189 0
0.036100 0.414884 1.123333 0
1.459419 0.672174 0.675978 0
0.481136 1.159192 1.942877 0
0.370957 0.355248 0.583098 0
1.699698 1.207104 1.378127 0
0.016335 0.590805 1.603928 0
0.997206 0.480146 0.453866 0
1.130080 1.361223 2.154762 0
0.153037 0.132010 1.026001 0
1.999262 0.752078 1.043734 0
0.185253 1.022172 1.731781 0
0.534806 0.439224 0.432743 0
0.861350 0.462558 1.568534 0
0.877661 0.457666 1.755357 0
0.715953 0.470797 1.323086 0
1.171007 0.448168 1.795438 0
0.635088 0.473180 1.614053 0
0.894452 0.459799 1.265030 0
0.535222 0.458460 1.281285 0
1.271871 0.447316 1.596741 0
0.700307 0.495189 1.936857 0
0.681505 0.471630 1.071215 0
1.292253 0.602017 1.981844 0
0.423236 0.486592 1.428964 0
1.080489 0.464531 1.225149 0
0.902404 0.626777 2.138577 0
0.484134 0.455632 1.069840 0
1.479885 0.545114 1.773886 0
0.457661 0.520997 1.771933 0
0.808578 0.454725 0.988131 0
1.188153 0.751123 2.110669 0
0.331939 0.468693 1.217968 0
1.403976 0.444051 1.404347 0
0.611295 0.696750 1.999342 0
0.541647 0.447120 0.920701 0
1.405373 0.773478 1.830207 0
0.306933 0.455829 1.603027 0
0.997703 0.476702 0.978489 0
1.011281 0.799654 2.277492 0
0.322215 0.465825 1.005165 0
1.586410 0.581747 1.572871 0
0.371268 0.668975 1.837297 0
0.671719 0.451864 0.826891 0
1.288830 0.923493 1.991667 0
0.205453 0.467730 1.291369 0
1.294077 0.485826 1.108382 0
0.633674 0.879285 2.046062 0
0.390871 0.454957 0.844462 0
1.511995 0.835242 1.651406 0
0.222976 0.527890 1.740047 0
0.867478 0.469703 0.802742 0
1.111829 0.986712 2.203876 0
0.195675 0.461748 1.038352 0
1.691888 0.507155 1.409834 0
0.344095 0.857589 1.835338 0
0.524744 0.448986 0.735573 0
1.393308 1.022528 1.817606 0
0.122614 0.445288 1.480307 0
1.165651 0.472803 0.893150 0
0.756964 1.024409 2.139897 0
0.257323 0.453698 0.840021 0
1.635137 0.805043 1.491627 0
0.156130 0.735109 1.703737 0
0.719722 0.454995 0.685540 0
1.218140 1.129193 2.040495 0
0.086828 0.469098 1.126377 0
1.481267 0.548396 1.068444 0
0.392153 1.019355 1.875641 0
0.379528 0.449291 0.696502 0
1.513790 1.046937 1.643329 0
0.052090 0.527568 1.616373 0
0.987170 0.469774 0.715574 0
0.977284 1.138962 2.272392 0
0.150311 0.399488 0.930164 0
1.744769 0.706114 1.333925 0
0.151172 0.920110 1.700354 0
0.551112 0.465421 0.603135 0
1.349901 1.206241 1.869819 0
-0.000140 0.473051 1.283200 0
1.276877 0.549780 0.817894 0
0.510836 1.158248 1.955462 0
0.269810 0.375019 0.750723 0
1.637143 1.005674 1.471204 0
0.005182 0.727808 1.611186 0
0.795291 0.473692 0.587349 0
1.154493 1.262711 2.182851 0
0.045352 0.351843 1.074098 0
1.828203 0.547215 1.182418 0
0.204646 1.076910 1.748071 0
0.413491 0.433797 0.588362 0
1.482642 1.224632 1.683350 0
-0.062205 0.464341 1.536048 0
1.133566 0.483910 0.668864 0
0.716617 1.272385 2.096277 0
0.179154 0.203562 0.918928 0
1.763711 0.899427 1.311370 0
0.005179 0.920636 1.608290 0
0.619684 0.466607 0.514212 0
1.277743 1.351058 1.955784 0
-0.058918 0.371897 1.220889 0
1.359097 0.662668 0.768916 0
0.311463 1.219874 1.817022 0
0.305747 0.329189 0.652395 0
1.609424 1.186019 1.492634 0
-0.109548 0.681748 1.530897 0
0.928142 0.464563 0.538845 0
1.024905 1.365129 2.281660 0
0.063097 0.057562 1.139772 0
1.883684 0.729334 1.163449 0
0.051278 1.088911 1.638391 0
0.471481 0.428713 0.497030 0
0.758290 0.479464 1.653125 0
0.762087 0.483077 1.834073 0
0.637732 0.465546 1.423900 0
1.050235 0.471598 1.884209 0
0.554115 0.456106 1.747200 0
0.805962 0.468691 1.350896 0
0.943691 0.547677 2.130749 0
0.446811 0.471285 1.353722 0
1.150929 0.472190 1.679304 0
0.523799 0.606075 1.861939 0
0.608038 0.470945 1.155407 0
0.344196 0.468849 1.545489 0
0.995158 0.468291 1.320617 0
0.727308 0.706374 2.108295 0
0.405502 0.464306 1.138926 0
1.382555 0.546922 1.902264 0
0.322264 0.597709 1.754401 0
0.734541 0.456547 1.071366 0
0.250638 0.470699 1.295193 0
1.294007 0.459298 1.498872 0
0.444207 0.793378 1.918338 0
0.464838 0.460909 0.983474 0
1.304052 0.783449 1.943541 0
0.216016 0.438608 1.728068 0
0.936520 0.463126 1.081544 0
0.809038 0.886521 2.199078 0
0.251485 0.461353 1.079954 0
1.502113 0.576144 1.705199 0
0.227549 0.767503 1.758443 0
0.599814 0.459794 0.897066 0
1.192224 0.935387 2.113097 0
0.122166 0.459880 1.380578 0
1.216039 0.482340 1.213924 0
0.451441 0.979612 1.913092 0
0.320783 0.463964 0.904782 0
1.435195 0.832431 1.783151 0
0.093517 0.627395 1.679431 0
0.804515 0.464032 0.889386 0
0.995378 1.012430 2.301601 0
0.118513 0.470150 1.098098 0
1.609624 0.498261 1.542331 0
0.210007 0.936256 1.771043 0
0.456662 0.458896 0.798005 0
1.303430 1.031862 1.932568 0
0.032237 0.415068 1.609052 0
1.089449 0.473569 0.985887 0
0.564843 1.109865 2.008135 0
0.194642 0.441571 0.912785 0
1.541886 0.807838 1.603250 0
0.038173 0.815026 1.653770 0
0.651325 0.463085 0.755281 0
1.129549 1.143957 2.166718 0
0.009504 0.451638 1.213397 0
1.417830 0.533273 1.189766 0
0.253737 1.092261 1.796208 0
0.317512 0.452177 0.758097 0
1.423579 1.053941 1.749986 0
-0.061090 0.622637 1.562875 0
0.921890 0.467384 0.801989 0
0.768867 1.210811 2.151333 0
0.081599 0.382197 1.007734 0
1.650518 0.706346 1.447542 0
0.036508 0.992374 1.642149 0
0.499560 0.454242 0.677576 0
1.257701 1.220652 1.974828 0
-0.083344 0.402082 1.442558 0
1.270625 0.495323 0.959454 0
0.362058 1.223506 1.866959 0
0.208056 0.365517 0.819397 0
1.555046 1.006005 1.584198 0
-0.101732 0.815320 1.546360 0
0.745201 0.460508 0.671498 0
1.051635 1.287397 2.289086 0
-0.028350 0.287008 1.199258 0
1.729700 0.547244 1.298388 0
0.084454 1.147402 1.664384 0
0.358086 0.429738 0.653652 0
1.404268 1.231420 1.796661 0
-0.166552 0.558610 1.489540 0
1.083876 0.465486 0.770495 0
0.548495 1.330292 2.001029 0
0.116596 0.136044 1.033582 0
1.673564 0.898674 1.421023 0
-0.098193 0.997996 1.536924 0
0.564960 0.464939 0.584010 0
1.200990 1.366857 2.081345 0
-0.144816 0.241831 1.426690 0
1.413210 0.575880 0.941905 0
0.182823 1.281850 1.725523 0
0.264626 0.266163 0.751157 0
1.523953 1.189846 1.594712 0
-0.207040 0.771254 1.468116 0
0.873731 0.456206 0.624333 0
0.827793 1.415827 2.182477 0
-0.025550 0.041031 1.223828 0
1.791901 0.725546 1.279860 0
-0.052792 1.155005 1.567571 0
0.416438 0.430007 0.560262 0
0.691388 0.482967 1.751104 0
0.672979 0.510905 1.900811 0
0.564161 0.484917 1.487014 0
0.977897 0.478537 1.994057 0
0.447067 0.520687 1.748913 0
0.756236 0.458481 1.452737 0
0.759721 0.667064 2.018626 0
0.386467 0.469120 1.437777 0
1.112019 0.451432 1.823613 0
0.412854 0.673387 1.847734 0
0.543864 0.485834 1.215494 0
1.101936 0.630242 2.207186 0
0.286880 0.440284 1.675737 0
0.936500 0.470300 1.409849 0
0.558241 0.821013 1.973008 0
0.348682 0.465697 1.208279 0
1.292078 0.568916 1.989977 0
0.223394 0.661921 1.743307 0
0.667835 0.475676 1.128577 0
0.967225 0.808452 2.277724 0
0.194930 0.448676 1.395941 0
1.229869 0.462992 1.599261 0
0.314814 0.888916 1.815707 0
0.405575 0.476049 1.036069 0
1.235880 0.795511 2.053713 0
0.109724 0.543052 1.663184 0
0.867955 0.480499 1.145442 0
0.627075 0.990339 2.042484 0
0.191271 0.473276 1.132661 0
1.420329 0.591804 1.797456 0
0.122734 0.855523 1.679785 0
0.551159 0.459463 0.964863 0
1.113611 0.957487 2.210845 0
0.056183 0.448697 1.470358 0
1.194100 0.453583 1.339922 0
0.331259 1.053254 1.833324 0
0.271844 0.460428 0.968035 0
1.356085 0.850133 1.870194 0
-0.002105 0.725125 1.602149 0
0.744418 0.478153 0.950042 0
0.811224 1.095226 2.177083 0
0.062215 0.458803 1.171893 0
1.541962 0.502909 1.648773 0
0.107731 1.014850 1.685795 0
0.410261 0.458290 0.859365 0
1.226435 1.053060 2.018618 0
-0.059138 0.520226 1.545959 0
1.048140 0.463624 1.077909 0
0.429897 1.180925 1.904250 0
0.143254 0.438745 0.972477 0
1.463652 0.823004 1.688174 0
-0.051127 0.903874 1.566137 0
0.609708 0.457301 0.824783 0
1.053237 1.169968 2.262317 0
-0.055603 0.452230 1.277358 0
1.444522 0.474391 1.356004 0
0.150831 1.159481 1.713078 0
0.271548 0.451347 0.814714 0
1.349470 1.071597 1.832624 0
-0.142312 0.709808 1.504927 0
0.863367 0.479355 0.866382 0
0.606274 1.279726 2.017350 0
0.031479 0.336848 1.105717 0
1.586160 0.711706 1.547328 0
-0.048394 1.062500 1.570132 0
0.449717 0.465727 0.729373 0
1.200069 1.239398 2.083924 0
-0.160437 0.430343 1.480796 0
1.209625 0.501990 1.039226 0
0.249552 1.284696 1.771536 0
0.159484 0.358695 0.880004 0
1.480946 1.020339 1.666098 0
-0.177676 0.891944 1.484978 0
0.692897 0.471362 0.730602 0
0.892092 1.341296 2.214294 0
-0.093233 0.242400 1.305268 0
1.698359 0.530214 1.426636 0
-0.000186 1.204620 1.604975 0
0.314758 0.429261 0.709021 0
1.334297 1.250183 1.879334 0
-0.240209 0.652429 1.427875 0
1.013981 0.485803 0.832743 0
0.409770 1.389457 1.867141 0
0.066731 0.059063 1.153885 0
1.605739 0.907161 1.511141 0
-0.171599 1.064744 1.472689 0
0.531157 0.452691 0.650474 0
1.119808 1.395641 2.153044 0
-0.222842 0.304613 1.427826 0
1.413549 0.538990 1.066837 0
0.091444 1.334514 1.654131 0
0.209198 0.286059 0.795895 0
1.467982 1.200660 1.688212 0
-0.275478 0.847713 1.411945 0
0.814753 0.473333 0.683032 0
0.663435 1.467825 2.047604 0
-0.098175 0.043066 1.287379 0
1.717132 0.733880 1.370656 0
-0.127200 1.210730 1.510683 0
0.378072 0.424618 0.618229 0
0.652472 0.495167 1.834637 0
0.590970 0.580063 1.889654 0
0.546021 0.465856 1.599029 0
0.928771 0.503906 2.071484 0
0.382597 0.574254 1.759301 0
0.708870 0.485431 1.503378 0
0.703994 0.701362 2.075460 0
0.347250 0.480892 1.501582 0
1.058204 0.481629 1.887393 0
0.347516 0.726615 1.852584 0
0.525576 0.471312 1.303564 0
1.017106 0.686859 2.225556 0
0.236845 0.465794 1.728372 0
0.902663 0.482275 1.481835 0
0.481391 0.881420 1.955648 0
0.310438 0.482470 1.256879 0
1.233023 0.603550 2.052801 0
0.156255 0.733649 1.708228 0
0.633889 0.488947 1.184464 0
0.852881 0.886929 2.220846 0
0.149043 0.476273 1.434586 0
1.195198 0.476755 1.681591 0
0.242712 0.955120 1.770485 0
0.380206 0.472336 1.100920 0
1.178011 0.831219 2.112672 0
0.049197 0.613061 1.639140 0
0.870171 0.453636 1.249054 0
0.537547 1.055483 1.993045 0
0.161219 0.464890 1.202558 0
1.367989 0.620603 1.864902 0
0.062900 0.916872 1.646610 0
0.517581 0.474469 1.012898 0
1.051116 0.998306 2.260878 0
0.017215 0.426224 1.575323 0
1.153895 0.472001 1.406027 0
0.261926 1.109846 1.796051 0
0.239981 0.469965 1.015539 0
1.301407 0.882412 1.928126 0
-0.057806 0.797253 1.557512 0
0.719955 0.481544 1.011754 0
0.716547 1.155267 2.136039 0
0.024668 0.466494 1.223902 0
1.490066 0.529644 1.717758 0
0.047177 1.075911 1.634448 0
0.378777 0.472091 0.903457 0
1.172678 1.087960 2.074464 0
-0.111293 0.586244 1.527021 0
1.013733 0.477688 1.139019 0
0.347481 1.240676 1.833673 0
0.109216 0.451862 1.014641 0
1.408107 0.853443 1.743374 0
-0.102313 0.964118 1.527425 0
0.583005 0.464115 0.877757 0
0.981697 1.215690 2.288474 0
-0.098133 0.468478 1.321494 0
1.426593 0.476172 1.447889 0
0.088423 1.215191 1.657101 0
0.245679 0.451522 0.865624 0
1.294348 1.104303 1.882201 0
-0.189895 0.774930 1.472669 0
0.842796 0.479885 0.930424 0
0.520697 1.332570 1.964827 0
-0.011107 0.379486 1.123403 0
1.526858 0.742044 1.602324 0
-0.098243 1.113844 1.537741 0
0.427453 0.465518 0.781691 0
1.155302 1.273823 2.150918 0
-0.208493 0.506411 1.452385 0
1.220327 0.478710 1.139688 0
0.181442 1.336339 1.709006 0
0.129528 0.360543 0.930220 0
1.422742 1.051333 1.712933 0
-0.222297 0.953790 1.441935 0
0.680825 0.460109 0.795816 0
0.776788 1.397691 2.127754 0
-0.134833 0.169898 1.440990 0
1.665038 0.543814 1.509660 0
-0.051627 1.252499 1.568058 0
0.286894 0.439519 0.751500 0
1.290437 1.281005 1.939840 0
-0.283289 0.714553 1.403310 0
1.007939 0.473331 0.909372 0
0.332380 1.437567 1.800522 0
0.026871 0.062059 1.212575 0
1.537036 0.940070 1.552330 0
-0.215356 1.114237 1.441694 0
0.510912 0.451677 0.703215 0
1.065159 1.434991 2.200610 0
-0.268658 0.376003 1.412104 0
1.434798 0.513725 1.175595 0
0.035562 1.380119 1.606835 0
0.175668 0.306289 0.833728 0
1.419259 1.228977 1.740648 0
-0.315545 0.905849 1.379054 0
0.796842 0.471743 0.742722 0
0.573716 1.514014 1.985350 0
-0.143222 0.028789 1.362236 0
1.659716 0.760518 1.428150 0
-0.172339 1.257411 1.472855 0
0.347225 0.444678 0.655057 0
0.595942 0.531112 1.874367 0
0.518184 0.639819 1.883318 0
0.507531 0.476650 1.668541 0
0.814401 0.596471 2.011092 0
0.324295 0.619969 1.774972 0
0.673172 0.496151 1.570578 0
0.620795 0.766058 2.052853 0
0.309886 0.486912 1.571030 0
1.039726 0.477398 2.003031 0
0.266663 0.812739 1.776163 0
0.497947 0.468733 1.376694 0
0.925721 0.749001 2.214599 0
0.175329 0.527202 1.721316 0
0.885215 0.474534 1.575898 0
0.396179 0.954946 1.886814 0
0.278375 0.482666 1.321695 0
1.184423 0.629396 2.123623 0
0.093249 0.806615 1.658876 0
0.623772 0.465881 1.276578 0
0.730910 0.971708 2.117248 0
0.129792 0.403411 1.602729 0
1.151862 0.495780 1.749078 0
0.182755 1.008331 1.746010 0
0.346130 0.483480 1.148909 0
1.135662 0.856866 2.188155 0
-0.010536 0.700416 1.576246 0
0.830317 0.470917 1.301618 0
0.456166 1.115758 1.938483 0
0.128192 0.460725 1.267630 0
1.316269 0.647216 1.925991 0
0.008468 0.975787 1.608141 0
0.489145 0.478433 1.067320 0
0.988485 1.038701 2.298543 0
-0.036163 0.487466 1.567425 0
1.138735 0.465982 1.496630 0
0.196784 1.165815 1.743703 0
0.212228 0.464337 1.074898 0
1.254569 0.909217 1.988327 0
-0.106994 0.859402 1.522240 0
0.703724 0.471245 1.082788 0
0.602579 1.224993 2.018219 0
-0.015510 0.485244 1.262371 0
1.442858 0.550906 1.785191 0
-0.003348 1.124234 1.608304 0
0.349580 0.478266 0.950579 0
1.136613 1.114664 2.149441 0
-0.160184 0.670351 1.472938 0
0.996430 0.472341 1.214744 0
0.277352 1.292797 1.772221 0
0.077843 0.449454 1.068945 0
1.365646 0.875455 1.805697 0
-0.147592 1.015839 1.499508 0
0.551691 0.475024 0.923733 0
0.879278 1.271058 2.232992 0
-0.137691 0.412457 1.451883 0
1.432478 0.457472 1.561095 0
0.037042 1.260696 1.625435 0
0.216963 0.454942 0.912079 0
1.246314 1.132722 1.931879 0
-0.232671 0.839363 1.433987 0
0.837856 0.459237 1.009204 0
0.443081 1.381002 1.906269 0
-0.055803 0.446232 1.113788 0
1.470660 0.768348 1.652214 0
-0.142809 1.163170 1.501222 0
0.399347 0.472765 0.825998 0
1.109671 1.307348 2.206959 0
-0.251950 0.587543 1.409982 0
1.207663 0.471069 1.220865 0
0.127339 1.378735 1.675666 0
0.097239 0.365193 0.976626 0
1.383717 1.073171 1.772530 0
-0.262164 1.006948 1.409675 0
0.654815 0.464082 0.847209 0
0.685804 1.444722 2.066907 0
-0.183761 0.231195 1.442720 0
1.582569 0.583626 1.544075 0
-0.097972 1.300384 1.516452 0
0.262842 0.435605 0.800985 0
1.246292 1.310125 1.991115 0
-0.322003 0.777381 1.371666 0
0.984895 0.473910 0.971469 0
0.273882 1.477430 1.769785 0
-0.014119 0.057094 1.276661 0
1.493060 0.960405 1.607951 0
-0.254697 1.157599 1.420519 0
0.480677 0.463969 0.744368 0
0.981651 1.476817 2.180944 0
-0.310387 0.455113 1.381579 0
1.432394 0.501105 1.267012 0
-0.012782 1.421518 1.564122 0
0.149399 0.293153 0.891407 0
1.385778 1.251204 1.802107 0
-0.351917 0.958180 1.351338 0
0.786336 0.457524 0.807759 0
0.500472 1.554372 1.939185 0
-0.191354 0.060382 1.396387 0
1.601833 0.784514 1.477338 0
-0.212052 1.299296 1.443170 0
0.326503 0.437950 0.704616 0
0.546685 0.580660 1.872818 0
0.483876 0.669717 1.915693 0
0.490792 0.475168 1.744825 0
0.770360 0.635036 2.030837 0
0.285549 0.660265 1.784617 0
0.667620 0.484762 1.656925 0
0.560461 0.825543 2.016937 0
0.308281 0.440486 1.706875 0
1.021015 0.488682 2.075959 0
0.227823 0.855586 1.772660 0
0.474297 0.480046 1.422459 0
0.878958 0.789797 2.230729 0
0.130012 0.594021 1.689214 0
0.881166 0.466473 1.657775 0
0.353934 0.998279 1.876658 0
0.264114 0.467420 1.396968 0
1.151498 0.656178 2.171211 0
0.059226 0.845905 1.660787 0
0.600906 0.476960 1.320121 0
0.677595 1.018440 2.100719 0
0.099216 0.420083 1.648208 0
1.137450 0.502753 1.817471 0
0.142562 1.056180 1.715478 0
0.328460 0.482381 1.200231 0
1.110789 0.881891 2.244048 0
-0.043700 0.743109 1.574196 0
0.810962 0.478332 1.351160 0
0.403227 1.165199 1.892347 0
0.103466 0.468274 1.312574 0
1.274049 0.677783 1.957005 0
-0.025805 1.024299 1.577038 0
0.468263 0.486605 1.107403 0
0.918588 1.090363 2.260599 0
-0.072101 0.547413 1.548378 0
1.117507 0.476609 1.549653 0
0.156499 1.210465 1.706007 0
0.192747 0.463272 1.122684 0
1.220763 0.936792 2.023621 0
-0.136840 0.898841 1.518435 0
0.689922 0.470474 1.133563 0
0.550382 1.268300 1.985003 0
-0.041772 0.492932 1.306210 0
1.399170 0.579747 1.817846 0
-0.036061 1.168306 1.575545 0
0.330135 0.483256 0.989724 0
1.094460 1.149184 2.166363 0
-0.190145 0.711445 1.472904 0
0.977911 0.478866 1.263495 0
0.245398 1.326349 1.773895 0
0.055137 0.453032 1.111218 0
1.341189 0.895364 1.851696 0
-0.175736 1.061851 1.470198 0
0.530733 0.483973 0.960270 0
0.798811 1.321163 2.155626 0
-0.169427 0.447443 1.468112 0
1.417907 0.463183 1.624148 0
0.004650 1.299938 1.595400 0
0.196618 0.459937 0.949544 0
1.224429 1.156226 1.976333 0
-0.260039 0.876763 1.433124 0
0.817120 0.467234 1.050542 0
0.395746 1.420210 1.865256 0
-0.075082 0.390270 1.216187 0
1.444516 0.785889 1.697111 0
-0.169982 1.204903 1.470174 0
0.381073 0.476916 0.863296 0
1.084664 1.338200 2.248786 0
-0.280291 0.632601 1.406185 0
1.185962 0.480150 1.268022 0
0.093211 1.415133 1.644848 0
0.074197 0.371362 1.014783 0
1.351341 1.096933 1.803082 0
-0.286542 1.049434 1.388657 0
0.637081 0.468200 0.887068 0
0.648468 1.479596 2.069383 0
-0.216235 0.287935 1.439228 0
1.542545 0.606269 1.580258 0
-0.124485 1.333980 1.504970 0
0.243414 0.440387 0.836664 0
1.215206 1.338168 2.018488 0
-0.345919 0.826778 1.351388 0
0.970108 0.475495 1.018585 0
0.238635 1.511222 1.748518 0
-0.046426 0.084869 1.306190 0
1.467387 0.978255 1.647790 0
-0.277979 1.198304 1.392034 0
0.465736 0.462955 0.784372 0
0.934896 1.512092 2.173862 0
-0.336182 0.520414 1.357240 0
1.437026 0.491331 1.338508 0
-0.039901 1.453577 1.552804 0
0.131183 0.281094 0.941972 0
1.355808 1.274953 1.831125 0
-0.373167 1.004034 1.325655 0
0.769322 0.460634 0.848708 0
0.460424 1.588146 1.918822 0
-0.224465 0.114252 1.401983 0
1.569733 0.802133 1.515378 0
-0.235593 1.336902 1.410139 0
0.307767 0.443118 0.738703 0
0.532382 0.625043 1.887082 0
0.473707 0.709649 1.938374 0
0.487150 0.500364 1.789352 0
0.775578 0.660197 2.089811 0
0.268380 0.713014 1.778149 0
0.681260 0.487537 1.731545 0
0.527914 0.890923 1.973879 0
0.296255 0.480706 1.727723 0
1.053091 0.489786 2.181015 0
0.210034 0.909358 1.752352 0
0.484363 0.476705 1.492365 0
0.860443 0.840724 2.235424 0
0.114798 0.648032 1.682304 0
0.881496 0.488597 1.702582 0
0.327942 1.057189 1.831196 0
0.261984 0.479369 1.446115 0
0.042951 0.905396 1.626445 0
0.601990 0.489813 1.364658 0
0.656507 1.069352 2.087939 0
0.086556 0.465791 1.660557 0
1.206530 0.471740 1.958675 0
0.127665 1.104548 1.693223 0
0.333433 0.478420 1.259285 0
1.095588 0.928974 2.255847 0
-0.055456 0.795227 1.561295 0
0.807807 0.498906 1.387066 0
0.392952 1.206447 1.898105 0
0.101450 0.469586 1.371165 0
1.262311 0.716739 1.979905 0
-0.034004 1.060378 1.587432 0
0.475205 0.483838 1.160765 0
0.905854 1.137198 2.269701 0
-0.083465 0.598729 1.546238 0
1.149615 0.470324 1.629971 0
0.148166 1.248207 1.712627 0
0.187123 0.479607 1.157238 0
1.223011 0.970713 2.060494 0
-0.146748 0.957001 1.481444 0
0.686978 0.486641 1.168302 0
0.541025 1.309958 1.992431 0
-0.040512 0.443753 1.426198 0
1.371773 0.625715 1.824753 0
-0.046055 1.210910 1.558125 0
0.333893 0.479237 1.039259 0
1.096624 1.188024 2.200771 0
-0.198798 0.773594 1.443687 0
1.007340 0.466325 1.335097 0
0.226117 1.372062 1.732394 0
0.048276 0.470542 1.144450 0
1.327964 0.932895 1.867288 0
-0.183400 1.105338 1.454487 0
0.541665 0.474578 1.013427 0
0.792260 1.364307 2.170376 0
-0.179229 0.489422 1.481579 0
1.433666 0.475406 1.681075 0
-0.004860 1.339276 1.581606 0
0.189112 0.480144 0.976432 0
1.220907 1.193149 1.998584 0
-0.265641 0.934348 1.399174 0
0.824369 0.470685 1.095393 0
0.381723 1.461626 1.850240 0
-0.083147 0.407366 1.253697 0
1.441050 0.815155 1.726394 0
-0.177153 1.244089 1.457646 0
