ply
format ascii 1.0
element vertex 1572
property float x
property float y
property float z
property uchar label
end_header
0.244730 0.016534 -0.166966 0
-0.716276 0.035753 0.096037 0
-0.172245 0.052606 -0.820665 0
0.038294 0.032813 0.201698 0
-0.587186 0.455513 -0.259514 0
0.230092 0.030548 -0.459928 0
-0.429340 0.034298 0.285785 0
-0.335182 0.420449 -0.609944 0
0.235486 0.019055 0.011379 0
-0.808846 0.162099 -0.042340 0
0.041478 0.035580 -0.763156 0
-0.109594 0.031033 0.309818 0
-0.556135 0.474773 -0.435935 0
0.313604 0.019502 -0.278363 0
-0.645812 0.057388 0.237332 0
-0.233349 0.246035 -0.802206 0
0.161397 0.025493 0.179643 0
-0.669554 0.453807 -0.162902 0
0.226189 0.033155 -0.615445 0
-0.313355 0.026746 0.369021 0
-0.456744 0.468630 -0.602908 0
0.330074 0.012264 -0.077833 0
-0.842564 0.106670 0.105047 0
-0.062748 0.028853 -0.934448 0
0.023951 0.024965 0.319723 0
-0.669428 0.486225 -0.362536 0
0.350137 0.018213 -0.421810 0
-0.548447 0.047035 0.357455 0
-0.283470 0.456212 -0.709936 0
0.278297 0.037261 0.120736 0
-0.804045 0.352636 -0.060572 0
0.174753 0.025104 -0.795409 0
-0.171568 0.027514 0.415478 0
-0.591437 0.496497 -0.563337 0
0.402401 0.011300 -0.199499 0
-0.744841 0.141613 0.257768 0
-0.141616 0.246172 -0.900840 0
0.160807 0.036439 0.291254 0
-0.744914 0.501288 -0.245245 0
0.349772 0.009629 -0.595044 0
-0.423386 0.021543 0.450261 0
-0.433906 0.485253 -0.725129 0
0.380022 0.017005 0.025186 0
-0.848467 0.291364 0.085492 0
0.076416 0.050183 -0.960056 0
-0.020938 0.028405 0.424564 0
-0.710001 0.522205 -0.476114 0
0.445812 0.023288 -0.345776 0
-0.690003 0.056761 0.396782 0
-0.235939 0.419332 -0.846645 0
0.287483 0.031833 0.228987 0
-0.810127 0.482765 -0.110896 0
0.306246 0.021287 -0.777355 0
-0.259284 0.031612 0.502024 0
-0.576704 0.528109 -0.679710 0
0.462584 0.012675 -0.100936 0
-0.895300 0.163573 0.243709 0
-0.039578 0.196501 -1.004263 0
0.128946 0.030678 0.397378 0
-0.306536 0.028883 -0.214955 0
-0.321852 0.030444 -0.303475 0
-0.208506 0.027084 -0.132266 0
-0.464442 0.039122 -0.216020 0
-0.186955 0.020620 -0.332002 0
-0.300336 0.044441 -0.023240 0
-0.460929 0.040371 -0.395290 0
-0.080740 0.025770 -0.172048 0
-0.511537 0.038817 -0.081904 0
-0.256523 0.029758 -0.474262 0
-0.160022 0.037199 0.018469 0
-0.549395 0.147377 -0.286846 0
-0.041324 0.015083 -0.323768 0
-0.408030 0.048689 0.064720 0
-0.400386 0.119420 -0.509711 0
-0.013699 0.037506 -0.051458 0
-0.663381 0.054051 -0.137564 0
-0.119237 0.019842 -0.510636 0
-0.228501 0.032985 0.129044 0
-0.488583 0.304197 -0.366185 0
0.064441 0.025605 -0.221338 0
-0.566601 0.053180 0.068374 0
-0.300321 0.084591 -0.622306 0
-0.029365 0.038523 0.080320 0
-0.660954 0.223282 -0.223889 0
0.032353 0.037066 -0.442724 0
-0.359317 0.043879 0.196608 0
-0.411267 0.351693 -0.477376 0
0.110831 0.031732 -0.079221 0
-0.745487 0.053816 -0.010909 0
-0.144510 0.040259 -0.662002 0
-0.114241 0.038761 0.199008 0
-0.538789 0.435749 -0.299503 0
0.146062 0.033925 -0.318865 0
-0.536073 0.056540 0.203634 0
-0.320142 0.294871 -0.610459 0
0.091704 0.029759 0.073357 0
-0.765421 0.221260 -0.127862 0
0.030745 0.015767 -0.603066 0
-0.263793 0.031077 0.284149 0
-0.483494 0.458408 -0.443597 0
0.204945 0.022106 -0.158417 0
-0.740974 0.063821 0.134870 0
-0.221523 0.091406 -0.780050 0
0.009855 0.037710 0.216229 0
-0.631541 0.463335 -0.229288 0
0.181464 0.037620 -0.450115 0
-0.456052 0.045919 0.315167 0
-0.372359 0.449570 -0.571972 0
0.201339 0.024479 0.019981 0
-0.844135 0.180904 -0.001460 0
-0.019596 0.031379 -0.756605 0
-0.135924 0.034668 0.329361 0
-0.621501 0.464607 -0.419320 0
0.270202 0.021972 -0.272537 0
-0.674865 0.071447 0.273491 0
-0.252162 0.334786 -0.717891 0
0.131830 0.024980 0.190182 0
-0.715347 0.459072 -0.130454 0
0.170855 0.022240 -0.615506 0
-0.338693 0.033422 0.395219 0
-0.508505 0.477402 -0.578014 0
0.293031 0.022619 -0.070813 0
-0.851895 0.151660 0.148727 0
-0.115040 0.076146 -0.887580 0
0.000212 0.035129 0.334476 0
-0.729976 0.483364 -0.337467 0
0.302455 0.035881 -0.410406 0
-0.577300 0.053388 0.391504 0
-0.337336 0.462672 -0.690814 0
0.247418 0.034214 0.127345 0
-0.778424 0.429415 -0.007180 0
0.115609 0.033282 -0.783370 0
-0.195924 0.028934 0.437778 0
-0.651900 0.497693 -0.541405 0
0.361165 0.019579 -0.194372 0
-0.774683 0.154327 0.297311 0
-0.199664 0.259765 -0.878186 0
0.135708 0.041872 0.301913 0
-0.817742 0.486608 -0.221007 0
0.296637 0.030827 -0.580092 0
-0.448187 0.026938 0.480725 0
-0.488792 0.494303 -0.701428 0
0.346027 0.023941 0.029760 0
-0.862417 0.326245 0.129204 0
0.005054 0.024404 -0.973373 0
-0.042836 0.032684 0.441402 0
-0.742640 0.549870 -0.432427 0
0.400602 0.018699 -0.346017 0
-0.720953 0.061883 0.436080 0
-0.269079 0.469737 -0.786555 0
0.260097 0.031588 0.235719 0
-0.884464 0.465505 -0.080713 0
0.246162 0.004540 -0.784709 0
-0.281913 0.032961 0.527875 0
-0.612041 0.558542 -0.634291 0
0.424621 0.012771 -0.099707 0
-0.922976 0.182088 0.287808 0
-0.082343 0.268664 -0.929032 0
0.107360 0.038233 0.408760 0
-0.334238 0.048833 -0.181418 0
-0.354807 0.044611 -0.270750 0
-0.234945 0.044779 -0.102716 0
-0.499501 0.045176 -0.182052 0
-0.226581 0.019240 -0.308399 0
-0.329472 0.047630 0.005881 0
-0.496022 0.055982 -0.357874 0
-0.109641 0.040908 -0.146432 0
-0.540525 0.049084 -0.045455 0
-0.300154 0.030678 -0.448460 0
-0.187541 0.038530 0.043327 0
-0.592052 0.144959 -0.254100 0
-0.075273 0.029673 -0.298328 0
-0.430051 0.062395 0.098379 0
-0.429912 0.149254 -0.465979 0
-0.042071 0.040234 -0.030857 0
-0.696978 0.061681 -0.097418 0
-0.163715 0.018593 -0.489480 0
-0.251292 0.039342 0.156687 0
-0.522928 0.314488 -0.330847 0
0.030001 0.023322 -0.204519 0
-0.594335 0.058657 0.106042 0
-0.333518 0.117241 -0.577739 0
-0.054920 0.036618 0.101146 0
-0.718178 0.202326 -0.193969 0
-0.010519 0.028089 -0.428809 0
-0.382577 0.046504 0.228345 0
-0.441001 0.372248 -0.437863 0
0.081358 0.030786 -0.062975 0
-0.776795 0.060769 0.031958 0
-0.189435 0.051075 -0.633688 0
-0.134575 0.044243 0.223144 0
-0.571191 0.444764 -0.263849 0
0.107430 0.019724 -0.308949 0
-0.562073 0.057515 0.240922 0
-0.350822 0.323088 -0.566662 0
0.067313 0.031560 0.090883 0
-0.812381 0.213101 -0.089268 0
-0.015981 0.012774 -0.586896 0
-0.285344 0.029432 0.313496 0
-0.524519 0.460956 -0.413390 0
0.173874 0.027040 -0.143506 0
-0.746386 0.099242 0.179393 0
-0.247157 0.155612 -0.712284 0
-0.010862 0.037343 0.236504 0
-0.670064 0.464581 -0.194371 0
0.139453 0.025412 -0.441623 0
-0.474952 0.051872 0.350335 0
-0.409930 0.460389 -0.538908 0
0.175282 0.023954 0.033887 0
-0.836105 0.231971 0.050389 0
-0.071244 0.028459 -0.739741 0
-0.151939 0.041610 0.354211 0
-0.660936 0.470686 -0.383547 0
0.235880 0.033158 -0.257054 0
-0.695684 0.079694 0.315324 0
-0.281482 0.371554 -0.666457 0
0.111400 0.028684 0.206684 0
-0.757537 0.455646 -0.093669 0
0.126879 0.036298 -0.593352 0
-0.359148 0.028701 0.428210 0
-0.554542 0.479131 -0.548750 0
0.264086 0.015442 -0.061032 0
-0.871545 0.167449 0.195645 0
-0.165416 0.089770 -0.856608 0
-0.016124 0.038333 0.355251 0
-0.766250 0.491858 -0.297449 0
0.263608 0.041552 -0.397098 0
-0.594646 0.060090 0.430816 0
-0.380758 0.469520 -0.661424 0
0.224927 0.033375 0.140016 0
-0.806600 0.437485 0.035666 0
0.061901 0.018176 -0.777997 0
-0.208965 0.035829 0.464674 0
-0.686935 0.512086 -0.499555 0
0.328653 0.023768 -0.183937 0
-0.801318 0.155388 0.342834 0
-0.225449 0.320719 -0.803998 0
0.118514 0.042526 0.318438 0
-0.855000 0.492610 -0.179259 0
0.252702 0.041040 -0.563434 0
-0.467823 0.022189 0.518273 0
-0.537441 0.496800 -0.672828 0
0.320581 0.028169 0.040014 0
-0.871522 0.351068 0.176529 0
-0.051394 0.028584 -0.951995 0
-0.057793 0.029265 0.464813 0
-0.778988 0.560556 -0.391332 0
0.362981 0.032601 -0.332423 0
-0.739436 0.067539 0.480520 0
-0.322349 0.464157 -0.770298 0
0.241004 0.031020 0.248228 0
-0.903019 0.485127 -0.032374 0
0.196500 0.021986 -0.760508 0
-0.294756 0.034774 0.558867 0
-0.651169 0.570407 -0.595102 0
0.394690 0.019015 -0.090904 0
-0.951355 0.184845 0.337869 0
-0.130167 0.285707 -0.894677 0
0.091924 0.029884 0.427630 0
-0.373916 0.039960 -0.153693 0
-0.397780 0.035499 -0.243410 0
-0.264842 0.050395 -0.074004 0
-0.525154 0.065565 -0.141654 0
-0.261542 0.029025 -0.278374 0
-0.357537 0.050973 0.037225 0
-0.524874 0.079860 -0.314754 0
-0.142278 0.040645 -0.122885 0
-0.567454 0.060313 -0.006463 0
-0.345346 0.027388 -0.421768 0
-0.213204 0.042697 0.070487 0
-0.644682 0.127237 -0.223268 0
-0.111491 0.033256 -0.274820 0
-0.453783 0.069915 0.133453 0
-0.461231 0.172406 -0.423559 0
-0.070215 0.041393 -0.008744 0
-0.730533 0.067290 -0.054850 0
-0.199486 0.042047 -0.454076 0
-0.274635 0.041348 0.185971 0
-0.544903 0.340255 -0.286041 0
0.002166 0.050700 -0.177266 0
-0.623559 0.059463 0.145880 0
-0.371190 0.136683 -0.538624 0
-0.077690 0.042549 0.124362 0
-0.755504 0.206057 -0.152286 0
-0.050996 0.030419 -0.407572 0
-0.406011 0.046069 0.262188 0
-0.472525 0.388044 -0.398946 0
0.053525 0.036907 -0.043672 0
-0.803501 0.071436 0.078118 0
-0.233482 0.062658 -0.602396 0
-0.155758 0.043643 0.248883 0
-0.608921 0.446378 -0.228916 0
0.074738 0.044498 -0.283055 0
-0.589651 0.053497 0.280795 0
-0.383222 0.345232 -0.524882 0
0.044131 0.036317 0.110186 0
-0.841365 0.224238 -0.042565 0
-0.053371 0.047779 -0.547860 0
-0.303960 0.031837 0.344525 0
-0.565190 0.463486 -0.380253 0
0.142703 0.027577 -0.128121 0
-0.744291 0.140622 0.225127 0
-0.289799 0.172841 -0.675244 0
-0.029474 0.042255 0.258245 0
-0.704984 0.468776 -0.155277 0
0.100806 0.040622 -0.418739 0
-0.499389 0.044793 0.388746 0
-0.449000 0.468150 -0.505486 0
0.150818 0.033591 0.050560 0
-0.841174 0.264588 0.100409 0
-0.121889 0.030495 -0.716919 0
-0.168711 0.042298 0.381076 0
-0.700888 0.475392 -0.345507 0
0.200651 0.026408 -0.245892 0
-0.718548 0.082330 0.359895 0
-0.317434 0.392115 -0.625765 0
0.092187 0.035080 0.224531 0
-0.797396 0.453784 -0.053001 0
0.081022 0.035232 -0.577543 0
-0.372355 0.036445 0.461472 0
-0.600747 0.480505 -0.516500 0
0.235903 0.021296 -0.047255 0
-0.892734 0.178891 0.244841 0
-0.217044 0.098513 -0.826609 0
-0.032157 0.038236 0.377656 0
-0.818043 0.485059 -0.261861 0
0.224601 0.042443 -0.384119 0
-0.617418 0.055217 0.473994 0
-0.424377 0.475704 -0.629779 0
0.202896 0.031996 0.153920 0
-0.838509 0.440510 0.080423 0
0.010075 0.018904 -0.759318 0
-0.219616 0.045140 0.492576 0
-0.724541 0.522642 -0.457571 0
0.296286 0.021774 -0.173799 0
-0.823758 0.159168 0.390899 0
-0.243606 0.388143 -0.723077 0
0.102047 0.042339 0.336234 0
-0.896522 0.493901 -0.136032 0
0.208196 0.040111 -0.550890 0
-0.478908 0.030193 0.555407 0
-0.586664 0.498622 -0.641457 0
0.295461 0.024173 0.050416 0
-0.911267 0.343863 0.224853 0
-0.105013 0.043372 -0.919423 0
-0.070636 0.029420 0.489079 0
-0.806809 0.577289 -0.343445 0
0.325937 0.035142 -0.321661 0
-0.768883 0.055433 0.530752 0
-0.369562 0.469335 -0.740724 0
0.222863 0.035263 0.261822 0
-0.936525 0.490397 0.014920 0
0.146657 0.032231 -0.738972 0
-0.307332 0.033278 0.592240 0
-0.685388 0.585834 -0.549873 0
0.365304 0.019396 -0.082117 0
-1.006642 0.157682 0.394295 0
-0.188679 0.274657 -0.883172 0
0.079247 0.033035 0.446245 0
-0.407194 0.050000 -0.125750 0
-0.439155 0.035801 -0.217947 0
-0.298091 0.052546 -0.050846 0
-0.577733 0.044480 -0.116992 0
-0.290802 0.057393 -0.247517 0
-0.387389 0.054638 0.064016 0
-0.553252 0.107719 -0.276160 0
-0.176183 0.042615 -0.103642 0
-0.611320 0.047902 0.024045 0
-0.389418 0.033105 -0.396794 0
-0.239544 0.049498 0.093292 0
-0.685486 0.132098 -0.189288 0
-0.152194 0.028864 -0.259314 0
-0.480407 0.075325 0.163863 0
-0.484996 0.211263 -0.379783 0
-0.100245 0.041945 0.008585 0
-0.764745 0.075799 -0.016386 0
-0.248631 0.033723 -0.439650 0
-0.298160 0.046796 0.210860 0
-0.586040 0.343559 -0.256399 0
-0.035918 0.037867 -0.166613 0
-0.651218 0.065933 0.181776 0
-0.402877 0.171370 -0.497632 0
-0.098311 0.061063 0.143858 0
-0.784039 0.224286 -0.110953 0
-0.092469 0.036556 -0.390359 0
-0.429343 0.049095 0.291629 0
-0.494976 0.419865 -0.356764 0
0.024806 0.045796 -0.028653 0
-0.819762 0.098172 0.121147 0
-0.291775 0.045066 -0.594383 0
-0.177167 0.046861 0.270117 0
-0.649233 0.449372 -0.197436 0
0.035715 0.039405 -0.273151 0
-0.616263 0.053998 0.316489 0
-0.412153 0.376128 -0.483891 0
0.019449 0.040593 0.124801 0
-0.853050 0.257346 0.004049 0
-0.106911 0.026801 -0.545188 0
-0.322433 0.037713 0.370753 0
-0.617153 0.457880 -0.356548 0
0.111476 0.039142 -0.114908 0
-0.768226 0.149854 0.265373 0
-0.322753 0.214346 -0.629009 0
-0.049959 0.044936 0.275417 0
-0.761512 0.455311 -0.126144 0
0.057410 0.034650 -0.410999 0
-0.519788 0.047619 0.422014 0
-0.496677 0.469431 -0.482311 0
0.124617 0.039241 0.062006 0
-0.860131 0.284062 0.144087 0
-0.172548 0.040358 -0.696105 0
-0.188092 0.039103 0.403805 0
-0.726136 0.499097 -0.301923 0
0.165328 0.036960 -0.234163 0
-0.742275 0.085991 0.400324 0
-0.345582 0.429072 -0.579528 0
0.071622 0.041095 0.237732 0
-0.824897 0.467199 -0.011508 0
0.030876 0.022410 -0.574385 0
-0.386488 0.044436 0.489971 0
-0.654952 0.478689 -0.492088 0
0.206934 0.033937 -0.036961 0
-0.916048 0.190193 0.289992 0
-0.237019 0.189813 -0.743005 0
-0.047534 0.046097 0.394701 0
-0.858627 0.493202 -0.222891 0
0.184251 0.045244 -0.375772 0
-0.636826 0.057605 0.511934 0
-0.477679 0.474363 -0.610830 0
0.179381 0.030750 0.163251 0
-0.863385 0.452923 0.123414 0
-0.039297 0.039309 -0.734741 0
-0.235791 0.042276 0.517825 0
-0.760184 0.539463 -0.416975 0
0.262885 0.033092 -0.164891 0
-0.861463 0.146979 0.437416 0
-0.273411 0.430290 -0.672014 0
0.084492 0.043939 0.349325 0
-0.938041 0.499238 -0.094706 0
0.162297 0.041991 -0.542877 0
-0.499316 0.022633 0.591242 0
-0.635879 0.506320 -0.611640 0
0.269253 0.034918 0.058085 0
-0.941128 0.348861 0.270778 0
-0.145918 0.102702 -0.860431 0
-0.083972 0.032130 0.508177 0
-0.834235 0.597981 -0.298469 0
0.287405 0.027477 -0.320019 0
-0.790666 0.055432 0.574925 0
-0.412445 0.486456 -0.707475 0
0.203128 0.036153 0.270843 0
-0.979778 0.491088 0.058421 0
0.093423 0.027908 -0.734018 0
-0.318873 0.036414 0.619808 0
-0.712063 0.612237 -0.502176 0
0.334471 0.025131 -0.076942 0
-1.023090 0.172839 0.443324 0
-0.214674 0.345381 -0.806270 0
0.065406 0.036666 0.460031 0
-0.478312 0.027704 -0.116987 0
-0.511465 0.020406 -0.209168 0
-0.361567 0.031206 -0.042747 0
-0.638030 0.050234 -0.096317 0
-0.358528 0.042268 -0.243496 0
-0.439562 0.053613 0.080649 0
-0.578327 0.174059 -0.236551 0
-0.232126 0.035669 -0.097216 0
-0.671924 0.046325 0.046791 0
-0.455364 0.039621 -0.385108 0
-0.292468 0.035777 0.104395 0
-0.726893 0.169196 -0.157064 0
-0.211436 0.027662 -0.254515 0
-0.538431 0.061513 0.184508 0
-0.506879 0.283593 -0.334166 0
-0.148940 0.039793 0.015448 0
-0.813129 0.098411 0.014394 0
-0.317234 0.030774 -0.436305 0
-0.345389 0.040131 0.226508 0
-0.634215 0.367392 -0.229908 0
-0.088874 0.039237 -0.162883 0
-0.689598 0.089075 0.209713 0
-0.437124 0.236038 -0.455212 0
-0.145883 0.045681 0.151422 0
-0.813448 0.269930 -0.073338 0
-0.154544 0.037217 -0.388285 0
-0.472172 0.051698 0.312759 0
-0.537094 0.452241 -0.327882 0
-0.023229 0.043233 -0.026001 0
-0.832956 0.157354 0.157169 0
-0.350634 0.078017 -0.572847 0
-0.220757 0.036319 0.282655 0
-0.706062 0.461050 -0.173320 0
-0.021078 0.035922 -0.274214 0
-0.668004 0.048805 0.344900 0
-0.441686 0.434382 -0.440477 0
-0.020704 0.049807 0.130215 0
-0.846379 0.334874 0.048287 0
-0.170386 0.041580 -0.537658 0
-0.362605 0.035199 0.389293 0
-0.668332 0.481255 -0.329734 0
0.063774 0.050136 -0.112356 0
-0.818860 0.154676 0.298488 0
-0.344365 0.311008 -0.562168 0
-0.087161 0.046884 0.283470 0
-0.807932 0.477959 -0.094110 0
-0.002758 0.036831 -0.412127 0
-0.561791 0.046934 0.448190 0
-0.564015 0.475889 -0.470622 0
0.081736 0.042103 0.063250 0
-0.872196 0.335503 0.181920 0
-0.235386 0.072336 -0.677365 0
-0.222346 0.042015 0.417339 0
-0.804538 0.497417 -0.285183 0
0.111903 0.035104 -0.237566 0
-0.773634 0.108704 0.431772 0
-0.393422 0.463437 -0.551491 0
0.035287 0.048447 0.241545 0
-0.878353 0.480993 0.021384 0
-0.033829 0.032261 -0.572756 0
-0.432339 0.024299 0.515335 0
-0.708530 0.505861 -0.463236 0
0.160947 0.035400 -0.038988 0
-0.947806 0.218994 0.327695 0
-0.274615 0.271773 -0.683948 0
-0.081537 0.044055 0.403725 0
-0.905935 0.520735 -0.187219 0
0.125699 0.038286 -0.383447 0
-0.688584 0.042070 0.546666 0
-0.549229 0.481078 -0.602627 0
0.140217 0.034373 0.163209 0
-0.910820 0.468356 0.159830 0
-0.113850 0.035888 -0.742075 0
-0.268210 0.040997 0.534576 0
-0.796746 0.580073 -0.376275 0
0.212722 0.032137 -0.169987 0
-0.923320 0.135015 0.479197 0
-0.324499 0.464554 -0.644855 0
0.050890 0.044370 0.353217 0
-0.984956 0.524719 -0.056578 0
0.096138 0.025231 -0.558145 0
-0.529688 0.030867 0.616317 0
-0.675713 0.550976 -0.569367 0
0.226892 0.037449 0.054838 0
-0.966433 0.381790 0.310263 0
-0.208983 0.145560 -0.832598 0
-0.113481 0.034461 0.518465 0
-0.864121 0.639396 -0.255623 0
0.232683 0.037571 -0.322852 0
-0.829855 0.061244 0.612042 0
-0.482199 0.497280 -0.699145 0
0.168113 0.042677 0.270267 0
-1.019175 0.518426 0.099423 0
0.019556 0.016002 -0.749490 0
-0.346711 0.040831 0.639093 0
-0.734499 0.664889 -0.451126 0
0.287605 0.029344 -0.082278 0
-1.046286 0.206552 0.483914 0
-0.231625 0.460446 -0.708035 0
0.034318 0.031750 0.465730 0
-0.512280 0.038917 -0.094647 0
-0.550683 0.028657 -0.187170 0
-0.392262 0.042036 -0.023619 0
-0.682524 0.046672 -0.072572 0
-0.397031 0.050697 -0.225777 0
-0.466129 0.064879 0.102484 0
-0.619723 0.179833 -0.213258 0
-0.265827 0.041406 -0.083068 0
-0.705366 0.052539 0.074804 0
-0.479139 0.085713 -0.349745 0
-0.319117 0.043366 0.121390 0
-0.768561 0.174309 -0.129070 0
-0.251934 0.029075 -0.243291 0
-0.567396 0.063966 0.209231 0
-0.524569 0.325854 -0.296670 0
-0.182916 0.031327 0.025427 0
-0.838117 0.118845 0.048731 0
-0.362443 0.038261 -0.421283 0
-0.370572 0.042678 0.245385 0
-0.633891 0.421890 -0.185049 0
-0.123972 0.043966 -0.153357 0
-0.707894 0.108320 0.239777 0
-0.455979 0.286583 -0.413474 0
-0.170392 0.052007 0.164027 0
-0.843732 0.285557 -0.039141 0
-0.202234 0.028539 -0.384127 0
-0.496700 0.052617 0.336293 0
-0.576436 0.461730 -0.304378 0
-0.054024 0.045394 -0.018237 0
-0.855853 0.173509 0.191953 0
-0.371678 0.143804 -0.524895 0
-0.244942 0.033261 0.297990 0
-0.745401 0.467858 -0.144963 0
-0.063532 0.024173 -0.272991 0
-0.695403 0.048342 0.375091 0
-0.477969 0.451729 -0.415461 0
-0.047708 0.046166 0.138163 0
-0.822924 0.399563 0.091552 0
-0.223360 0.032897 -0.535629 0
-0.385856 0.030510 0.410217 0
-0.697907 0.503058 -0.296257 0
0.029584 0.045843 -0.109124 0
-0.854529 0.149506 0.333943 0
-0.379745 0.338941 -0.533363 0
-0.108379 0.048439 0.294528 0
-0.862611 0.470321 -0.066424 0
-0.049093 0.026528 -0.413067 0
-0.584978 0.044488 0.476042 0
-0.621621 0.470840 -0.457785 0
0.053111 0.036509 0.067297 0
-0.895850 0.348570 0.218739 0
-0.273217 0.114457 -0.644005 0
-0.243566 0.034688 0.434244 0
-0.847291 0.507014 -0.254365 0
0.075973 0.043341 -0.232777 0
-0.787505 0.123857 0.464441 0
-0.443133 0.466306 -0.538542 0
0.011942 0.042314 0.248540 0
-0.912834 0.489184 0.057290 0
-0.083846 0.030307 -0.570995 0
-0.457687 0.009246 0.541541 0
-0.742942 0.527720 -0.428626 0
0.130698 0.037835 -0.036607 0
-0.976025 0.224123 0.367416 0
-0.298270 0.332768 -0.631787 0
-0.101523 0.035745 0.415986 0
-0.939068 0.536991 -0.149764 0
0.083558 0.036119 -0.383806 0
-0.708030 0.043396 0.578868 0
-0.603498 0.484920 -0.586446 0
0.115734 0.032159 0.166492 0
-0.959791 0.460515 0.197109 0
-0.166237 0.047160 -0.731758 0
-0.282119 0.043834 0.552161 0
-0.807951 0.618173 -0.328539 0
0.178093 0.030583 -0.170749 0
-0.949039 0.136529 0.519446 0
-0.374479 0.469951 -0.632850 0
0.032316 0.043650 0.360214 0
-1.019951 0.536938 -0.017334 0
0.050202 0.036064 -0.552490 0
-0.542451 0.035698 0.642511 0
-0.700136 0.584963 -0.525275 0
0.199649 0.037090 0.055189 0
-0.998948 0.383969 0.351637 0
-0.233805 0.228385 -0.764058 0
-0.128205 0.032876 0.531572 0
-0.898992 0.655151 -0.219597 0
0.193534 0.037967 -0.324498 0
-0.851280 0.060077 0.650364 0
-0.540453 0.498595 -0.688603 0
0.147381 0.040954 0.273242 0
-1.060055 0.522429 0.140034 0
-0.033672 0.023292 -0.745051 0
-0.361585 0.035223 0.661848 0
-0.748766 0.700592 -0.403753 0
0.256107 0.027132 -0.084778 0
-1.052112 0.229621 0.524620 0
-0.277935 0.473689 -0.691797 0
0.019727 0.034016 0.473150 0
-0.540353 0.048152 -0.075443 0
-0.582633 0.036271 -0.167960 0
-0.424863 0.036360 -0.009679 0
-0.712237 0.054847 -0.049697 0
-0.440700 0.033818 -0.217904 0
-0.497412 0.057467 0.119533 0
-0.670050 0.162163 -0.200979 0
-0.290932 0.053296 -0.068688 0
-0.739557 0.048922 0.097545 0
-0.505630 0.108528 -0.326425 0
-0.340629 0.051533 0.136506 0
-0.783597 0.202549 -0.098736 0
-0.283154 0.036323 -0.230813 0
-0.601274 0.050717 0.229980 0
-0.545624 0.349260 -0.270801 0
-0.206029 0.040643 0.037396 0
-0.832036 0.167606 0.081578 0
-0.403268 0.036693 -0.411297 0
-0.393738 0.041012 0.261832 0
-0.663573 0.430146 -0.162928 0
-0.158461 0.030631 -0.149020 0
-0.728717 0.116628 0.264791 0
-0.483513 0.305944 -0.390683 0
-0.195849 0.043098 0.174595 0
-0.811896 0.358140 0.002751 0
-0.240565 0.025572 -0.377572 0
-0.520918 0.047574 0.356841 0
-0.616404 0.460740 -0.289022 0
-0.080530 0.044401 -0.011068 0
-0.886427 0.173809 0.220343 0
-0.384150 0.201231 -0.482911 0
-0.263381 0.036732 0.311506 0
-0.769656 0.481816 -0.118062 0
-0.095223 0.029271 -0.265335 0
-0.715480 0.052849 0.400275 0
-0.518387 0.451365 -0.403354 0
-0.068176 0.052846 0.146761 0
-0.847910 0.407648 0.119632 0
-0.263551 0.036119 -0.527095 0
-0.400897 0.037280 0.427289 0
-0.742005 0.500907 -0.279184 0
0.002228 0.048753 -0.103435 0
-0.885842 0.144253 0.364056 0
-0.405317 0.365489 -0.506541 0
-0.126866 0.048738 0.304780 0
-0.878240 0.491158 -0.034801 0
-0.084516 0.030725 -0.406689 0
-0.599669 0.051250 0.498439 0
-0.660864 0.476652 -0.439753 0
0.030606 0.041366 0.073242 0
-0.895483 0.378836 0.249578 0
-0.303190 0.146959 -0.616781 0
-0.260702 0.032152 0.448800 0
-0.875131 0.521517 -0.225438 0
0.044768 0.041153 -0.230289 0
-0.822296 0.107645 0.496118 0
-0.478792 0.475978 -0.521633 0
-0.006319 0.045788 0.255646 0
-0.938621 0.498634 0.087681 0
-0.125102 0.029027 -0.567873 0
-0.464475 0.026616 0.558496 0
-0.764644 0.551073 -0.396399 0
0.105083 0.037716 -0.033570 0
-1.010524 0.217994 0.401632 0
-0.321036 0.370375 -0.597376 0
-0.115140 0.042374 0.425814 0
-0.960586 0.554893 -0.117126 0
0.049086 0.037189 -0.381278 0
-0.732431 0.033863 0.608431 0
-0.639209 0.498218 -0.564351 0
0.096200 0.039728 0.171206 0
-0.993845 0.460497 0.229105 0
-0.209830 0.053444 -0.723810 0
-0.295485 0.043793 0.567991 0
-0.837472 0.631981 -0.300852 0
0.150236 0.039329 -0.166857 0
-0.982127 0.125933 0.555575 0
-0.411382 0.480454 -0.617035 0
0.016221 0.043341 0.367192 0
-1.037061 0.555929 0.017406 0
0.010260 0.032289 -0.553098 0
-0.553897 0.039797 0.664682 0
-0.712799 0.617867 -0.485019 0
0.176439 0.034706 0.056716 0
-1.047804 0.367680 0.388139 0
-0.254017 0.286068 -0.714665 0
-0.141346 0.031543 0.543414 0
-0.914900 0.677179 -0.185164 0
0.160736 0.034902 -0.325501 0
-0.873400 0.054953 0.683747 0
-0.576075 0.514374 -0.665794 0
0.130130 0.044789 0.277044 0
-1.118894 0.508443 0.172386 0
-0.075388 0.035864 -0.735360 0
-0.368832 0.044078 0.677805 0
-0.777082 0.715902 -0.376246 0
0.229970 0.031356 -0.083770 0
-1.058522 0.247619 0.558010 0
-0.319549 0.477456 -0.683893 0
0.006956 0.036752 0.480319 0
-0.591032 0.041092 -0.065026 0
-0.626927 0.045316 -0.153981 0
-0.463840 0.042962 0.002156 0
-0.750697 0.070912 -0.030665 0
-0.487224 0.036675 -0.208841 0
-0.534337 0.063499 0.133913 0
-0.709464 0.179427 -0.182776 0
-0.339437 0.036241 -0.065136 0
-0.772505 0.067918 0.118121 0
-0.532267 0.149841 -0.301772 0
-0.377317 0.052050 0.147210 0
-0.810040 0.233471 -0.074161 0
-0.324180 0.046340 -0.222226 0
-0.640250 0.052161 0.247450 0
-0.576179 0.374567 -0.250664 0
-0.246922 0.030948 0.042741 0
-0.842004 0.213296 0.107899 0
-0.451117 0.045131 -0.402783 0
-0.424288 0.049774 0.274909 0
-0.679871 0.467397 -0.136034 0
-0.198431 0.034639 -0.143904 0
-0.758323 0.132629 0.285798 0
-0.508500 0.344528 -0.364472 0
-0.228357 0.046634 0.182700 0
-0.813540 0.408132 0.032422 0
-0.283132 0.040106 -0.368669 0
-0.553368 0.051737 0.373646 0
-0.644410 0.487770 -0.266219 0
-0.118241 0.040980 -0.007798 0
-0.889981 0.222149 0.245664 0
-0.422041 0.226512 -0.465741 0
-0.294911 0.036631 0.322044 0
-0.817287 0.487389 -0.100728 0
-0.137488 0.032678 -0.262448 0
-0.741347 0.070100 0.420880 0
-0.557167 0.468027 -0.388027 0
-0.102902 0.045387 0.151122 0
-0.862213 0.440653 0.145827 0
-0.313729 0.041196 -0.523435 0
-0.432823 0.035105 0.442359 0
-0.805071 0.495418 -0.271323 0
-0.038050 0.038541 -0.104440 0
-0.926590 0.147399 0.390327 0
-0.418902 0.424257 -0.465626 0
-0.157646 0.045022 0.312268 0
-0.914229 0.507952 -0.010835 0
-0.129460 0.036129 -0.404313 0
-0.628546 0.057552 0.517998 0
-0.711110 0.485075 -0.428484 0
-0.003592 0.038303 0.075180 0
-0.920580 0.399535 0.275598 0
-0.334775 0.194010 -0.586914 0
-0.286699 0.037518 0.459660 0
-0.910506 0.543111 -0.201185 0
0.002699 0.033866 -0.233050 0
-0.839908 0.132832 0.518422 0
-0.527394 0.482931 -0.514829 0
-0.036716 0.042014 0.259933 0
-0.968616 0.518699 0.114460 0
-0.172443 0.040555 -0.562918 0
-0.495101 0.023195 0.576711 0
-0.794108 0.579549 -0.370082 0
0.070117 0.040856 -0.032800 0
-1.047557 0.227374 0.431259 0
-0.353294 0.404189 -0.572981 0
-0.145713 0.029340 0.435063 0
-0.982306 0.585632 -0.087237 0
0.005309 0.039121 -0.382244 0
-0.761146 0.040191 0.632078 0
-0.675282 0.524143 -0.541734 0
0.065497 0.039862 0.172781 0
-1.021028 0.480961 0.257659 0
-0.249070 0.096745 -0.697403 0
-0.319560 0.047247 0.580610 0
-0.869150 0.656378 -0.275639 0
0.111532 0.035339 -0.169663 0
-1.025328 0.123955 0.587889 0
-0.459405 0.489285 -0.610962 0
-0.010535 0.043162 0.371600 0
-1.077220 0.571969 0.044840 0
-0.039643 0.027339 -0.558921 0
-0.577318 0.046995 0.683669 0
-0.728269 0.658538 -0.448716 0
0.143766 0.036813 0.056281 0
-1.082684 0.379842 0.419170 0
-0.285639 0.331705 -0.681780 0
-0.165287 0.032592 0.552334 0
-0.929098 0.711851 -0.152918 0
0.118833 0.034450 -0.328732 0
-0.919083 0.041618 0.717776 0
-0.614983 0.539005 -0.644988 0
0.102225 0.045052 0.278400 0
-1.239770 0.467235 0.199267 0
-0.125872 0.048787 -0.731019 0
-0.394232 0.040931 0.694734 0
-0.784022 0.757721 -0.338109 0
0.193903 0.028722 -0.086963 0
-1.057580 0.288935 0.582921 0
-0.372525 0.478231 -0.686834 0
-0.016548 0.040092 0.484946 0
-0.633145 0.048971 -0.063914 0
-0.663510 0.064795 -0.150368 0
-0.509395 0.037960 0.000703 0
-0.784776 0.093417 -0.024855 0
-0.541243 0.023204 -0.216948 0
-0.585242 0.049298 0.134651 0
-0.733689 0.214374 -0.173038 0
-0.379246 0.039120 -0.066894 0
-0.806017 0.088674 0.124352 0
-0.535568 0.220171 -0.277546 0
-0.412281 0.059896 0.148642 0
-0.808692 0.294694 -0.056942 0
-0.369204 0.041458 -0.228601 0
-0.674146 0.066816 0.252488 0
-0.576156 0.434252 -0.227993 0
-0.281698 0.039078 0.042253 0
-0.842996 0.269280 0.119852 0
-0.468446 0.102727 -0.383647 0
-0.461806 0.050709 0.277704 0
-0.724000 0.473057 -0.135437 0
-0.238598 0.032841 -0.148759 0
-0.792471 0.147602 0.292822 0
-0.506035 0.413384 -0.334402 0
-0.269358 0.032321 0.181487 0
-0.815131 0.457063 0.046350 0
-0.328805 0.036258 -0.377476 0
-0.592452 0.052451 0.379146 0
-0.694798 0.487769 -0.271492 0
-0.153247 0.045390 -0.010232 0
-0.899069 0.266520 0.254871 0
-0.434056 0.285442 -0.441066 0
-0.327613 0.042030 0.323649 0
-0.859559 0.498987 -0.096682 0
-0.180156 0.024547 -0.271554 0
-0.776556 0.081538 0.428421 0
-0.590863 0.485904 -0.385335 0
-0.135384 0.050656 0.149745 0
-0.877129 0.474553 0.156524 0
-0.358010 0.046863 -0.530005 0
-0.468757 0.035243 0.447051 0
-0.836770 0.518837 -0.264233 0
-0.073214 0.043763 -0.107950 0
-0.999250 0.122597 0.403710 0
-0.439573 0.459939 -0.451664 0
-0.191090 0.042963 0.312469 0
-0.970221 0.510061 -0.007260 0
-0.169805 0.040409 -0.410452 0
-0.670612 0.053172 0.527163 0
-0.739286 0.512617 -0.419878 0
-0.035839 0.045257 0.072712 0
-0.929973 0.438005 0.285784 0
-0.354354 0.246674 -0.564045 0
-0.318064 0.041375 0.462152 0
-0.924645 0.581091 -0.186166 0
-0.034582 0.035385 -0.238984 0
-0.881413 0.136771 0.529829 0
-0.588762 0.468988 -0.537464 0
-0.067724 0.045515 0.258358 0
-1.024156 0.521539 0.122021 0
-0.215786 0.043757 -0.571497 0
-0.523495 0.036219 0.580985 0
-0.810612 0.615947 -0.354776 0
0.035881 0.041183 -0.037622 0
-1.038785 0.286133 0.438024 0
-0.368078 0.452856 -0.548499 0
-0.176434 0.031024 0.435752 0
-0.970561 0.640342 -0.065920 0
-0.033458 0.041639 -0.389292 0
-0.799926 0.043461 0.643012 0
-0.695811 0.559732 -0.526728 0
0.034500 0.044798 0.169844 0
-1.054414 0.500293 0.269432 0
-0.273723 0.150485 -0.673648 0
-0.353934 0.041297 0.586357 0
-0.865204 0.705387 -0.252011 0
0.076579 0.039571 -0.174762 0
-1.050239 0.149956 0.597899 0
-0.520615 0.473086 -0.639432 0
-0.042316 0.036310 0.370863 0
-1.066149 0.625049 0.062939 0
-0.080959 0.031414 -0.567055 0
-0.619918 0.035568 0.696324 0
-0.745982 0.692535 -0.433842 0
0.110683 0.033363 0.050967 0
-1.111523 0.402608 0.431938 0
-0.297327 0.395226 -0.644865 0
-0.195921 0.030571 0.554660 0
-0.920976 0.760248 -0.130972 0
0.082675 0.042893 -0.333238 0
-0.953995 0.053058 0.729795 0
-0.632502 0.578477 -0.625518 0
0.071710 0.043172 0.275407 0
-1.381217 0.420753 0.208530 0
-0.172106 0.047004 -0.745352 0
-0.424765 0.043184 0.700668 0
-0.799288 0.790680 -0.323369 0
0.160162 0.031837 -0.092415 0
-1.053832 0.338444 0.588388 0
-0.414640 0.485112 -0.696640 0
-0.046649 0.035024 0.485183 0
-0.688493 0.036237 -0.074400 0
-0.690493 0.096474 -0.150054 0
-0.556456 0.030951 -0.007342 0
-0.803815 0.134171 -0.022448 0
-0.574421 0.045576 -0.219949 0
-0.636979 0.036141 0.129057 0
-0.721670 0.291058 -0.155867 0
-0.421122 0.036589 -0.075535 0
-0.825510 0.126990 0.125218 0
-0.549867 0.266400 -0.269276 0
-0.455917 0.050911 0.143042 0
-0.765207 0.397403 -0.035384 0
-0.414492 0.034412 -0.241607 0
-0.696388 0.099132 0.251278 0
-0.603938 0.455122 -0.229142 0
-0.319354 0.039040 0.035466 0
-0.846507 0.319981 0.123897 0
-0.486300 0.151097 -0.374491 0
-0.503583 0.045603 0.274807 0
-0.766373 0.480786 -0.141152 0
-0.270237 0.050964 -0.152954 0
-0.851068 0.133721 0.293052 0
-0.527409 0.443217 -0.331190 0
-0.305145 0.033493 0.176357 0
-0.853956 0.468988 0.045235 0
-0.375179 0.027568 -0.394369 0
-0.643100 0.037273 0.379492 0
-0.720569 0.512988 -0.270798 0
-0.189411 0.044081 -0.018240 0
-0.918317 0.299434 0.256340 0
-0.454319 0.322646 -0.434386 0
-0.369247 0.029143 0.320729 0
-0.916776 0.498129 -0.104819 0
-0.213880 0.039043 -0.277394 0
-0.794974 0.116801 0.426568 0
-0.635218 0.489684 -0.398483 0
-0.170863 0.046118 0.143272 0
-0.917053 0.486032 0.157349 0
-0.384986 0.083946 -0.525544 0
-0.504929 0.038090 0.445819 0
-0.869714 0.540179 -0.265958 0
-0.109983 0.038521 -0.118369 0
-1.031114 0.145098 0.405169 0
-0.475947 0.468650 -0.461959 0
-0.232749 0.020210 0.308623 0
-1.006963 0.528802 -0.007015 0
-0.212526 0.030895 -0.428099 0
-0.714768 0.049380 0.529769 0
-0.763554 0.541631 -0.417688 0
-0.069264 0.044994 0.065443 0
-0.949537 0.467167 0.288502 0
-0.368815 0.298796 -0.546777 0
-0.352182 0.042189 0.460084 0
-0.929464 0.624403 -0.176227 0
-0.071602 0.031031 -0.251152 0
-0.920850 0.145909 0.533012 0
-0.625298 0.483795 -0.545976 0
-0.101061 0.041675 0.252818 0
-1.067201 0.535551 0.123384 0
-0.256337 0.046853 -0.585775 0
-0.562486 0.033721 0.582520 0
-0.814852 0.659853 -0.341627 0
0.001796 0.037753 -0.046860 0
-1.085216 0.293781 0.443058 0
-0.400689 0.466188 -0.556489 0
-0.207860 0.034376 0.431979 0
-0.979146 0.678653 -0.058555 0
-0.073770 0.028356 -0.407871 0
-0.842684 0.045079 0.647333 0
-0.712281 0.595781 -0.518519 0
0.001395 0.038328 0.162639 0
-1.154557 0.471290 0.272950 0
-0.287502 0.215187 -0.647314 0
-0.389418 0.038028 0.586469 0
-0.855521 0.755563 -0.234741 0
0.043135 0.042575 -0.183747 0
-1.083629 0.169144 0.601310 0
-0.549467 0.496570 -0.641478 0
-0.074573 0.032341 0.366207 0
-1.071558 0.665534 0.069934 0
-0.119510 0.034174 -0.580864 0
-0.656340 0.039043 0.698642 0
-0.752868 0.732626 -0.421011 0
0.078752 0.034546 0.043172 0
-1.143409 0.424170 0.436675 0
-0.313768 0.438281 -0.629312 0
-0.226985 0.032787 0.551845 0
-0.929868 0.796010 -0.123068 0
0.046991 0.038870 -0.346542 0
-1.001457 0.053350 0.737503 0
-0.648610 0.614976 -0.615796 0
0.040145 0.038160 0.269180 0
-1.436331 0.436077 0.212626 0
-0.211411 0.055575 -0.758404 0
-0.457054 0.046968 0.700787 0
-0.806187 0.827591 -0.312712 0
0.127474 0.031875 -0.101665 0
-1.067146 0.373146 0.589331 0
-0.449598 0.498350 -0.707591 0
-0.077436 0.033649 0.481203 0
-0.726425 0.058608 -0.082860 0
-0.715192 0.137011 -0.152972 0
-0.599028 0.041008 -0.017992 0
-0.819019 0.184319 -0.023526 0
-0.607345 0.075208 -0.226645 0
-0.683931 0.039985 0.119501 0
-0.681344 0.401880 -0.131245 0
-0.470533 0.028871 -0.091317 0
-0.828707 0.189766 0.123634 0
-0.572722 0.303974 -0.270280 0
-0.497836 0.054975 0.133339 0
-0.776510 0.442306 -0.034267 0
-0.464284 0.028707 -0.260639 0
-0.724368 0.128816 0.245031 0
-0.640561 0.470982 -0.238508 0
-0.363207 0.034835 0.022630 0
-0.847683 0.376171 0.123875 0
-0.488035 0.230172 -0.356312 0
-0.549308 0.042696 0.266778 0
-0.814320 0.489497 -0.152547 0
-0.315992 0.042725 -0.170453 0
-0.898542 0.141531 0.287827 0
-0.553513 0.471440 -0.334738 0
-0.344103 0.037217 0.166410 0
-0.899001 0.481134 0.038882 0
-0.420728 0.031431 -0.412604 0
-0.681892 0.049648 0.372958 0
-0.788301 0.502635 -0.295830 0
-0.231656 0.036887 -0.032710 0
-0.921188 0.352889 0.253475 0
-0.459734 0.386634 -0.417653 0
-0.408370 0.032489 0.312455 0
-0.949376 0.524705 -0.108957 0
-0.258275 0.033566 -0.296577 0
-0.833006 0.132390 0.421851 0
-0.694967 0.483856 -0.425382 0
-0.210622 0.041101 0.131838 0
-0.953023 0.506450 0.154369 0
-0.387867 0.174264 -0.497472 0
-0.545857 0.040895 0.439748 0
-0.880626 0.584989 -0.261221 0
-0.150289 0.034572 -0.133850 0
-1.042703 0.193840 0.399302 0
-0.514013 0.481514 -0.476401 0
-0.267852 0.028603 0.299404 0
-1.020563 0.570233 -0.005769 0
-0.255886 0.031800 -0.447554 0
-0.768194 0.040621 0.528231 0
-0.779940 0.582467 -0.414055 0
-0.109075 0.034670 0.051819 0
-0.982797 0.489149 0.286804 0
-0.376974 0.364366 -0.526185 0
-0.396037 0.031362 0.454652 0
-0.926245 0.676719 -0.167291 0
-0.110130 0.034840 -0.266087 0
-0.972720 0.147816 0.532689 0
-0.661283 0.505330 -0.557060 0
-0.136682 0.043553 0.242787 0
-1.134053 0.538469 0.117783 0
-0.300696 0.050415 -0.607073 0
-0.603994 0.035562 0.578393 0
-0.814862 0.710043 -0.330022 0
-0.033628 0.044270 -0.058841 0
-1.092129 0.342003 0.438229 0
-0.443547 0.470628 -0.578791 0
-0.242798 0.038937 0.423564 0
-0.975188 0.728550 -0.051766 0
-0.112232 0.036810 -0.422794 0
-0.884966 0.054684 0.644831 0
-0.713950 0.648979 -0.502658 0
-0.033704 0.039982 0.151480 0
-1.299861 0.419442 0.271370 0
-0.303896 0.275318 -0.629947 0
-0.430857 0.032048 0.582438 0
-0.857670 0.800235 -0.226490 0
0.003723 0.031041 -0.202475 0
-1.070155 0.238827 0.588257 0
-0.594727 0.506136 -0.664045 0
-0.109473 0.033227 0.356802 0
-1.074883 0.710612 0.073199 0
-0.161100 0.038291 -0.600781 0
-0.700096 0.039063 0.697139 0
-0.755411 0.779118 -0.409056 0
0.044116 0.038984 0.031309 0
-1.170474 0.454262 0.435843 0
-0.337900 0.471067 -0.628603 0
-0.263562 0.031121 0.545194 0
-0.941750 0.833474 -0.119700 0
0.008059 0.035131 -0.365443 0
-1.045632 0.064462 0.737062 0
-0.656677 0.662794 -0.602485 0
0.005329 0.035634 0.258543 0
-1.443566 0.487264 0.213596 0
-0.236757 0.110666 -0.746167 0
-0.497692 0.043439 0.698298 0
-0.808924 0.870333 -0.303355 0
0.092149 0.035264 -0.114858 0
-1.059782 0.428693 0.580487 0
-0.475737 0.529309 -0.709945 0
-0.113471 0.027419 0.473418 0
-0.759995 0.095022 -0.085155 0
-0.749954 0.170719 -0.155250 0
-0.658124 0.033935 -0.030145 0
-0.839429 0.232793 -0.021298 0
-0.629749 0.129708 -0.222564 0
-0.723615 0.062672 0.114721 0
-0.698625 0.447146 -0.126343 0
-0.518460 0.036368 -0.102238 0
-0.845046 0.239760 0.124644 0
-0.582169 0.366570 -0.257900 0
-0.553217 0.043748 0.123881 0
-0.816167 0.463245 -0.036600 0
-0.517098 0.031499 -0.276050 0
-0.762148 0.150038 0.241991 0
-0.678632 0.493009 -0.243093 0
-0.406233 0.044044 0.013112 0
-0.855355 0.428271 0.127565 0
-0.510462 0.280611 -0.349722 0
-0.601472 0.036742 0.260965 0
-0.875648 0.493762 -0.163324 0
-0.369053 0.032879 -0.188287 0
-0.927071 0.176689 0.286720 0
-0.608882 0.472115 -0.352976 0
-0.383688 0.048731 0.158370 0
-0.951439 0.493227 0.036240 0
-0.451618 0.079163 -0.410152 0
-0.726572 0.058711 0.369848 0
-0.832344 0.524288 -0.301741 0
-0.272604 0.047498 -0.043123 0
-0.928350 0.404258 0.255277 0
-0.473636 0.443445 -0.403222 0
-0.447436 0.043175 0.305851 0
-0.962301 0.572360 -0.101234 0
-0.304264 0.041485 -0.310854 0
-0.879105 0.142725 0.421791 0
-0.739548 0.504470 -0.434148 0
-0.253591 0.039351 0.121236 0
-1.014976 0.511032 0.153904 0
-0.414484 0.224782 -0.490164 0
-0.583072 0.055610 0.435092 0
-0.871949 0.649481 -0.241733 0
-0.193876 0.037788 -0.147592 0
-1.061824 0.237401 0.399170 0
-0.571229 0.480831 -0.500550 0
-0.307536 0.033108 0.291389 0
-1.022207 0.623871 0.003735 0
-0.302976 0.041963 -0.463108 0
-0.815698 0.045631 0.528235 0
-0.787770 0.636238 -0.398538 0
-0.151291 0.032471 0.039308 0
-1.080183 0.464397 0.290353 0
-0.402493 0.407727 -0.519439 0
-0.437928 0.031679 0.449765 0
-0.925090 0.730601 -0.153418 0
-0.155635 0.034754 -0.283070 0
-1.021587 0.157739 0.535965 0
-0.690564 0.542855 -0.554478 0
-0.176223 0.043472 0.233143 0
-1.204199 0.546065 0.117942 0
-0.334101 0.098218 -0.602496 0
-0.639455 0.051473 0.574622 0
-0.811642 0.766195 -0.310764 0
-0.075932 0.040814 -0.073559 0
-1.115079 0.378570 0.440619 0
-0.488125 0.485078 -0.593811 0
-0.286723 0.026579 0.417799 0
-0.983299 0.773622 -0.042445 0
-0.160448 0.034186 -0.443892 0
-0.947463 0.043301 0.652026 0
-0.712140 0.709606 -0.477679 0
-0.072134 0.042550 0.140283 0
-1.377779 0.424416 0.276569 0
-0.323171 0.338855 -0.609182 0
-0.466586 0.042422 0.577385 0
-0.875212 0.838868 -0.219059 0
-0.038448 0.033686 -0.217743 0
-1.060722 0.304289 0.581779 0
-0.619101 0.549954 -0.655657 0
-0.146862 0.034865 0.347817 0
-1.128648 0.729134 0.074898 0
-0.206720 0.053360 -0.615529 0
-0.733536 0.057600 0.694269 0
-0.754127 0.832268 -0.388435 0
0.004651 0.038542 0.018009 0
-1.179252 0.500525 0.438920 0
-0.381044 0.484207 -0.644964 0
-0.297632 0.041278 0.537896 0
-0.950309 0.876438 -0.109403 0
-0.036900 0.032971 -0.385105 0
-1.086319 0.082373 0.740127 0
-0.652565 0.726801 -0.570960 0
-0.031949 0.036133 0.247756 0
-1.454697 0.539080 0.221594 0
-0.266456 0.168781 -0.731610 0
-0.541122 0.038472 0.698812 0
-0.820813 0.911337 -0.292742 0
0.052757 0.041574 -0.128303 0
-1.068528 0.471685 0.580744 0
-0.517431 0.550775 -0.722026 0
-0.149639 0.028956 0.465196 0
-0.795702 0.159607 -0.072770 0
-0.747829 0.279996 -0.126476 0
-0.733775 0.040561 -0.032824 0
-0.828038 0.340811 0.003337 0
-0.682505 0.172350 -0.217007 0
-0.784975 0.086578 0.118621 0
-0.754611 0.474781 -0.121833 0
-0.593174 0.038401 -0.109435 0
-0.857420 0.317050 0.138734 0
-0.595453 0.448891 -0.231329 0
-0.636712 0.023690 0.120223 0
-0.877973 0.487546 -0.030350 0
-0.559379 0.096675 -0.264181 0
-0.836848 0.152085 0.248284 0
-0.765272 0.491643 -0.255231 0
-0.474080 0.045320 0.007139 0
-0.882616 0.481613 0.141249 0
-0.539543 0.352214 -0.328522 0
-0.662434 0.050624 0.263675 0
-0.934609 0.526438 -0.155945 0
-0.442836 0.030037 -0.200708 0
-0.934660 0.257802 0.297198 0
-0.683504 0.482162 -0.363424 0
-0.446684 0.050772 0.155144 0
-1.002880 0.529629 0.048656 0
-0.478812 0.174016 -0.381567 0
-0.760221 0.111281 0.374496 0
-0.860622 0.584544 -0.281147 0
-0.345313 0.030025 -0.056176 0
-0.938618 0.471440 0.269026 0
-0.531484 0.468491 -0.405814 0
-0.508025 0.046986 0.306346 0
-0.972056 0.641927 -0.077030 0
-0.380986 0.033023 -0.329391 0
-0.969242 0.128391 0.436835 0
-0.777432 0.558815 -0.417211 0
-0.314395 0.040048 0.115030 0
-1.099123 0.522154 0.165839 0
-0.449177 0.298718 -0.466348 0
-0.649221 0.052342 0.441438 0
-0.876820 0.721427 -0.212150 0
-0.260528 0.035268 -0.160599 0
-1.073282 0.308860 0.410612 0
-0.649243 0.489560 -0.517595 0
-0.365823 0.034132 0.288858 0
-1.030838 0.690418 0.026546 0
-0.380165 0.040629 -0.483037 0
-0.849350 0.094620 0.533358 0
-0.798709 0.707549 -0.366482 0
-0.211675 0.032645 0.030051 0
-1.254485 0.407977 0.309054 0
-0.437583 0.469085 -0.498230 0
-0.493468 0.038188 0.451782 0
-0.927475 0.798892 -0.125482 0
-0.223560 0.034556 -0.298687 0
-1.055055 0.206708 0.547091 0
-0.711420 0.614217 -0.522184 0
-0.235610 0.034784 0.227061 0
-1.343733 0.533939 0.127893 0
-0.358740 0.211926 -0.555161 0
-0.705901 0.045852 0.585674 0
-0.819945 0.831285 -0.281037 0
-0.137535 0.038598 -0.086215 0
-1.140823 0.432262 0.456131 0
-0.561458 0.497147 -0.611431 0
-0.340286 0.030722 0.416296 0
-1.009595 0.824987 -0.022654 0
-0.232437 0.033355 -0.463609 0
-1.020872 0.045216 0.671028 0
-0.721515 0.779828 -0.441885 0
-0.127222 0.046169 0.131843 0
-1.398915 0.490464 0.298483 0
-0.357645 0.411073 -0.580227 0
-0.525192 0.038396 0.583682 0
-0.891036 0.895672 -0.194886 0
-0.102415 0.031868 -0.233511 0
-1.050090 0.386912 0.586554 0
-0.641827 0.621847 -0.620350 0
-0.203091 0.025852 0.343267 0
-1.315652 0.696450 0.075023 0
-0.282708 0.055161 -0.638248 0
-0.802040 0.050511 0.711004 0
-0.774053 0.888146 -0.363612 0
-0.052027 0.041499 0.006861 0
-1.196465 0.558383 0.456509 0
-0.450532 0.496415 -0.663502 0
-0.350428 0.040262 0.538887 0
-0.981694 0.923749 -0.090818 0
-0.105189 0.028620 -0.405601 0
-1.115892 0.133358 0.750016 0
-0.660952 0.799013 -0.529802 0
-0.084139 0.039939 0.239665 0
-1.454591 0.616815 0.247132 0
-0.290026 0.288974 -0.669563 0
-0.594494 0.042874 0.706790 0
-0.857353 0.955407 -0.277872 0
-0.007474 0.038000 -0.143738 0
-1.065099 0.539841 0.590249 0
-0.581804 0.578380 -0.730089 0
-0.197556 0.037925 0.460601 0
-0.808916 0.251333 -0.061444 0
-0.742485 0.386229 -0.106087 0
-0.788347 0.084530 -0.035653 0
-0.812277 0.448401 0.019789 0
-0.720038 0.236319 -0.211646 0
-0.821309 0.149587 0.119280 0
-0.823004 0.494731 -0.129520 0
-0.670810 0.043860 -0.123387 0
-0.853752 0.410825 0.146519 0
-0.656203 0.471078 -0.240624 0
-0.711541 0.030103 0.112370 0
-0.946265 0.512144 -0.033756 0
-0.595244 0.168374 -0.256501 0
-0.897513 0.181188 0.247535 0
-0.844147 0.505295 -0.270473 0
-0.548012 0.044561 -0.005547 0
-0.938086 0.513748 0.143195 0
-0.544216 0.450931 -0.299796 0
-0.711276 0.092003 0.260336 0
-0.962517 0.587954 -0.146655 0
-0.520252 0.027744 -0.219908 0
-0.947323 0.335387 0.299067 0
-0.756300 0.499156 -0.380182 0
-0.515483 0.052389 0.146303 0
-1.057842 0.568633 0.051507 0
-0.499246 0.269028 -0.358433 0
-0.828722 0.124760 0.374448 0
-0.871341 0.658246 -0.262592 0
-0.411050 0.039092 -0.068879 0
-1.008142 0.491827 0.273114 0
-0.609350 0.470448 -0.432393 0
-0.576308 0.049088 0.301368 0
-0.983385 0.710436 -0.063511 0
-0.457184 0.032309 -0.351833 0
-1.043001 0.145430 0.440869 0
-0.784452 0.639008 -0.391571 0
-0.379174 0.042306 0.104262 0
-1.223294 0.514756 0.165510 0
-0.466795 0.390392 -0.437731 0
-0.727983 0.043711 0.442336 0
-0.890619 0.785887 -0.197022 0
-0.323056 0.050082 -0.173640 0
-1.069985 0.396570 0.410987 0
-0.708313 0.522384 -0.527448 0
-0.425346 0.045196 0.281813 0
-1.048350 0.752610 0.037491 0
-0.428619 0.101018 -0.478331 0
-0.896242 0.135287 0.532718 0
-0.781336 0.796488 -0.329844 0
-0.276933 0.029503 0.015953 0
-1.323838 0.443377 0.316920 0
-0.500332 0.486256 -0.516649 0
-0.555975 0.045292 0.448814 0
-0.943305 0.858979 -0.112426 0
-0.294066 0.032114 -0.320677 0
-1.045093 0.303972 0.540234 0
-0.718211 0.693300 -0.492078 0
-0.297631 0.033811 0.217389 0
-1.397412 0.585700 0.136140 0
-0.399585 0.276051 -0.543750 0
-0.778980 0.045582 0.589863 0
-0.845709 0.884620 -0.270865 0
-0.198859 0.045564 -0.100602 0
-1.147025 0.505888 0.459047 0
-0.632266 0.514562 -0.635609 0
-0.400281 0.034866 0.410787 0
-1.034535 0.879865 -0.012363 0
-0.301103 0.043155 -0.484154 0
-1.087013 0.068934 0.677164 0
-0.732188 0.845631 -0.419483 0
-0.188920 0.040365 0.119087 0
-1.389644 0.578650 0.308004 0
-0.394372 0.468607 -0.568387 0
-0.591562 0.036594 0.584784 0
-0.921106 0.945948 -0.186623 0
-0.167242 0.032474 -0.252695 0
-1.070973 0.446629 0.588078 0
-0.657330 0.694504 -0.592897 0
-0.258147 0.037192 0.334739 0
-1.259296 0.801576 0.097387 0
-0.319302 0.147603 -0.610971 0
-0.882706 0.043137 0.721923 0
-0.793495 0.943947 -0.349568 0
-0.110994 0.045311 -0.007150 0
-1.198476 0.630552 0.461553 0
-0.519934 0.509540 -0.691579 0
-0.407869 0.045634 0.535073 0
-1.012187 0.974621 -0.081754 0
-0.174378 0.023800 -0.431282 0
-1.119432 0.217976 0.740365 0
-0.666132 0.868790 -0.499879 0
-0.140041 0.045202 0.228994 0
-1.437344 0.705530 0.260069 0
-0.316575 0.378819 -0.634097 0
-0.660775 0.041987 0.711382 0
-0.875124 1.011034 -0.264077 0
-0.069885 0.032967 -0.162854 0
-1.085921 0.594707 0.594727 0
-0.588198 0.665215 -0.686187 0
-0.252811 0.042453 0.453626 0
-0.806217 0.353596 -0.048744 0
-0.746858 0.472824 -0.093382 0
-0.831517 0.141960 -0.038161 0
-0.860311 0.486716 0.017673 0
-0.713009 0.350696 -0.188729 0
-0.841783 0.227856 0.119641 0
-0.902279 0.507838 -0.143370 0
-0.722845 0.090665 -0.129336 0
-0.877688 0.471466 0.148280 0
-0.720854 0.491137 -0.254453 0
-0.773905 0.057596 0.103975 0
-1.004142 0.547594 -0.036692 0
-0.628787 0.237483 -0.251878 0
-0.910675 0.262921 0.246130 0
-0.885872 0.555462 -0.269971 0
-0.629728 0.034976 -0.023487 0
-1.018411 0.527048 0.140039 0
-0.608608 0.466452 -0.317125 0
-0.752983 0.141604 0.254806 0
-0.963033 0.667330 -0.131140 0
-0.588811 0.045679 -0.236210 0
-0.939264 0.427447 0.298689 0
-0.796218 0.550869 -0.378861 0
-0.600607 0.029124 0.131838 0
-1.075007 0.634706 0.058613 0
-0.515509 0.360022 -0.338321 0
-0.898031 0.139443 0.371754 0
-0.864686 0.740588 -0.239845 0
-0.481047 0.041987 -0.086344 0
-1.119354 0.482347 0.274484 0
-0.676016 0.490330 -0.451995 0
-0.655713 0.036237 0.293591 0
-0.983380 0.782983 -0.049839 0
-0.503517 0.091879 -0.352488 0
-1.067170 0.214435 0.436992 0
-0.799057 0.708039 -0.375354 0
-0.439873 0.055916 0.092025 0
-1.344304 0.516928 0.163696 0
-0.488197 0.466937 -0.419525 0
-0.778709 0.078670 0.436372 0
-0.897601 0.851914 -0.182342 0
-0.399638 0.034683 -0.199567 0
-1.147174 0.413605 0.416177 0
-0.728922 0.593826 -0.510216 0
-0.492092 0.043542 0.271983 0
-1.073525 0.808439 0.044565 0
-0.446323 0.212101 -0.448670 0
-0.959254 0.156600 0.532870 0
-0.802079 0.853630 -0.319417 0
-0.338245 0.039702 0.001214 0
-1.354078 0.506034 0.321883 0
-0.574657 0.491741 -0.548825 0
-0.614557 0.060955 0.442442 0
-0.974023 0.909343 -0.106777 0
-0.362481 0.039003 -0.342918 0
-1.059844 0.372330 0.536277 0
-0.712162 0.777390 -0.457851 0
-0.355527 0.045568 0.205663 0
-1.432726 0.648064 0.143700 0
-0.410156 0.384987 -0.504635 0
-0.854110 0.045763 0.591417 0
-0.869922 0.937928 -0.262850 0
-0.266723 0.036261 -0.122480 0
-1.170830 0.563450 0.461997 0
-0.660976 0.579831 -0.621876 0
-0.459295 0.043109 0.402425 0
-1.059427 0.933897 -0.004330 0
-0.374702 0.044057 -0.513675 0
-1.099992 0.148286 0.666354 0
-0.749516 0.903989 -0.405816 0
-0.248463 0.044552 0.104629 0
-1.393265 0.655012 0.315151 0
-0.458250 0.482021 -0.594619 0
-0.653337 0.045200 0.581364 0
-0.938389 1.002050 -0.175913 0
-0.234398 0.029436 -0.276844 0
-1.074866 0.516816 0.584198 0
-0.662017 0.771828 -0.561634 0
-0.318248 0.036420 0.324034 0
-1.378357 0.819137 0.095561 0
-0.345718 0.247550 -0.580047 0
-0.964726 0.037997 0.729781 0
-0.820893 0.994256 -0.343341 0
-0.173477 0.039331 -0.026070 0
-1.220235 0.687487 0.466876 0
-0.583207 0.534078 -0.714876 0
-0.476237 0.030847 0.531884 0
-1.034974 1.028643 -0.072710 0
-0.242694 0.026340 -0.457782 0
-1.120531 0.299393 0.728538 0
-0.685799 0.924898 -0.486601 0
-0.194691 0.055628 0.216086 0
-1.443369 0.778714 0.270026 0
-0.346637 0.450587 -0.613941 0
-0.718159 0.057160 0.709077 0
-0.921347 1.053306 -0.266225 0
-0.130611 0.038061 -0.182239 0
-1.096895 0.653983 0.595338 0
-0.599557 0.740253 -0.655511 0
-0.312036 0.038528 0.445058 0
-0.789187 0.457283 -0.037243 0
-0.806799 0.493243 -0.106629 0
-0.844361 0.226553 -0.037420 0
-0.920055 0.510121 0.008365 0
-0.685754 0.472304 -0.163536 0
-0.862909 0.294177 0.115341 0
-0.953092 0.544244 -0.151461 0
-0.752319 0.159613 -0.132368 0
-0.924070 0.504583 0.143211 0
-0.796603 0.498264 -0.279281 0
-0.823019 0.096321 0.092871 0
-1.025165 0.607199 -0.034725 0
-0.643147 0.321326 -0.243583 0
