ply
format ascii 1.0
element vertex 1595
property float x
property float y
property float z
property uchar label
end_header
-1.105251 0.513035 2.926656 0
-1.718586 0.046144 2.005709 0
-0.675552 0.499630 2.245332 0
-1.729003 0.351967 2.905882 0
-1.158196 0.037217 1.811248 0
-0.803857 0.516313 2.739119 0
-2.001941 0.054237 2.366645 0
-0.749775 0.417243 2.008711 0
-1.371399 0.417814 3.092587 0
-1.528140 0.026112 1.851330 0
-0.655330 0.507471 2.435639 0
-1.952190 0.235658 2.766553 0
-0.942761 0.042344 1.842372 0
-0.963246 0.507240 2.937604 0
-1.881929 0.045062 2.097044 0
-0.672487 0.504580 2.131341 0
-1.599318 0.460980 2.973718 0
-1.296488 0.040578 1.768768 0
-0.708396 0.550219 2.623092 0
-2.119554 0.063843 2.557679 0
-0.742762 0.052875 1.944128 0
-1.205289 0.049419 2.493221 0
-1.281244 0.058857 2.527158 0
-1.156293 0.040753 2.383614 0
-1.155230 0.115714 2.605865 0
-1.344701 0.047625 2.412200 0
-1.026519 0.120715 2.411735 0
-1.331964 0.052874 2.687802 0
-1.225701 0.053293 2.271729 0
-1.007963 0.437615 2.426190 0
-1.459826 0.048046 2.518189 0
-1.029836 0.035123 2.303333 0
-1.167900 0.362539 2.598642 0
-1.376661 0.043034 2.276073 0
-0.928933 0.458246 2.320887 0
-1.476373 0.069506 2.701632 0
-1.133722 0.053692 2.180722 0
-1.013537 0.485391 2.513731 0
-1.529817 0.042793 2.399714 0
-0.915015 0.273221 2.250466 0
-1.345409 0.135409 2.839680 0
-1.313145 0.043495 2.153723 0
-0.897576 0.495434 2.405518 0
-1.603976 0.058358 2.623200 0
-1.007140 0.043505 2.162296 0
-1.083077 0.498214 2.612677 0
-1.512140 0.050147 2.244861 0
-0.852327 0.480553 2.251508 0
-1.539080 0.061960 2.888287 0
-1.193732 0.047512 2.072665 0
-0.915776 0.505196 2.528281 0
-1.668963 0.050278 2.469540 0
-0.875335 0.089648 2.196658 0
-1.218679 0.438975 2.736263 0
-1.430243 0.040010 2.106851 0
-0.816921 0.507963 2.354819 0
-1.693717 0.057138 2.783993 0
-1.045500 0.056216 2.047344 0
-0.990309 0.509819 2.656107 0
-1.654365 0.044441 2.284636 0
-0.812994 0.471937 2.172370 0
-1.508198 0.105184 3.037926 0
-1.291108 0.048731 2.004979 0
-0.822572 0.508312 2.500831 0
-1.785102 0.051618 2.599959 0
-0.890436 0.046386 2.087878 0
-1.122693 0.499970 2.769023 0
-1.563175 0.044414 2.109440 0
-0.760772 0.504587 2.281156 0
-1.693142 0.123741 2.923864 0
-1.124166 0.055282 1.959872 0
-0.884863 0.503731 2.664201 0
-1.792898 0.040949 2.379530 0
-0.795621 0.392433 2.101650 0
-1.343122 0.359642 2.951077 0
-1.417922 0.039021 1.976406 0
-0.744130 0.507060 2.436919 0
-1.855653 0.073519 2.764744 0
-0.948099 0.045778 1.979442 0
-1.012111 0.507352 2.805312 0
-1.705236 0.049597 2.159410 0
-0.730981 0.495946 2.191571 0
-1.594440 0.267099 2.986442 0
-1.235402 0.041233 1.900288 0
-0.784243 0.517962 2.609614 0
-1.906874 0.056349 2.518190 0
-0.781210 0.077177 2.058902 0
-1.198953 0.494972 2.909225 0
-1.559171 0.044098 1.984984 0
-0.689157 0.507659 2.344955 0
-1.791682 0.229911 2.850899 0
-1.038168 0.048842 1.889485 0
-0.889939 0.514933 2.793112 0
-1.861145 0.034698 2.263549 0
-0.727730 0.483231 2.095146 0
-1.465764 0.377935 3.036563 0
-1.370953 0.033403 1.870379 0
-0.700107 0.525682 2.524572 0
-1.979571 0.091535 2.690188 0
-0.843783 0.044567 1.947566 0
-1.067791 0.511293 2.941573 0
-1.707942 0.056721 2.033991 0
-0.658021 0.498018 2.242501 0
-1.683543 0.372319 2.921003 0
-1.156882 0.036113 1.823641 0
-0.775510 0.538180 2.719741 0
-1.996240 0.043391 2.411662 0
-0.740060 0.416428 2.008007 0
-1.326496 0.429582 3.101907 0
-1.524369 0.031917 1.874738 0
-0.632681 0.508122 2.431004 0
-1.907245 0.260504 2.788640 0
-0.940243 0.044197 1.848208 0
-0.925533 0.526949 2.922774 0
-1.871361 0.051276 2.131049 0
-0.658870 0.504476 2.127805 0
-1.562179 0.463398 3.002328 0
-1.296758 0.039620 1.785250 0
-0.682004 0.559125 2.613147 0
-2.098327 0.068067 2.600960 0
-0.737661 0.055140 1.943648 0
-1.173555 0.061623 2.500787 0
-1.248565 0.068534 2.537858 0
-1.127424 0.056823 2.389030 0
-1.115310 0.169285 2.586918 0
-1.315210 0.055791 2.425894 0
-0.997639 0.148173 2.407777 0
-1.294801 0.062021 2.699600 0
-1.200594 0.061263 2.282697 0
-0.978436 0.470201 2.414384 0
-1.425925 0.059360 2.533163 0
-1.004700 0.045311 2.308023 0
-1.124883 0.422574 2.568860 0
-1.350014 0.053716 2.290379 0
-0.904080 0.477584 2.316076 0
-1.441204 0.069851 2.722951 0
-1.111452 0.062366 2.189326 0
-0.982080 0.500795 2.510539 0
-1.495607 0.062066 2.414021 0
-0.890287 0.243805 2.265458 0
-1.284161 0.218630 2.794240 0
-1.290224 0.054116 2.167007 0
-0.870126 0.503222 2.404848 0
-1.567012 0.068143 2.642480 0
-0.985918 0.057124 2.166300 0
-1.047840 0.514778 2.609151 0
-1.488592 0.052560 2.265665 0
-0.829950 0.492723 2.248612 0
-1.498181 0.064355 2.910373 0
-1.173558 0.059586 2.082863 0
-0.884805 0.513018 2.527429 0
-1.638448 0.054556 2.493926 0
-0.853049 0.083139 2.202019 0
-1.178750 0.453927 2.737241 0
-1.408329 0.049130 2.124007 0
-0.790935 0.512624 2.353800 0
-1.652954 0.065076 2.806462 0
-1.027743 0.058474 2.055235 0
-0.955305 0.520894 2.653963 0
-1.620643 0.066005 2.302917 0
-0.793008 0.482500 2.169807 0
-1.459140 0.118492 3.049611 0
-1.272513 0.058646 2.018682 0
-0.792851 0.515403 2.497978 0
-1.751216 0.055480 2.627784 0
-0.871573 0.045092 2.092112 0
-1.082505 0.517506 2.763658 0
-1.537304 0.061209 2.128588 0
-0.737606 0.511857 2.277540 0
-1.651024 0.126787 2.949759 0
-1.108812 0.056824 1.970114 0
-0.850631 0.514956 2.658957 0
-1.760479 0.052583 2.404489 0
-0.780035 0.418373 2.095606 0
-1.276469 0.437729 2.890536 0
-1.403105 0.036984 1.995293 0
-0.717138 0.516222 2.430851 0
-1.815760 0.079943 2.792796 0
-0.932349 0.047903 1.984726 0
-0.972736 0.520938 2.800210 0
-1.683882 0.052048 2.185622 0
-0.710475 0.503027 2.187731 0
-1.552078 0.267028 3.012409 0
-1.221927 0.041163 1.913799 0
-0.753726 0.535363 2.596817 0
-1.869029 0.069528 2.544677 0
-0.765153 0.092852 2.057065 0
-1.152353 0.519535 2.896511 0
-1.541382 0.049451 2.006848 0
-0.661959 0.505360 2.344079 0
-1.750206 0.234941 2.877609 0
-1.024609 0.054197 1.897182 0
-0.852355 0.529003 2.784093 0
-1.825230 0.056384 2.287844 0
-0.709470 0.488265 2.092378 0
-1.428726 0.361520 3.077343 0
-1.355301 0.044149 1.887130 0
-0.668448 0.525676 2.523231 0
-1.943645 0.094716 2.723866 0
-0.828625 0.041166 1.950498 0
-1.025025 0.513283 2.950109 0
-1.691718 0.055716 2.060906 0
-0.636899 0.506210 2.235868 0
-1.643766 0.371495 2.950064 0
-1.144793 0.041033 1.834888 0
-0.744077 0.564715 2.696184 0
-1.965677 0.049404 2.444538 0
-0.726477 0.432760 2.004119 0
-1.266694 0.472580 3.068366 0
-1.511557 0.032389 1.896266 0
-0.604439 0.510471 2.426056 0
-1.863722 0.270195 2.814739 0
-0.928118 0.043566 1.853504 0
-0.883124 0.527722 2.928555 0
-1.850368 0.054262 2.161777 0
-0.639543 0.507964 2.123404 0
-1.523706 0.455725 3.036602 0
-1.285718 0.042673 1.800466 0
-0.648963 0.562952 2.608313 0
-2.053994 0.084966 2.630059 0
-0.723160 0.057036 1.943119 0
-1.151913 0.061040 2.508738 0
-1.226875 0.065383 2.548566 0
-1.107896 0.055059 2.396441 0
-1.065598 0.389039 2.465303 0
-1.292426 0.065891 2.431773 0
-0.972850 0.285821 2.351466 0
-1.270795 0.056894 2.712949 0
-1.182524 0.063025 2.290067 0
-0.957518 0.485269 2.409458 0
-1.400112 0.070803 2.539756 0
-0.986472 0.041990 2.313528 0
-1.097648 0.448464 2.557448 0
-1.332743 0.051898 2.301700 0
-0.885911 0.491802 2.311469 0
-1.409858 0.087252 2.724689 0
-1.095280 0.062667 2.195480 0
-0.959671 0.504378 2.512121 0
-1.476311 0.060593 2.428173 0
-0.880995 0.420688 2.204143 0
-1.233222 0.313178 2.731478 0
-1.274623 0.054120 2.176508 0
-0.849650 0.503451 2.406560 0
-1.542941 0.068627 2.657339 0
-0.970171 0.055433 2.170628 0
-1.023298 0.520280 2.610176 0
-1.475865 0.040561 2.282733 0
-0.812707 0.496238 2.248018 0
-1.470955 0.060261 2.927807 0
-1.159559 0.058517 2.090361 0
-0.862015 0.512146 2.530359 0
-1.621267 0.046256 2.514174 0
-0.836392 0.081182 2.204037 0
-1.147857 0.476444 2.725388 0
-1.397069 0.038227 2.138037 0
-0.771170 0.511810 2.354555 0
-1.628520 0.060428 2.826716 0
-1.013965 0.058952 2.059762 0
-0.930336 0.518890 2.659516 0
-1.611800 0.047017 2.325264 0
-0.777748 0.488876 2.167754 0
-1.404613 0.183203 3.005011 0
-1.263025 0.043438 2.029967 0
-0.770566 0.515343 2.498560 0
-1.732063 0.047852 2.650707 0
-0.857039 0.044166 2.094066 0
-1.053604 0.534329 2.753755 0
-1.530391 0.042250 2.146877 0
-0.719692 0.513504 2.276009 0
-1.619336 0.131659 2.962902 0
-1.097060 0.053199 1.976555 0
-0.827010 0.529156 2.648661 0
-1.746810 0.042394 2.427163 0
-0.767998 0.436456 2.090838 0
-1.239835 0.464226 2.873764 0
-1.392999 0.029625 2.007696 0
-0.695691 0.514796 2.430779 0
-1.792461 0.075151 2.816166 0
-0.919842 0.047894 1.987558 0
-0.945163 0.518330 2.807280 0
-1.675583 0.037775 2.206169 0
-0.694304 0.504936 2.185670 0
-1.531728 0.245787 3.048863 0
-1.210230 0.044444 1.921651 0
-0.731180 0.542921 2.590668 0
-1.855851 0.056203 2.572255 0
-0.751361 0.093807 2.056683 0
-1.122705 0.522393 2.901369 0
-1.532720 0.040109 2.022139 0
-0.645169 0.514753 2.337029 0
-1.733326 0.217519 2.911487 0
-1.013626 0.056030 1.901545 0
-0.825300 0.532690 2.782554 0
-1.817634 0.040550 2.312682 0
-0.695410 0.491687 2.090004 0
-1.395034 0.365989 3.085830 0
-1.348325 0.031693 1.898321 0
-0.646335 0.528165 2.519688 0
-1.916448 0.098191 2.743845 0
-0.816728 0.041388 1.951403 0
-0.994603 0.515917 2.952804 0
-1.686038 0.040927 2.080347 0
-0.619585 0.506969 2.232883 0
-1.611374 0.376784 2.961938 0
-1.134759 0.043537 1.841489 0
-0.719985 0.573024 2.688333 0
-1.953781 0.038113 2.471851 0
-0.716708 0.449417 2.000052 0
-1.241563 0.449261 3.107569 0
-1.502361 0.028908 1.909852 0
-0.583951 0.512153 2.421964 0
-1.829966 0.280154 2.827510 0
-0.918000 0.043376 1.856211 0
-0.853418 0.532147 2.926497 0
-1.844719 0.039410 2.185304 0
-0.623852 0.507291 2.120892 0
-1.488098 0.464424 3.041622 0
-1.278384 0.035673 1.809622 0
-0.624654 0.563428 2.605941 0
-2.033692 0.081600 2.656222 0
-0.712063 0.061724 1.941701 0
-1.132689 0.053309 2.522354 0
-1.208373 0.053541 2.565915 0
-1.090199 0.047206 2.408473 0
-1.041151 0.427853 2.450430 0
-1.275494 0.058070 2.447217 0
-0.952564 0.357799 2.325736 0
-1.245696 0.064523 2.720657 0
-1.167174 0.054610 2.302744 0
-0.937843 0.493891 2.410266 0
-1.383620 0.058812 2.560075 0
-0.968933 0.045525 2.318960 0
-1.072546 0.472419 2.549246 0
-1.317950 0.044912 2.316514 0
-0.868265 0.499671 2.311950 0
-1.393176 0.067340 2.752564 0
-1.080306 0.058957 2.204695 0
-0.938413 0.505815 2.517358 0
-1.462160 0.049191 2.448261 0
-0.865810 0.440199 2.201217 0
-1.202823 0.339897 2.722523 0
-1.261717 0.045994 2.189777 0
-0.830191 0.506259 2.408896 0
-1.526648 0.055432 2.682188 0
-0.955106 0.052914 2.177356 0
-1.000339 0.523563 2.615230 0
-1.460024 0.039830 2.297780 0
-0.796201 0.501225 2.248822 0
-1.444207 0.061618 2.943481 0
-1.146533 0.054848 2.100206 0
-0.840527 0.515428 2.532605 0
-1.601611 0.046843 2.531752 0
-0.822044 0.102105 2.202189 0
-1.121216 0.488987 2.724546 0
-1.384146 0.034877 2.151996 0
-0.752825 0.515599 2.354994 0
-1.603827 0.061459 2.845042 0
-1.000643 0.059868 2.066276 0
-0.906597 0.519069 2.665678 0
-1.595540 0.046551 2.342617 0
-0.762754 0.494161 2.168114 0
-1.351641 0.256311 2.954272 0
-1.250566 0.043355 2.040770 0
-0.749947 0.519874 2.498355 0
-1.710129 0.049242 2.670089 0
-0.843151 0.045471 2.097950 0
-1.030403 0.518546 2.778082 0
-1.517402 0.040077 2.162821 0
-0.702409 0.515600 2.276454 0
-1.592095 0.133517 2.980810 0
-1.085178 0.053669 1.984459 0
-0.802462 0.523223 2.658225 0
-1.729585 0.041525 2.447280 0
-0.755991 0.452115 2.088785 0
-1.208068 0.483885 2.866229 0
-1.381451 0.028425 2.020796 0
-0.675701 0.516422 2.431196 0
-1.765154 0.081535 2.833453 0
-0.907687 0.048560 1.992528 0
-0.919034 0.518921 2.813928 0
-1.649366 0.060976 2.217738 0
-0.678353 0.506127 2.186030 0
-1.492864 0.269332 3.043905 0
-1.199275 0.045189 1.931375 0
-0.709940 0.551166 2.586577 0
-1.837140 0.054796 2.595047 0
-0.757836 0.246512 2.032934 0
-1.095259 0.524340 2.910074 0
-1.521996 0.037188 2.037829 0
-0.625986 0.513728 2.337871 0
-1.691088 0.245488 2.908507 0
-1.003122 0.052698 1.908251 0
-0.800751 0.544684 2.775583 0
-1.802234 0.039940 2.333522 0
-0.681881 0.496203 2.089454 0
-1.341840 0.427742 3.032426 0
-1.337778 0.032709 1.910314 0
-0.623462 0.525316 2.522597 0
-1.890053 0.104566 2.763231 0
-0.805172 0.042259 1.954649 0
-0.966293 0.514790 2.962982 0
-1.675514 0.037044 2.098988 0
-0.602943 0.508453 2.231900 0
-1.585551 0.376147 2.982205 0
-1.125673 0.039844 1.850034 0
-0.696929 0.580176 2.684391 0
-1.913964 0.069861 2.480567 0
-0.706237 0.461704 1.998893 0
-1.211175 0.450920 3.119535 0
-1.492531 0.027919 1.924534 0
-0.564761 0.515473 2.419431 0
-1.799539 0.289879 2.841926 0
-0.907974 0.040908 1.861202 0
-0.826168 0.543512 2.919672 0
-1.821802 0.054118 2.202180 0
-0.608806 0.507807 2.120228 0
-1.459457 0.465906 3.057921 0
-1.269372 0.035985 1.820435 0
-0.601681 0.565186 2.605241 0
-2.006334 0.090829 2.675983 0
-0.702137 0.072197 1.942353 0
-1.105466 0.065500 2.532449 0
-1.182558 0.052117 2.584673 0
-1.067053 0.044775 2.424132 0
-1.012932 0.456221 2.446225 0
-1.249825 0.066932 2.462047 0
-0.928216 0.424295 2.306154 0
-1.203431 0.126090 2.701116 0
-1.145915 0.055424 2.318267 0
-0.912782 0.492043 2.421418 0
-1.358821 0.057474 2.582544 0
-0.946718 0.054684 2.327465 0
-1.043300 0.487409 2.552509 0
-1.295372 0.051295 2.333357 0
-0.845113 0.502362 2.318568 0
-1.367413 0.057834 2.782164 0
-1.061380 0.054080 2.219620 0
-0.911121 0.509727 2.525367 0
-1.437067 0.055572 2.468235 0
-0.846553 0.468547 2.198483 0
-1.155645 0.416008 2.680835 0
-1.240967 0.055119 2.204754 0
-0.804507 0.503921 2.417953 0
-1.496899 0.062738 2.703434 0
-0.936044 0.048405 2.189399 0
-0.971491 0.521389 2.629962 0
-1.439636 0.041033 2.319405 0
-0.774723 0.506686 2.252550 0
-1.395860 0.107858 2.932622 0
-1.128602 0.059368 2.113955 0
-0.811741 0.507118 2.547366 0
-1.572881 0.057993 2.552455 0
-0.826503 0.432404 2.118650 0
-1.087043 0.509612 2.722512 0
-1.365063 0.039909 2.170655 0
-0.727411 0.510889 2.363201 0
-1.568065 0.075459 2.863527 0
-0.983791 0.059561 2.077860 0
-0.876272 0.523687 2.672921 0
-1.574717 0.047959 2.367200 0
-0.742489 0.495931 2.172570 0
-1.278377 0.377617 2.865686 0
-1.234044 0.046545 2.056959 0
-0.721996 0.518050 2.506061 0
-1.679795 0.058384 2.694237 0
-0.825692 0.049724 2.105522 0
-0.997791 0.524411 2.787451 0
-1.499368 0.042069 2.184988 0
-0.679751 0.517140 2.279891 0
-1.549640 0.155777 2.991159 0
-1.069888 0.055458 1.997366 0
-0.773123 0.533795 2.657927 0
-1.708877 0.040359 2.476389 0
-0.739221 0.464588 2.090404 0
-1.174765 0.486723 2.883420 0
-1.366015 0.029717 2.040020 0
-0.648254 0.512298 2.438143 0
-1.728076 0.097131 2.854191 0
-0.892202 0.048508 2.002052 0
-0.885754 0.525920 2.819729 0
-1.641199 0.042106 2.248840 0
-0.657260 0.506119 2.189336 0
-1.455646 0.277252 3.064135 0
-1.185162 0.046736 1.946639 0
-0.681722 0.557512 2.587568 0
-1.803249 0.071683 2.617538 0
-0.770325 0.470957 1.999909 0
-1.062705 0.513666 2.940290 0
-1.506190 0.039377 2.059802 0
-0.600430 0.510152 2.342546 0
-1.655480 0.255346 2.931045 0
-0.989471 0.051952 1.919625 0
-0.768264 0.550468 2.779627 0
-1.773067 0.056978 2.356701 0
-0.663195 0.497484 2.092221 0
-1.293567 0.464226 3.015531 0
-1.325246 0.030806 1.928691 0
-0.596064 0.528792 2.523870 0
-1.853743 0.119910 2.786866 0
-0.790438 0.042822 1.961985 0
-0.930341 0.506689 2.988170 0
-1.653641 0.049592 2.122123 0
-0.578841 0.502554 2.236202 0
-1.550201 0.382513 3.005462 0
-1.113772 0.036692 1.863922 0
-0.665309 0.581541 2.689742 0
-1.911432 0.043382 2.526053 0
-0.690719 0.468590 2.001259 0
-1.174100 0.449871 3.144044 0
-1.479868 0.027303 1.946037 0
-0.536364 0.509950 2.424667 0
-1.754696 0.314075 2.854035 0
-0.895184 0.043160 1.870521 0
-0.793165 0.569946 2.901030 0
-1.813277 0.041226 2.234988 0
-0.587915 0.504209 2.122927 0
-1.420252 0.476187 3.073730 0
-1.258193 0.034550 1.837138 0
-0.571868 0.567173 2.607393 0
-1.973087 0.103682 2.704055 0
-0.690269 0.090377 1.945899 0
-1.075695 0.136067 2.512555 0
-1.156085 0.082755 2.585523 0
-1.046872 0.057165 2.433417 0
-0.991404 0.473470 2.447947 0
-1.230708 0.068166 2.479031 0
-0.909634 0.458707 2.300474 0
-1.077620 0.620482 2.397819 0
-1.126988 0.066589 2.329543 0
-0.892824 0.498062 2.428048 0
-1.333380 0.074952 2.593228 0
-0.926630 0.149295 2.305888 0
-1.019948 0.503272 2.554372 0
-1.273245 0.071088 2.343840 0
-0.826931 0.508895 2.323718 0
-1.339251 0.075243 2.792110 0
-1.045154 0.057329 2.232179 0
-0.889544 0.512902 2.534076 0
-1.412447 0.073271 2.480743 0
-0.831057 0.487780 2.199350 0
-1.121620 0.468031 2.655655 0
-1.225171 0.057527 2.220337 0
-0.784733 0.508983 2.423318 0
-1.466192 0.086691 2.711642 0
-0.920316 0.051136 2.200123 0
-0.948418 0.524501 2.640298 0
-1.417995 0.056033 2.334058 0
-0.757380 0.509845 2.258085 0
-1.328381 0.232948 2.854596 0
-1.113845 0.062918 2.127368 0
-0.790093 0.513971 2.551860 0
-1.550734 0.065542 2.571884 0
-0.813039 0.457631 2.119054 0
-1.062603 0.514641 2.733735 0
-1.349722 0.042816 2.188076 0
-0.708262 0.513877 2.368329 0
-1.543422 0.079762 2.886065 0
-0.970141 0.054242 2.090643 0
-0.851820 0.514463 2.692802 0
-1.552329 0.061219 2.384346 0
-0.726295 0.497983 2.177927 0
-1.236462 0.432427 2.834612 0
-1.220025 0.050285 2.072038 0
-0.700592 0.521513 2.511323 0
-1.645538 0.085370 2.703640 0
-0.812224 0.068932 2.111142 0
-0.973294 0.516969 2.809988 0
-1.479244 0.056587 2.201499 0
-0.659657 0.510274 2.288594 0
-1.527526 0.151051 3.022011 0
-1.057115 0.056893 2.010172 0
-0.750184 0.543405 2.659436 0
-1.683773 0.054987 2.494728 0
-0.725204 0.471528 2.094473 0
-1.147477 0.494756 2.894137 0
-1.351893 0.034424 2.057089 0
-0.627829 0.515161 2.442333 0
-1.706503 0.097179 2.882434 0
-0.879322 0.048513 2.012337 0
-0.859231 0.519446 2.839990 0
-1.618547 0.058177 2.266715 0
-0.639533 0.503213 2.195162 0
-1.417575 0.305315 3.061142 0
-1.173273 0.047692 1.961279 0
-0.658285 0.558563 2.594348 0
-1.787254 0.067979 2.647183 0
-0.754002 0.450907 2.009534 0
-1.034807 0.520612 2.950451 0
-1.488400 0.052050 2.077588 0
-0.580440 0.509245 2.347617 0
-1.628846 0.262039 2.952726 0
-0.977981 0.050973 1.931346 0
-0.744285 0.565761 2.775207 0
-1.754703 0.061992 2.380129 0
-0.648442 0.499895 2.096096 0
-1.262016 0.479174 3.021060 0
-1.310868 0.041857 1.944728 0
-0.573734 0.530436 2.528406 0
-1.829085 0.126909 2.811522 0
-0.778189 0.043842 1.970569 0
-0.901722 0.512680 2.997542 0
-1.637898 0.055002 2.143377 0
-0.561391 0.503940 2.239349 0
-1.514088 0.403805 3.009552 0
-1.102420 0.042008 1.877313 0
-0.642305 0.590825 2.689288 0
-1.881277 0.062993 2.544931 0
-0.678552 0.476175 2.004801 0
-1.142545 0.460870 3.152775 0
-1.468071 0.028946 1.965260 0
-0.515168 0.510181 2.428598 0
-1.728125 0.322147 2.875416 0
-0.884321 0.041939 1.880772 0
-0.766038 0.578279 2.904377 0
-1.787832 0.060065 2.254823 0
-0.572249 0.505129 2.126056 0
-1.391136 0.482963 3.091425 0
-1.247659 0.036535 1.852881 0
-0.548054 0.569099 2.611740 0
-1.941569 0.121192 2.723578 0
-0.702514 0.250679 1.938207 0
-1.016284 0.374362 2.408779 0
-1.109367 0.172406 2.557861 0
-1.010115 0.142575 2.414917 0
-0.961905 0.480627 2.458587 0
-0.883406 0.468201 2.308388 0
-1.092205 0.406791 2.555709 0
-1.104161 0.045705 2.356602 0
-0.863999 0.503453 2.437447 0
-0.897544 0.317254 2.259300 0
-0.988641 0.506805 2.568288 0
-0.800270 0.512383 2.332391 0
-1.022752 0.038009 2.255218 0
-0.858373 0.510727 2.549194 0
-0.806674 0.485927 2.209986 0
-1.081262 0.506841 2.643741 0
-1.202614 0.052140 2.242993 0
-0.755868 0.511851 2.431881 0
-0.896466 0.048507 2.215534 0
-0.915370 0.524920 2.655854 0
-0.732101 0.512798 2.265346 0
-1.254791 0.349889 2.784661 0
-1.092356 0.058509 2.146785 0
-0.759108 0.522306 2.557246 0
-0.789942 0.451112 2.130351 0
-1.027320 0.521545 2.746797 0
-1.326404 0.044060 2.211446 0
-0.679652 0.512236 2.377482 0
-0.948883 0.047773 2.107299 0
-0.817456 0.519745 2.702600 0
-0.702346 0.498347 2.185372 0
-1.185583 0.484401 2.809155 0
-1.198870 0.051237 2.092468 0
-0.669487 0.523425 2.519234 0
-0.804780 0.313058 2.072848 0
-0.936681 0.521324 2.824229 0
-0.632646 0.508761 2.296001 0
-1.037079 0.058236 2.027031 0
-0.716670 0.549756 2.665710 0
-0.704447 0.479846 2.099662 0
-1.108461 0.504457 2.907284 0
-1.330023 0.038814 2.079761 0
-0.598146 0.517121 2.448221 0
-0.859221 0.043114 2.026484 0
-0.822949 0.545950 2.828875 0
-0.614861 0.502806 2.201116 0
-1.154526 0.047136 1.980795 0
-0.626000 0.563659 2.599260 0
-0.731584 0.435050 2.020323 0
-0.995390 0.526337 2.965928 0
-0.548583 0.498078 2.358948 0
-0.959614 0.051507 1.946653 0
-0.711242 0.588787 2.764815 0
-0.624484 0.493302 2.103510 0
-1.293019 0.039708 1.967272 0
-0.539086 0.524130 2.539700 0
-0.759896 0.055053 1.980673 0
-0.861050 0.518703 3.010348 0
-0.536164 0.505436 2.243106 0
-1.084723 0.045234 1.895132 0
-0.607709 0.595479 2.694697 0
-0.659846 0.483298 2.009692 0
-1.446179 0.037086 1.990079 0
-0.484684 0.509754 2.433507 0
-0.867039 0.044808 1.894091 0
-0.728832 0.595010 2.900305 0
-0.548724 0.503822 2.130540 0
-1.231231 0.035190 1.873936 0
-0.511138 0.563261 2.623617 0
-0.707542 0.404263 1.931822 0
-0.979135 0.395548 2.395392 0
-1.038725 0.368047 2.449125 0
-0.965315 0.249654 2.365612 0
-0.925567 0.491616 2.447902 0
-1.166170 0.050425 2.510943 0
-0.852480 0.502045 2.287624 0
-1.045671 0.448686 2.526457 0
-1.069827 0.039967 2.357851 0
-0.829698 0.513294 2.425287 0
-1.264134 0.058410 2.630829 0
-0.866757 0.362468 2.237954 0
-0.949433 0.512364 2.560235 0
-1.214368 0.058679 2.374028 0
-0.768971 0.514986 2.323805 0
-1.187037 0.325449 2.646695 0
-0.990581 0.039090 2.252295 0
-0.820821 0.513203 2.540440 0
-1.348009 0.060489 2.518859 0
-0.778967 0.493434 2.200488 0
-1.040382 0.504363 2.643510 0
-1.169392 0.056654 2.243907 0
-0.721956 0.513676 2.421937 0
-0.865777 0.077306 2.202167 0
-0.874660 0.521152 2.652732 0
-1.357205 0.052715 2.367621 0
-0.702770 0.514509 2.255850 0
-1.186814 0.420134 2.726967 0
-1.064408 0.049910 2.148339 0
-0.722567 0.529162 2.542791 0
-0.765126 0.466672 2.118936 0
-0.984523 0.512894 2.750506 0
-1.292521 0.050714 2.215250 0
-0.647565 0.514498 2.365736 0
-0.921143 0.047952 2.103153 0
-0.776714 0.530275 2.684352 0
-1.490460 0.054579 2.425651 0
-0.674793 0.497984 2.176179 0
-1.136092 0.494465 2.798241 0
-1.168696 0.061599 2.093199 0
-0.632452 0.520392 2.509962 0
-0.778759 0.303745 2.067744 0
-0.890785 0.533988 2.804307 0
-1.427563 0.045662 2.239930 0
-0.602633 0.510141 2.283947 0
-1.011752 0.055298 2.025925 0
-0.678653 0.560999 2.644877 0
-0.680870 0.489157 2.088143 0
-1.057241 0.515979 2.890897 0
-1.301380 0.040405 2.085644 0
-0.563595 0.516561 2.435739 0
-0.833760 0.038773 2.020681 0
-0.779499 0.563580 2.800777 0
-1.560608 0.054813 2.309631 0
-0.586558 0.501223 2.190064 0
-1.276223 0.425840 2.966173 0
-1.129564 0.048678 1.982376 0
-0.587517 0.562666 2.587277 0
-0.711224 0.455405 2.008394 0
-0.946248 0.518785 2.967579 0
-1.441322 0.044262 2.115126 0
-0.519830 0.507747 2.340162 0
-0.936292 0.052776 1.943071 0
-0.670595 0.598297 2.743309 0
-0.600074 0.496683 2.091422 0
-1.175110 0.461610 3.067390 0
-1.267676 0.041721 1.972594 0
-0.500801 0.519950 2.528018 0
-0.737993 0.078627 1.969354 0
-0.812659 0.554372 2.957263 0
-1.588149 0.046602 2.188401 0
-0.507377 0.506033 2.229105 0
-1.063027 0.042409 1.895278 0
-0.567497 0.596451 2.680025 0
-0.638279 0.488886 1.998600 0
-1.044203 0.459487 3.175551 0
-1.421186 0.034169 2.000025 0
-0.449182 0.506204 2.420006 0
-0.845295 0.042105 1.888233 0
-0.686327 0.614264 2.865205 0
-0.523901 0.507320 2.116313 0
-1.209435 0.034664 1.878003 0
-0.464849 0.545126 2.623047 0
-0.689803 0.424815 1.920977 0
-0.924086 0.454889 2.352303 0
-0.976509 0.438798 2.398868 0
-0.906681 0.395753 2.289559 0
-0.873442 0.513246 2.419965 0
-1.105053 0.056894 2.496382 0
-0.808180 0.510373 2.268413 0
-0.985010 0.481862 2.492349 0
-1.016355 0.044826 2.342705 0
-0.779921 0.514333 2.406947 0
-0.824580 0.451582 2.190941 0
-0.893060 0.518523 2.539992 0
-1.161572 0.050840 2.368817 0
-0.723527 0.516602 2.304352 0
-1.104120 0.406819 2.580049 0
-0.941558 0.052636 2.233025 0
-0.767428 0.524536 2.512828 0
-1.286720 0.057897 2.514916 0
-0.738389 0.498213 2.181256 0
-0.978506 0.514593 2.620835 0
-1.121454 0.053008 2.236385 0
-0.673181 0.516622 2.398860 0
-0.826141 0.389020 2.104975 0
-0.815574 0.519895 2.633955 0
-1.300426 0.056425 2.363295 0
-0.659087 0.510619 2.237009 0
-1.107706 0.469721 2.674384 0
-1.020155 0.051424 2.136131 0
-0.668187 0.525541 2.522569 0
-0.727983 0.475568 2.098651 0
-0.918947 0.531573 2.714991 0
-1.243478 0.053142 2.210822 0
-0.601326 0.517738 2.340713 0
-0.879589 0.039668 2.087488 0
-0.720906 0.557429 2.637630 0
-0.634504 0.497108 2.155291 0
-1.064689 0.508289 2.770162 0
-1.127101 0.058605 2.086295 0
-0.581999 0.527204 2.479995 0
-0.749742 0.402807 2.030168 0
-0.825717 0.534634 2.781224 0
-1.377563 0.043594 2.241470 0
-0.558553 0.510142 2.259650 0
-1.268044 0.363895 2.855135 0
-0.973172 0.053410 2.012918 0
-0.624400 0.572537 2.609565 0
-0.644765 0.492895 2.066552 0
-0.986067 0.517817 2.869272 0
-1.254496 0.054573 2.080591 0
-0.509991 0.504593 2.415894 0
-0.795346 0.038302 2.000368 0
-0.718861 0.584484 2.754061 0
-1.504114 0.057318 2.313953 0
-0.546573 0.503783 2.164748 0
-1.182674 0.472382 2.902453 0
-1.091348 0.053500 1.973308 0
-0.525754 0.541079 2.576539 0
-0.679313 0.468719 1.986534 0
-0.873040 0.547124 2.910513 0
-1.391374 0.056511 2.115277 0
-0.471439 0.502123 2.315232 0
-0.901291 0.047071 1.927448 0
-0.613714 0.610951 2.703375 0
-0.563909 0.500094 2.066934 0
-1.089262 0.483352 3.020794 0
-1.226845 0.053496 1.968219 0
-0.443362 0.508618 2.505736 0
-0.707207 0.130411 1.941489 0
-0.748033 0.603311 2.871915 0
-1.537159 0.048245 2.195458 0
-0.465243 0.506669 2.201398 0
-1.028625 0.049009 1.883975 0
-0.506941 0.588084 2.658188 0
-0.605541 0.492518 1.975876 0
-0.957352 0.495618 3.101767 0
-1.377197 0.044860 2.001263 0
-0.400021 0.506486 2.389042 0
-0.812045 0.034519 1.868731 0
-0.619242 0.604418 2.846647 0
-0.484966 0.505448 2.090348 0
-1.175985 0.034803 1.872719 0
-0.394677 0.513864 2.615792 0
-0.661212 0.438980 1.899000 0
-0.891470 0.493498 2.353354 0
-0.940689 0.479387 2.399936 0
-0.875007 0.477201 2.274329 0
-0.840238 0.507689 2.443369 0
-1.057125 0.137155 2.489429 0
-0.780050 0.515869 2.281376 0
-0.948056 0.502182 2.503931 0
-0.983053 0.073719 2.359042 0
-0.746310 0.515464 2.422786 0
-1.136769 0.161025 2.598964 0
-0.800161 0.485567 2.194326 0
-0.855917 0.513209 2.566741 0
-1.129884 0.057510 2.398492 0
-0.692505 0.512958 2.319115 0
-1.053344 0.473780 2.563613 0
-0.913451 0.073912 2.250113 0
-0.728928 0.517194 2.535981 0
-0.712843 0.500701 2.192399 0
-0.938967 0.519041 2.644566 0
-1.095538 0.051759 2.266408 0
-0.637829 0.512382 2.414006 0
-0.802660 0.357728 2.128363 0
-0.774013 0.519565 2.656260 0
-1.270925 0.056999 2.400109 0
-0.630127 0.508685 2.247667 0
-1.061817 0.498217 2.683269 0
-0.997788 0.043569 2.163278 0
-0.629665 0.528903 2.534794 0
-0.706583 0.487501 2.106415 0
-0.876515 0.516305 2.756717 0
-1.218098 0.055695 2.243801 0
-0.565036 0.505670 2.356290 0
-1.225482 0.376136 2.727714 0
-0.857427 0.038126 2.108004 0
-0.679156 0.564452 2.650378 0
-0.609673 0.500897 2.162163 0
-1.020217 0.515810 2.796543 0
-1.106278 0.057128 2.115296 0
-0.539378 0.513755 2.499920 0
-0.732804 0.438142 2.035218 0
-0.779509 0.543567 2.798078 0
-1.351187 0.047222 2.279079 0
-0.526620 0.504871 2.268591 0
-1.184678 0.479733 2.789300 0
-0.954336 0.048858 2.036514 0
-0.581282 0.572752 2.624294 0
-0.623153 0.496023 2.073440 0
-0.937299 0.529779 2.889839 0
-1.234960 0.051293 2.114411 0
-0.472774 0.503624 2.423767 0
-0.776188 0.045280 2.016273 0
-0.671936 0.586754 2.773427 0
-0.519857 0.503842 2.169826 0
-1.131826 0.489050 2.925434 0
-1.073872 0.053572 2.000205 0
-0.483384 0.543098 2.585719 0
-0.662135 0.479990 1.993178 0
-0.822469 0.552903 2.934809 0
-1.375193 0.043372 2.156379 0
-0.435466 0.495321 2.322955 0
-0.884983 0.041423 1.948009 0
-0.563304 0.599779 2.731371 0
-0.540726 0.498896 2.071968 0
-1.035358 0.496842 3.045562 0
-1.211820 0.046271 2.000704 0
-0.398583 0.500362 2.517929 0
-0.705640 0.281410 1.940338 0
-0.695831 0.597382 2.905014 0
-0.432931 0.497976 2.207307 0
-1.264245 0.462641 3.015327 0
-1.014042 0.048517 1.908405 0
-0.446160 0.553810 2.701527 0
-0.587490 0.496771 1.980784 0
-0.898788 0.533155 3.092122 0
-1.360571 0.042344 2.038771 0
-0.355829 0.491209 2.400648 0
-0.797280 0.032490 1.885702 0
-0.560407 0.583164 2.892013 0
-0.459631 0.502704 2.093218 0
-1.160761 0.040589 1.902126 0
-0.343298 0.503468 2.631135 0
-0.648753 0.458526 1.905155 0
-0.850264 0.504556 2.375886 0
-0.896663 0.496518 2.422260 0
-0.837763 0.502193 2.289280 0
-0.793842 0.508709 2.470298 0
-0.965170 0.468379 2.364227 0
-0.741549 0.513365 2.303385 0
-0.898856 0.515938 2.529298 0
-0.908295 0.482509 2.236687 0
-0.699424 0.512896 2.446290 0
-1.029344 0.449245 2.474630 0
-0.767736 0.501600 2.209135 0
-0.803197 0.523447 2.590471 0
-1.089233 0.053602 2.446730 0
-0.650373 0.508700 2.338078 0
-0.999414 0.497858 2.588100 0
-0.866285 0.377415 2.187897 0
-0.678120 0.533352 2.547957 0
-0.679207 0.503481 2.207214 0
-0.883528 0.514286 2.687013 0
-1.062404 0.040871 2.312961 0
-0.591414 0.517056 2.427055 0
-1.120359 0.427498 2.601341 0
-0.777644 0.465982 2.120249 0
-0.717978 0.549005 2.660655 0
-1.231829 0.053114 2.456023 0
-0.591433 0.505678 2.261118 0
-1.003759 0.511456 2.717877 0
-0.968393 0.034881 2.202156 0
-0.575945 0.532656 2.550318 0
-0.677826 0.491007 2.119907 0
-0.813711 0.528171 2.783811 0
-1.185973 0.052733 2.294027 0
-0.519858 0.505167 2.367253 0
-1.137948 0.480352 2.697112 0
-0.828679 0.162293 2.111142 0
-0.623177 0.586344 2.655272 0
-0.576325 0.500560 2.172094 0
-0.957622 0.518341 2.841830 0
-1.080379 0.050208 2.158744 0
-0.483705 0.508415 2.516049 0
-0.710903 0.467703 2.044979 0
-0.716221 0.577371 2.797997 0
-1.314379 0.056663 2.332850 0
-0.484438 0.499201 2.278043 0
-1.119418 0.501566 2.824383 0
-0.931414 0.036138 2.071796 0
-0.520687 0.573778 2.641549 0
-0.594409 0.492927 2.083673 0
-0.867944 0.540017 2.925195 0
-1.204319 0.067592 2.159627 0
-0.420852 0.499193 2.433519 0
-0.761491 0.233125 2.013350 0
-0.607102 0.600370 2.787432 0
-0.483878 0.499482 2.176340 0
-1.059191 0.514074 2.955898 0
-1.052359 0.054138 2.039449 0
-0.417327 0.528492 2.608869 0
-0.640710 0.489986 2.002499 0
-0.751543 0.591329 2.931551 0
-1.346168 0.047552 2.212256 0
-0.391951 0.497603 2.324945 0
-1.267347 0.433285 2.939115 0
-0.865785 0.031401 1.978065 0
-0.485543 0.572017 2.780135 0
-0.511544 0.496961 2.077407 0
-0.959882 0.500238 3.099562 0
-1.187124 0.061672 2.045286 0
-0.339679 0.496087 2.526167 0
-0.700477 0.413990 1.942888 0
-0.620714 0.597856 2.939325 0
-0.395768 0.498852 2.207941 0
-0.997121 0.048276 1.944114 0
-0.360436 0.515183 2.750190 0
-0.564389 0.496289 1.987476 0
-0.818225 0.573033 3.092028 0
-1.338167 0.043616 2.093695 0
-0.303573 0.487013 2.403334 0
-0.780749 0.029778 1.910080 0
-0.465796 0.536026 2.973721 0
-0.427794 0.499189 2.094922 0
-1.142726 0.049328 1.945095 0
-0.276085 0.498900 2.640094 0
-0.633355 0.474396 1.913840 0
-0.807758 0.509452 2.388963 0
-0.851304 0.507299 2.434735 0
-0.800225 0.512559 2.298840 0
-0.746065 0.515442 2.479430 0
-0.921822 0.486894 2.376858 0
-0.703234 0.518446 2.309894 0
-0.847795 0.518562 2.547505 0
-0.874325 0.475436 2.257626 0
-0.653001 0.518728 2.450516 0
-0.973947 0.500073 2.470027 0
-0.735043 0.510109 2.215719 0
-0.748676 0.532023 2.599170 0
-1.032517 0.121329 2.449118 0
-0.610684 0.516646 2.338126 0
-0.943264 0.516606 2.600311 0
-0.833023 0.445593 2.181905 0
-0.626496 0.542826 2.548697 0
-1.070261 0.400356 2.458009 0
-0.646831 0.510599 2.209312 0
-0.823319 0.528556 2.695813 0
-1.022935 0.046943 2.340797 0
-0.546081 0.522573 2.425244 0
-1.052991 0.485294 2.592647 0
-0.750713 0.487886 2.124193 0
-0.661954 0.572528 2.651721 0
-1.186552 0.050343 2.497595 0
-0.555406 0.509579 2.259579 0
-0.942736 0.512547 2.745420 0
-0.935501 0.038188 2.225412 0
-0.521619 0.532258 2.552490 0
-0.650479 0.498132 2.122150 0
-0.749397 0.556242 2.775034 0
-1.148336 0.054518 2.330191 0
-0.474289 0.499233 2.367230 0
-1.072929 0.504301 2.712258 0
-0.803510 0.508302 2.052079 0
-0.564134 0.590673 2.657357 0
-0.545128 0.502971 2.169996 0
-0.889498 0.517175 2.870874 0
-1.050743 0.048128 2.189459 0
-0.428735 0.502345 2.516407 0
-1.216751 0.388578 2.688795 0
-0.688546 0.482013 2.048005 0
-0.653581 0.607191 2.780471 0
-1.275939 0.054864 2.377756 0
-0.445472 0.497727 2.272848 0
-1.049710 0.517429 2.845104 0
-0.906394 0.030995 2.094290 0
-0.452529 0.552196 2.659879 0
-0.569907 0.501675 2.080889 0
-0.794733 0.571837 2.913122 0
-1.176783 0.058618 2.198989 0
-0.373088 0.499854 2.425011 0
-1.211239 0.454314 2.791814 0
-0.747765 0.384697 2.001620 0
-0.539945 0.603883 2.790884 0
-0.454656 0.508411 2.166884 0
-0.985924 0.511519 2.994466 0
-1.029743 0.048947 2.068521 0
-0.346060 0.501181 2.623636 0
-0.620223 0.496671 2.003075 0
-0.677901 0.602629 2.935924 0
-1.312153 0.052215 2.256438 0
-0.351854 0.501006 2.312627 0
-1.175252 0.491987 2.923658 0
-0.845870 0.021966 1.996803 0
-0.402088 0.536790 2.815353 0
-0.487060 0.503023 2.070571 0
-0.873592 0.553590 3.064077 0
-1.165534 0.053574 2.082499 0
-0.284099 0.493224 2.516292 0
-0.686723 0.451971 1.944491 0
-0.542009 0.592322 2.956733 0
-0.363241 0.503466 2.194966 0
-0.979309 0.045447 1.969365 0
-0.283006 0.496414 2.759465 0
-0.543811 0.497915 1.984487 0
-0.735707 0.589837 3.094161 0
-1.311166 0.046486 2.137780 0
-0.262286 0.497199 2.382832 0
-0.764383 0.028607 1.922990 0
-0.374932 0.512109 3.003657 0
-0.401891 0.503594 2.083718 0
-1.122720 0.058211 1.977475 0
-0.217441 0.503762 2.622261 0
-0.618073 0.481412 1.914459 0
-0.780493 0.511413 2.384234 0
-0.821953 0.510344 2.430878 0
-0.776678 0.515815 2.293800 0
-0.714792 0.509948 2.476183 0
-0.894064 0.494851 2.373817 0
-0.679812 0.521608 2.300770 0
-0.813954 0.511844 2.549451 0
-0.851430 0.493881 2.249792 0
-0.624436 0.522719 2.437614 0
-0.942881 0.500224 2.472856 0
-0.715181 0.512664 2.208823 0
-0.713861 0.541364 2.584669 0
-0.973563 0.328551 2.362056 0
-0.586661 0.519412 2.325102 0
-0.907442 0.511270 2.605308 0
-0.814110 0.459683 2.175443 0
-0.592572 0.539211 2.539107 0
-1.033932 0.428036 2.449237 0
-0.627856 0.514055 2.198468 0
-0.783353 0.524386 2.694583 0
-0.997984 0.050141 2.343820 0
-0.516174 0.515373 2.414546 0
-1.012735 0.504538 2.584026 0
-0.734668 0.492631 2.117836 0
-0.626093 0.581072 2.633068 0
-1.153676 0.057075 2.504972 0
-0.535143 0.513377 2.244410 0
-0.899339 0.523633 2.735304 0
-0.915150 0.047673 2.223708 0
-0.484907 0.519946 2.544548 0
-1.123629 0.399083 2.560487 0
-0.635405 0.504099 2.111364 0
-0.708668 0.576991 2.746339 0
-1.125156 0.049620 2.341279 0
-0.451213 0.505296 2.346589 0
-1.031259 0.505723 2.716742 0
-0.788231 0.381011 2.076166 0
-0.524528 0.582719 2.648663 0
-0.527931 0.504711 2.155749 0
-0.841764 0.529347 2.854962 0
-1.033375 0.042124 2.196602 0
-0.399235 0.505680 2.493833 0
-1.159528 0.439576 2.661566 0
-0.676266 0.488923 2.039214 0
-0.612469 0.614406 2.760276 0
-1.249809 0.054160 2.392618 0
-0.425227 0.500688 2.253324 0
-1.003613 0.513754 2.852601 0
-0.892253 0.030194 2.094283 0
-0.404129 0.522970 2.663785 0
-0.556327 0.504213 2.067947 0
-0.746738 0.582810 2.892836 0
-1.159603 0.051883 2.211630 0
-0.349434 0.507220 2.398740 0
-1.154262 0.489694 2.770704 0
-0.741533 0.467623 1.984791 0
-0.491345 0.585315 2.792121 0
-0.436003 0.504508 2.150662 0
-0.932308 0.518365 2.986334 0
-1.017141 0.044235 2.074329 0
-0.309035 0.496082 2.602775 0
-0.609430 0.498865 1.992652 0
-0.630010 0.608297 2.915957 0
-1.291406 0.050686 2.273289 0
-0.327416 0.496829 2.292069 0
-1.123389 0.496541 2.927370 0
-0.835792 0.020792 1.994427 0
-0.340193 0.493755 2.833369 0
-0.474054 0.504658 2.054471 0
-0.817912 0.586929 3.015901 0
-1.149754 0.061286 2.091801 0
-0.254423 0.493859 2.489352 0
-0.677710 0.450843 1.937205 0
-0.476779 0.543743 2.995246 0
-0.348528 0.510626 2.171234 0
-0.970642 0.041183 1.972859 0
-0.241739 0.493018 2.733950 0
-0.533433 0.497549 1.971352 0
-0.681843 0.603204 3.063849 0
-1.292996 0.052225 2.153100 0
-0.239055 0.499916 2.354870 0
-1.251956 0.473025 2.964146 0
-0.757379 0.029070 1.917254 0
-0.323101 0.507224 2.982303 0
-0.389716 0.507456 2.063543 0
-1.112785 0.059932 1.986333 0
-0.182286 0.501357 2.593912 0
-0.610903 0.483816 1.904260 0
-0.751215 0.518617 2.369302 0
-0.790031 0.518014 2.416765 0
-0.751063 0.512957 2.284684 0
-0.682450 0.518610 2.455609 0
-0.863668 0.505090 2.362720 0
-0.653423 0.514022 2.289250 0
-0.776701 0.515853 2.535170 0
-0.827493 0.499256 2.240979 0
-0.593311 0.522209 2.418983 0
-0.907486 0.507335 2.463904 0
-0.694107 0.515366 2.195287 0
-0.676092 0.544959 2.565420 0
-0.931305 0.433868 2.312890 0
-0.560096 0.516368 2.307014 0
-0.866877 0.511198 2.597497 0
-0.794013 0.473741 2.162927 0
-0.555106 0.530113 2.523792 0
-0.994202 0.459714 2.431050 0
-0.606531 0.509644 2.183427 0
-0.740651 0.541754 2.664860 0
-0.969175 0.059895 2.336537 0
-0.486124 0.512833 2.392178 0
-0.970763 0.514194 2.574299 0
-0.717438 0.493387 2.106410 0
-0.585259 0.575762 2.616150 0
-0.512152 0.509993 2.224480 0
-0.853412 0.512704 2.734858 0
-0.892342 0.063428 2.212576 0
-0.447680 0.512372 2.522869 0
-1.073308 0.441080 2.535637 0
-0.618422 0.502225 2.096137 0
-0.664961 0.588932 2.715723 0
-1.096542 0.052824 2.342149 0
-0.426105 0.507484 2.319418 0
-0.984061 0.508376 2.710737 0
-0.772508 0.362135 2.070477 0
-0.477410 0.559494 2.641804 0
-0.509088 0.502251 2.135509 0
-0.790353 0.546556 2.822481 0
-1.013006 0.039130 2.195809 0
-0.366515 0.503406 2.464994 0
-1.104876 0.473090 2.638811 0
-0.663048 0.491493 2.025185 0
-0.565763 0.607871 2.742643 0
-1.217700 0.058561 2.398383 0
-0.401515 0.495724 2.228714 0
-0.950643 0.514202 2.844832 0
-0.876570 0.030713 2.086497 0
-0.356757 0.503476 2.646944 0
-0.542378 0.506180 2.048418 0
-0.696384 0.600768 2.852605 0
-1.136315 0.058027 2.214397 0
-0.321251 0.505549 2.368191 0
-1.098812 0.507278 2.755925 0
-0.728341 0.436533 1.978254 0
-0.433435 0.551333 2.795337 0
-0.420003 0.508495 2.124349 0
-0.873925 0.517561 2.973930 0
-1.001886 0.046003 2.072319 0
-0.270353 0.489905 2.571177 0
-1.272315 0.319796 2.736518 0
-0.598359 0.500052 1.976115 0
-0.576834 0.603405 2.895155 0
-1.264154 0.057256 2.281425 0
-0.310093 0.508202 2.255950 0
-1.063163 0.506918 2.913295 0
-0.824814 0.024852 1.983971 0
-0.296071 0.496228 2.792703 0
-0.459615 0.501972 2.032122 0
-0.759856 0.602170 2.977267 0
-1.133597 0.061500 2.096252 0
-0.231639 0.507436 2.444195 0
-1.227306 0.457592 2.798158 0
-0.668454 0.447933 1.923968 0
-0.414629 0.521444 2.985706 0
-0.328634 0.506352 2.143176 0
-0.960185 0.043947 1.969008 0
-0.195230 0.482193 2.701737 0
-0.523552 0.498527 1.951425 0
-0.622795 0.603473 3.036120 0
-1.270924 0.060760 2.162015 0
-0.214924 0.501057 2.318193 0
-1.183376 0.494821 2.942977 0
-0.750056 0.026630 1.903926 0
-0.269160 0.501991 2.945877 0
-0.375143 0.505097 2.037222 0
-0.852303 0.574376 3.116020 0
-1.102014 0.058835 1.989531 0
-0.151878 0.506900 2.548220 0
-0.603236 0.482197 1.888158 0
-0.720790 0.506232 2.375480 0
-0.758329 0.518739 2.417695 0
-0.725299 0.513638 2.284059 0
-0.649150 0.519088 2.451799 0
-0.834144 0.508858 2.365452 0
-0.627267 0.512577 2.285179 0
-0.739749 0.516553 2.535372 0
-0.803477 0.507080 2.241019 0
-0.558886 0.510121 2.418408 0
-0.873605 0.507237 2.470582 0
-0.671565 0.508830 2.194763 0
-0.636468 0.536359 2.567926 0
-0.900573 0.467916 2.305586 0
-0.531705 0.509447 2.301260 0
-0.826920 0.514962 2.599379 0
-0.773821 0.486503 2.160667 0
-0.515052 0.516419 2.523839 0
-0.957909 0.483385 2.428142 0
-0.584248 0.504078 2.178550 0
-0.699238 0.556079 2.651766 0
-0.907671 0.382201 2.234418 0
-0.454758 0.509705 2.381551 0
-0.931749 0.515450 2.582800 0
-0.699865 0.496190 2.103991 0
-0.543042 0.569098 2.613576 0
-1.077847 0.078842 2.513016 0
-0.487607 0.504396 2.215555 0
-0.807329 0.521401 2.731153 0
-0.857714 0.285196 2.161181 0
-0.411435 0.512005 2.508973 0
-1.030065 0.467847 2.532069 0
-0.600543 0.498950 2.090818 0
-0.621757 0.598788 2.702022 0
-1.069351 0.047453 2.359277 0
-0.396143 0.499827 2.307994 0
-0.939802 0.504015 2.724541 0
-0.758122 0.423770 2.059045 0
-0.425614 0.531636 2.651843 0
-0.489489 0.499871 2.125125 0
-0.741787 0.571380 2.798520 0
-0.991959 0.034719 2.208483 0
-0.333548 0.504384 2.446664 0
-1.057105 0.496162 2.636301 0
-0.649394 0.495075 2.020497 0
-0.512777 0.584823 2.756327 0
-1.187868 0.055127 2.420384 0
-0.381004 0.501663 2.210602 0
-0.899337 0.518179 2.849274 0
-0.859793 0.032659 2.091732 0
-0.314067 0.500973 2.630553 0
-0.525219 0.498087 2.040520 0
-0.645723 0.603847 2.846135 0
-1.115307 0.051071 2.233341 0
-0.286145 0.493191 2.354697 0
-1.049949 0.514650 2.764319 0
-0.715390 0.423628 1.978783 0
-0.375861 0.529183 2.801915 0
-0.400025 0.504095 2.110493 0
-0.816451 0.549387 2.942620 0
-0.985964 0.044268 2.083770 0
-0.230727 0.486905 2.551078 0
-1.193435 0.409852 2.690400 0
-0.586033 0.497894 1.969478 0
-0.518819 0.585991 2.906575 0
-1.240449 0.051158 2.306133 0
-0.285074 0.506151 2.236670 0
-1.008629 0.509651 2.923914 0
-0.812711 0.026699 1.987127 0
-0.239509 0.479985 2.786330 0
-0.443993 0.497841 2.019687 0
-0.704379 0.615596 2.960361 0
-1.116083 0.062438 2.113108 0
-0.192620 0.495915 2.427010 0
-1.164832 0.494783 2.784793 0
-0.659992 0.457275 1.919567 0
-0.352640 0.509338 2.983503 0
-0.308342 0.503605 2.124813 0
-0.921766 0.507216 3.079534 0
-0.948889 0.041790 1.978589 0
-0.150147 0.479960 2.677869 0
-0.513301 0.500185 1.941043 0
-0.560844 0.592664 3.043715 0
-1.252725 0.054197 2.186699 0
-0.187104 0.499021 2.294686 0
-1.124324 0.506257 2.949446 0
-0.741585 0.025844 1.904032 0
-0.210769 0.495561 2.930217 0
-0.359577 0.502177 2.020802 0
-0.789355 0.602032 3.082433 0
-1.089638 0.058038 2.005309 0
-0.115025 0.506801 2.520793 0
-0.594834 0.479877 1.881649 0
-0.679597 0.520957 2.357190 0
-0.713027 0.517618 2.409524 0
-0.687943 0.514560 2.273860 0
-0.600956 0.510709 2.441631 0
-0.791472 0.515117 2.358014 0
-0.589293 0.508278 2.271663 0
-0.687703 0.514827 2.525791 0
-0.768182 0.506716 2.236011 0
-0.516947 0.519792 2.393024 0
-0.824498 0.512432 2.464570 0
-0.639519 0.509637 2.182117 0
-0.582093 0.530466 2.555458 0
-0.859079 0.493041 2.294275 0
-0.491124 0.499640 2.284684 0
-0.770939 0.520334 2.588879 0
-0.743575 0.496511 2.151150 0
-0.461901 0.507275 2.506665 0
-0.909721 0.493295 2.424698 0
-0.552949 0.502745 2.161696 0
-0.642605 0.566952 2.628772 0
-0.869152 0.417502 2.222516 0
-0.409451 0.500921 2.360389 0
-0.877424 0.501226 2.592842 0
-0.672879 0.497137 2.093365 0
-0.480081 0.544109 2.611121 0
-0.968440 0.407934 2.364802 0
-0.453369 0.500117 2.194103 0
-0.744506 0.539306 2.706482 0
-0.809324 0.734293 2.043049 0
-0.360205 0.506894 2.483325 0
-0.970004 0.503042 2.514049 0
-0.575274 0.502902 2.073916 0
-0.558936 0.589084 2.692241 0
-1.024531 0.050093 2.365902 0
-0.354188 0.489990 2.283645 0
-0.875318 0.509217 2.718565 0
-0.735980 0.487507 2.039606 0
-0.353546 0.495752 2.651177 0
-1.055673 0.372270 2.462978 0
-0.462834 0.503461 2.101739 0
-0.676404 0.583913 2.772870 0
-0.956334 0.037605 2.211667 0
-0.284098 0.496161 2.418437 0
-0.995057 0.507274 2.633499 0
-0.627568 0.497453 2.007148 0
-0.443996 0.568717 2.746487 0
-1.139362 0.055023 2.434362 0
-0.348184 0.500652 2.181960 0
-0.827931 0.528679 2.833690 0
-0.831344 0.044234 2.086638 0
-0.250910 0.486314 2.606196 0
-1.104932 0.399815 2.563901 0
-0.503030 0.501303 2.019825 0
-0.577159 0.604793 2.826186 0
-1.078507 0.049049 2.244774 0
-0.246709 0.494816 2.318871 0
-0.981716 0.520340 2.763242 0
-0.697087 0.447250 1.966673 0
-0.294240 0.494747 2.801037 0
-0.372061 0.501218 2.083678 0
-0.742268 0.584231 2.892589 0
-0.958383 0.041061 2.088445 0
-0.186370 0.498389 2.504232 0
-1.106063 0.483887 2.645575 0
-0.567162 0.499181 1.952908 0
-0.426918 0.529028 2.943715 0
-1.200421 0.043945 2.326102 0
-0.249362 0.502299 2.203524 0
-0.932483 0.510183 2.923413 0
-0.790804 0.031431 1.981136 0
-0.176662 0.482102 2.743787 0
-0.422746 0.499350 1.994732 0
-0.628793 0.615639 2.943155 0
-1.087309 0.055944 2.125911 0
-0.148470 0.495874 2.386318 0
-1.090130 0.512529 2.778500 0
-0.643491 0.457516 1.907329 0
-0.272699 0.500027 2.957353 0
-0.277032 0.495907 2.093928 0
-0.834274 0.561675 3.006376 0
-0.927430 0.039124 1.981217 0
-0.099847 0.491369 2.624376 0
-0.495520 0.498874 1.920613 0
-0.470283 0.558228 3.061698 0
-1.218059 0.052741 2.206018 0
-0.153463 0.504154 2.252245 0
-1.041660 0.521936 2.938194 0
-0.724703 0.026585 1.894579 0
-0.133657 0.487154 2.895246 0
-0.337532 0.501505 1.991344 0
-0.706702 0.609185 3.058650 0
-1.066679 0.054128 2.016218 0
-0.069500 0.511871 2.472031 0
-1.199023 0.486772 2.771819 0
-0.580956 0.481551 1.865819 0
-0.642356 0.517387 2.344517 0
-0.673242 0.516828 2.396794 0
-0.655706 0.516483 2.259626 0
-0.559926 0.509561 2.422935 0
-0.754021 0.512861 2.350539 0
-0.557687 0.509700 2.252441 0
-0.641837 0.513271 2.511241 0
-0.737430 0.509367 2.226027 0
-0.476501 0.510862 2.374447 0
-0.781206 0.515594 2.454788 0
-0.611248 0.504431 2.168402 0
-0.534122 0.524504 2.538276 0
-0.823818 0.509575 2.282361 0
-0.457630 0.495336 2.262522 0
-0.721558 0.522723 2.575228 0
-0.717383 0.497643 2.141031 0
-0.418290 0.506666 2.479795 0
-0.867403 0.500363 2.417620 0
-0.526778 0.502291 2.141938 0
-0.591535 0.564813 2.611550 0
-0.836290 0.453419 2.206196 0
-0.371007 0.493888 2.335004 0
-0.826137 0.516590 2.575141 0
-0.649997 0.497601 2.080046 0
-0.420898 0.514303 2.606668 0
-0.921943 0.461658 2.339583 0
-0.425323 0.498129 2.169391 0
-0.690988 0.562802 2.671376 0
-0.795926 0.423821 2.117086 0
-0.314770 0.498529 2.456014 0
-0.923365 0.501849 2.514119 0
-0.553024 0.499784 2.056321 0
-0.500536 0.571356 2.684029 0
-0.983414 0.063110 2.362848 0
-0.323491 0.492006 2.251638 0
-0.817956 0.514382 2.706148 0
-0.714790 0.471460 2.032894 0
-0.300766 0.490032 2.621128 0
-0.998945 0.429973 2.435224 0
-0.440212 0.503568 2.077371 0
-0.620091 0.596479 2.741535 0
-0.925995 0.034930 2.211174 0
-0.246613 0.497299 2.381975 0
-0.941856 0.505893 2.633890 0
-0.609219 0.496932 1.992004 0
-0.371530 0.526334 2.754973 0
-1.096193 0.053745 2.442137 0
-0.323064 0.503497 2.150248 0
-0.765198 0.549456 2.801097 0
-0.807772 0.047614 2.078906 0
-0.201073 0.481796 2.570060 0
-1.041298 0.451836 2.535485 0
-0.483343 0.497318 1.998581 0
-0.514826 0.597512 2.808957 0
-1.046832 0.042625 2.251753 0
-0.216174 0.499185 2.279900 0
-0.922154 0.515266 2.764960 0
-0.680921 0.449909 1.954738 0
-0.230227 0.481972 2.773354 0
-0.350814 0.501736 2.054490 0
-0.679167 0.604784 2.852428 0
-0.934979 0.035780 2.088861 0
-0.146137 0.501082 2.460875 0
-1.045216 0.505756 2.633323 0
-0.551758 0.498539 1.934747 0
-0.345559 0.490463 2.951288 0
-1.163098 0.042021 2.337884 0
-0.222223 0.502293 2.167346 0
-0.863610 0.514055 2.911531 0
-0.773052 0.029888 1.972240 0
-0.119949 0.477428 2.702990 0
-0.405809 0.499690 1.968652 0
-0.557598 0.596435 2.942154 0
-1.062297 0.048680 2.133644 0
-0.115690 0.500681 2.341206 0
-1.026439 0.518970 2.774919 0
-0.630807 0.460765 1.892917 0
-0.209811 0.503759 2.911004 0
-0.255614 0.496509 2.059609 0
-0.762476 0.586060 2.962656 0
-0.909653 0.035414 1.979839 0
-0.054506 0.494327 2.574848 0
-1.162099 0.428961 2.653870 0
-0.482307 0.499602 1.898640 0
-0.390389 0.536848 3.054336 0
-1.186399 0.053869 2.218524 0
-0.127932 0.509951 2.208601 0
-0.972708 0.515357 2.943125 0
-0.711659 0.025392 1.882276 0
-0.069009 0.481725 2.851797 0
-0.322259 0.504670 1.960430 0
-0.632096 0.601680 3.046643 0
-1.047440 0.047824 2.022631 0
-0.024516 0.504756 2.428656 0
-1.131046 0.502042 2.766085 0
-0.570743 0.484456 1.848461 0
-0.614397 0.514292 2.333236 0
-0.643021 0.514998 2.386184 0
-0.631309 0.510929 2.250139 0
-0.530529 0.515137 2.402564 0
-0.725754 0.509390 2.344783 0
-0.533225 0.503103 2.238633 0
-0.608210 0.522623 2.491267 0
-0.714993 0.507501 2.218980 0
-0.445593 0.501912 2.358090 0
-0.748107 0.511525 2.450529 0
-0.591375 0.501190 2.155889 0
-0.496159 0.516437 2.524596 0
-0.798484 0.514344 2.276417 0
-0.433080 0.490359 2.243221 0
-0.683197 0.522977 2.564671 0
-0.698890 0.495301 2.133275 0
-0.384121 0.502189 2.458097 0
-0.835725 0.502644 2.413903 0
-0.507873 0.497985 2.125732 0
-0.550229 0.556842 2.600964 0
-0.814080 0.468878 2.197728 0
-0.345402 0.494235 2.309052 0
-0.787298 0.519881 2.567441 0
-0.634540 0.497011 2.068766 0
-0.381205 0.510335 2.584359 0
-0.891286 0.484120 2.329343 0
-0.407513 0.500489 2.146341 0
-0.649258 0.571467 2.651386 0
