ply
format ascii 1.0
element vertex 1544
property float x
property float y
property float z
property uchar label
end_header
-0.462695 0.635773 -0.118890 1
-0.445443 0.811119 -0.203242 1
-0.430952 0.700170 -0.208678 1
-0.482146 0.828395 -0.116292 1
-0.424323 0.775311 -0.218857 1
-0.445457 0.651503 -0.160177 1
-0.468252 0.751928 -0.131783 1
-0.472994 0.758037 -0.125726 1
-0.464762 0.736585 -0.125790 1
-0.464973 0.767292 -0.149061 1
-0.476547 0.744334 -0.101990 1
-0.459496 0.743314 -0.153704 1
-0.474170 0.775272 -0.132329 1
-0.470541 0.723562 -0.104959 1
-0.458239 0.765600 -0.167732 1
-0.480139 0.758256 -0.090924 1
-0.459316 0.724567 -0.140679 1
-0.468886 0.785027 -0.157119 1
-0.476224 0.723662 -0.070246 1
-0.451551 0.749481 -0.170793 1
-0.482062 0.780587 -0.114757 1
-0.469284 0.711149 -0.118875 1
-0.458196 0.781003 -0.175954 1
-0.481750 0.742212 -0.053297 1
-0.453156 0.727449 -0.162978 1
-0.475480 0.795276 -0.146752 1
-0.473687 0.703402 -0.065100 1
-0.447099 0.763327 -0.181790 1
-0.489114 0.774174 -0.086108 1
-0.460698 0.705593 -0.135932 1
-0.464184 0.796092 -0.176580 1
-0.447022 0.738726 -0.182385 1
-0.482024 0.797634 -0.120222 1
-0.475869 0.695441 -0.099759 1
-0.447999 0.780849 -0.187811 1
-0.451921 0.710364 -0.159919 1
-0.470245 0.806799 -0.160762 1
-0.440973 0.754782 -0.192756 1
-0.491535 0.791523 -0.090347 1
-0.467364 0.690392 -0.125482 1
-0.455955 0.798845 -0.190833 1
-0.444693 0.723809 -0.183979 1
-0.477874 0.811436 -0.132728 1
-0.439142 0.774384 -0.197309 1
-0.454299 0.692755 -0.149254 1
-0.461679 0.812547 -0.174367 1
-0.438294 0.742324 -0.200215 1
-0.488761 0.808002 -0.099625 1
-0.471879 0.673756 -0.096553 1
-0.446392 0.795649 -0.201892 1
-0.445518 0.706857 -0.179548 1
-0.470877 0.821186 -0.148868 1
-0.433405 0.763647 -0.206188 1
-0.461122 0.676791 -0.134604 1
-0.453446 0.813400 -0.190837 1
-0.437311 0.726521 -0.201418 1
-0.483430 0.822188 -0.116398 1
-0.473979 0.655543 -0.047404 1
-0.435378 0.787069 -0.207959 1
-0.448295 0.688216 -0.167313 1
-0.460950 0.826266 -0.164344 1
-0.430776 0.749675 -0.213061 1
-0.498567 0.813155 -0.080986 1
-0.467916 0.660154 -0.107439 1
-0.445302 0.809503 -0.206531 1
-0.438607 0.708506 -0.196974 1
-0.477127 0.832653 -0.139776 1
-0.427820 0.774740 -0.215125 1
-0.453927 0.669482 -0.148725 1
-0.452260 0.826818 -0.184114 1
-0.430080 0.732820 -0.215206 1
-0.492672 0.829158 -0.101659 1
-0.473712 0.642591 -0.064385 1
-0.436815 0.801073 -0.218784 1
-0.442103 0.688972 -0.186205 1
-0.466422 0.838406 -0.158063 1
-0.424565 0.759659 -0.222682 1
-0.461747 0.651259 -0.122284 1
-0.444654 0.822863 -0.204437 1
-0.431355 0.713692 -0.211934 1
-0.484766 0.841163 -0.126282 1
-0.426178 0.787872 -0.223801 1
-0.447195 0.668132 -0.167317 1
-0.468518 0.763853 -0.146122 1
-0.473253 0.769854 -0.140565 1
-0.464340 0.748783 -0.138890 1
-0.465128 0.778399 -0.162041 1
-0.476559 0.756918 -0.117855 1
-0.458775 0.754706 -0.164698 1
-0.475055 0.786607 -0.148124 1
-0.467945 0.735301 -0.114452 1
-0.456404 0.775783 -0.175859 1
-0.479242 0.770125 -0.105150 1
-0.459202 0.737060 -0.153591 1
-0.468656 0.795364 -0.168982 1
-0.480267 0.739985 -0.098454 1
-0.450018 0.760099 -0.179333 1
-0.481976 0.791679 -0.129639 1
-0.465748 0.722347 -0.125837 1
-0.457276 0.791025 -0.185398 1
-0.481383 0.755492 -0.071238 1
-0.452713 0.739283 -0.174010 1
-0.474321 0.805233 -0.157245 1
-0.479801 0.722456 -0.098954 1
-0.445518 0.773483 -0.189707 1
-0.486725 0.785078 -0.096917 1
-0.458179 0.717277 -0.144341 1
-0.461663 0.805398 -0.183020 1
-0.445715 0.749519 -0.190896 1
-0.482334 0.808190 -0.135567 1
-0.472903 0.707755 -0.109113 1
-0.447459 0.790857 -0.197240 1
-0.451448 0.722752 -0.171094 1
-0.467098 0.816022 -0.166376 1
-0.438817 0.764755 -0.199335 1
-0.491310 0.802544 -0.106647 1
-0.463554 0.701709 -0.131808 1
-0.452859 0.807875 -0.195768 1
-0.443093 0.734784 -0.191967 1
-0.475673 0.821048 -0.141324 1
-0.476124 0.693847 -0.070999 1
-0.438286 0.784355 -0.205731 1
-0.451562 0.704357 -0.156724 1
-0.456698 0.821375 -0.176062 1
-0.437117 0.752830 -0.208159 1
-0.488539 0.818369 -0.115005 1
-0.472464 0.689710 -0.114607 1
-0.444338 0.804847 -0.208263 1
-0.444173 0.718469 -0.188235 1
-0.467244 0.830369 -0.153640 1
-0.430164 0.772965 -0.210645 1
-0.493602 0.803752 -0.061330 1
-0.458369 0.689059 -0.142854 1
-0.448918 0.822151 -0.193185 1
-0.435867 0.737240 -0.208952 1
-0.483377 0.831969 -0.130836 1
-0.475258 0.674031 -0.070719 1
-0.433532 0.796434 -0.214426 1
-0.446090 0.699965 -0.175081 1
-0.456729 0.835284 -0.167558 1
-0.428639 0.759486 -0.219046 1
-0.497567 0.823435 -0.095781 1
-0.464380 0.672742 -0.115327 1
-0.441689 0.818257 -0.210215 1
-0.437516 0.719919 -0.205312 1
-0.474302 0.841835 -0.146486 1
-0.426619 0.784415 -0.222312 1
-0.452248 0.682504 -0.158434 1
-0.448797 0.835715 -0.188364 1
-0.427717 0.742785 -0.220854 1
-0.492583 0.838840 -0.117239 1
-0.472830 0.659261 -0.081183 1
-0.434232 0.809961 -0.223851 1
-0.439637 0.700184 -0.192803 1
-0.466128 0.847414 -0.169190 1
-0.421443 0.768883 -0.226985 1
-0.461120 0.666419 -0.135791 1
-0.441042 0.831589 -0.208100 1
-0.430335 0.724762 -0.219724 1
-0.484652 0.850290 -0.139939 1
-0.423990 0.797003 -0.229322 1
-0.445159 0.680524 -0.175488 1
-0.466741 0.776545 -0.156301 1
-0.471859 0.782642 -0.151963 1
-0.465090 0.763128 -0.154567 1
-0.464630 0.790864 -0.174024 1
-0.474757 0.770320 -0.129516 1
-0.456434 0.767029 -0.172795 1
-0.473943 0.798906 -0.159832 1
-0.469251 0.750978 -0.133012 1
-0.455750 0.788027 -0.186639 1
-0.482746 0.785389 -0.130467 1
-0.456216 0.749650 -0.160833 1
-0.465650 0.806663 -0.175769 1
-0.476555 0.753237 -0.106508 1
-0.447957 0.772165 -0.187272 1
-0.480733 0.804123 -0.142181 1
-0.462561 0.735686 -0.133794 1
-0.453313 0.801932 -0.189846 1
-0.483997 0.771846 -0.097137 1
-0.448848 0.751018 -0.178897 1
-0.470226 0.816366 -0.162158 1
-0.473600 0.734484 -0.100871 1
-0.441648 0.784570 -0.194189 1
-0.486184 0.798499 -0.113176 1
-0.455237 0.730476 -0.151991 1
-0.457062 0.816095 -0.186338 1
-0.480142 0.749018 -0.065301 1
-0.441414 0.760651 -0.194602 1
-0.478056 0.819580 -0.140701 1
-0.467624 0.720360 -0.113052 1
-0.444437 0.801839 -0.202996 1
-0.491777 0.783566 -0.085870 1
-0.447494 0.734731 -0.175887 1
-0.459917 0.826603 -0.164854 1
-0.474958 0.724497 -0.055075 1
-0.435730 0.776051 -0.204837 1
-0.488717 0.814780 -0.117212 1
-0.459024 0.714444 -0.136698 1
-0.447948 0.818369 -0.198362 1
-0.439714 0.746493 -0.197164 1
-0.472828 0.832432 -0.149393 1
-0.478690 0.713503 -0.096546 1
-0.435419 0.795357 -0.211458 1
-0.496482 0.799983 -0.085441 1
-0.451799 0.719582 -0.169848 1
-0.452960 0.832248 -0.181129 1
-0.431791 0.763261 -0.209947 1
-0.485865 0.830159 -0.124808 1
-0.466747 0.702101 -0.117451 1
-0.440412 0.815363 -0.212312 1
-0.441345 0.730802 -0.194449 1
-0.463896 0.841471 -0.160100 1
-0.427641 0.784164 -0.216693 1
-0.498683 0.818280 -0.096421 1
-0.454924 0.702552 -0.149595 1
-0.446016 0.832871 -0.199285 1
-0.431777 0.748287 -0.212602 1
-0.480193 0.843294 -0.138592 1
-0.473264 0.690871 -0.084553 1
-0.433310 0.807681 -0.223906 1
-0.444934 0.714006 -0.184653 1
-0.457554 0.846290 -0.181437 1
-0.423652 0.769880 -0.221278 1
-0.496250 0.835510 -0.110480 1
-0.464124 0.689897 -0.130306 1
-0.437668 0.828681 -0.214112 1
-0.433459 0.731233 -0.209051 1
-0.476299 0.852806 -0.164830 1
-0.424086 0.795274 -0.228077 1
-0.450120 0.696751 -0.167052 1
-0.448971 0.846439 -0.199894 1
-0.424005 0.753753 -0.224839 1
-0.489828 0.850214 -0.126749 1
-0.470504 0.676030 -0.093601 1
-0.430263 0.820261 -0.227602 1
-0.437194 0.713008 -0.199429 1
-0.469243 0.857876 -0.187932 1
-0.416917 0.779294 -0.229835 1
-0.505248 0.836268 -0.087830 1
-0.457104 0.680102 -0.141694 1
-0.440823 0.842146 -0.218046 1
-0.426932 0.736092 -0.224128 1
-0.485742 0.860986 -0.157333 1
-0.422838 0.807860 -0.236857 1
-0.444294 0.695324 -0.185518 1
-0.469141 0.786713 -0.161822 1
-0.474145 0.792740 -0.157521 1
-0.466800 0.773260 -0.158517 1
-0.465572 0.800130 -0.176373 1
-0.477113 0.780990 -0.135644 1
-0.457688 0.776657 -0.175456 1
-0.474019 0.808083 -0.160633 1
-0.469637 0.760960 -0.134292 1
-0.454788 0.796617 -0.185219 1
-0.480535 0.794281 -0.125782 1
-0.458638 0.760192 -0.165797 1
-0.462771 0.815024 -0.170605 1
-0.473888 0.762076 -0.100458 1
-0.447322 0.780880 -0.186334 1
-0.481521 0.813676 -0.144819 1
-0.463302 0.745976 -0.135661 1
-0.453314 0.810699 -0.190292 1
-0.481246 0.780902 -0.090656 1
-0.450518 0.760913 -0.181999 1
-0.467754 0.825078 -0.157647 1
-0.469830 0.742629 -0.091993 1
-0.443356 0.793841 -0.197318 1
-0.488015 0.808788 -0.118857 1
-0.455570 0.740313 -0.152724 1
-0.452904 0.824277 -0.179195 1
-0.481925 0.760746 -0.071128 1
-0.441889 0.769726 -0.195436 1
-0.477949 0.828919 -0.141318 1
-0.466993 0.730235 -0.111875 1
-0.444028 0.810360 -0.202682 1
-0.490818 0.793493 -0.084164 1
-0.448962 0.744778 -0.178500 1
-0.458853 0.835551 -0.163482 1
-0.471505 0.733385 -0.046293 1
-0.435884 0.784789 -0.205189 1
-0.489416 0.824578 -0.120046 1
-0.458614 0.724155 -0.135883 1
-0.444883 0.826601 -0.193625 1
-0.479611 0.763847 -0.020127 1
-0.439774 0.755444 -0.197158 1
-0.472397 0.841614 -0.149331 1
-0.472788 0.719815 -0.081755 1
-0.436752 0.804178 -0.213799 1
-0.491191 0.808763 -0.071036 1
-0.448882 0.727280 -0.164189 1
-0.452223 0.841018 -0.180485 1
-0.473056 0.731660 0.003932 1
-0.431379 0.771790 -0.209269 1
-0.487000 0.839775 -0.128713 1
-0.467078 0.712692 -0.118377 1
-0.438341 0.823525 -0.209451 1
-0.441031 0.739680 -0.193698 1
-0.465671 0.850554 -0.164639 1
-0.428751 0.792965 -0.218459 1
-0.497011 0.827962 -0.092746 1
-0.454231 0.711938 -0.148061 1
-0.444875 0.841379 -0.197996 1
-0.431191 0.756742 -0.211514 1
-0.481696 0.852609 -0.143185 1
-0.473406 0.701915 -0.085294 1
-0.431390 0.815679 -0.221360 1
-0.443860 0.722630 -0.182462 1
-0.460072 0.855025 -0.187028 1
-0.422785 0.778109 -0.219977 1
-0.495636 0.845168 -0.109960 1
-0.460672 0.697413 -0.122618 1
-0.437011 0.837025 -0.213634 1
-0.434243 0.740466 -0.209959 1
-0.475268 0.861782 -0.163583 1
-0.424627 0.803706 -0.229016 1
-0.448486 0.705244 -0.163651 1
-0.451609 0.854937 -0.205202 1
-0.422548 0.761704 -0.222539 1
-0.492462 0.859542 -0.134693 1
-0.468664 0.685308 -0.089214 1
-0.428496 0.828309 -0.225449 1
-0.436159 0.721469 -0.197318 1
-0.470846 0.866366 -0.192029 1
-0.417730 0.787879 -0.230943 1
-0.506263 0.846296 -0.092324 1
-0.455925 0.689293 -0.139004 1
-0.440648 0.850440 -0.218441 1
-0.426404 0.744447 -0.222995 1
-0.487198 0.869827 -0.161839 1
-0.421214 0.815762 -0.234892 1
-0.441487 0.702758 -0.180133 1
-0.471565 0.801020 -0.158745 1
-0.474624 0.806528 -0.150052 1
-0.469335 0.787747 -0.155630 1
-0.464589 0.813393 -0.166562 1
-0.476781 0.794788 -0.125598 1
-0.461365 0.791280 -0.174937 1
-0.472274 0.821532 -0.148294 1
-0.469009 0.774557 -0.123814 1
-0.455635 0.810230 -0.179418 1
-0.483860 0.809393 -0.124356 1
-0.461557 0.774862 -0.163707 1
-0.461249 0.828618 -0.159593 1
-0.476862 0.777814 -0.097853 1
-0.450854 0.795296 -0.185420 1
-0.480289 0.827551 -0.132640 1
-0.467287 0.761807 -0.135693 1
-0.449171 0.823518 -0.175465 1
-0.487828 0.797892 -0.097627 1
-0.452697 0.775056 -0.178569 1
-0.468513 0.839302 -0.150854 1
-0.471795 0.758170 -0.086756 1
-0.444847 0.807491 -0.192929 1
-0.490162 0.823655 -0.114210 1
-0.458532 0.755452 -0.150550 1
-0.452043 0.838070 -0.170096 1
-0.476599 0.773117 -0.044538 1
-0.443490 0.783467 -0.191128 1
-0.479405 0.843460 -0.135498 1
-0.467229 0.744492 -0.102933 1
-0.441106 0.823246 -0.190943 1
-0.488272 0.807616 -0.065079 1
-0.450060 0.758583 -0.172979 1
-0.464370 0.850026 -0.166636 1
-0.469024 0.747154 -0.027591 1
-0.436706 0.798189 -0.199790 1
-0.492382 0.839551 -0.117493 1
-0.457848 0.737514 -0.125527 1
-0.445941 0.840372 -0.188517 1
-0.440343 0.768794 -0.191071 1
-0.478980 0.856168 -0.155328 1
-0.469062 0.731823 -0.061441 1
-0.435107 0.817030 -0.204713 1
-0.498481 0.825561 -0.080568 1
-0.450888 0.741880 -0.160152 1
-0.459856 0.855148 -0.187410 1
-0.432097 0.785103 -0.203725 1
-0.490894 0.854613 -0.128623 1
-0.464428 0.724814 -0.102863 1
-0.437909 0.836886 -0.202251 1
-0.441023 0.752785 -0.186500 1
-0.477009 0.864484 -0.180210 1
-0.430103 0.806332 -0.214145 1
-0.501961 0.843588 -0.095492 1
-0.454606 0.725827 -0.140502 1
-0.451428 0.855203 -0.202510 1
-0.431130 0.769695 -0.204717 1
-0.490070 0.866873 -0.153965 1
-0.466508 0.710983 -0.056903 1
-0.431123 0.828803 -0.214755 1
-0.443977 0.735928 -0.175194 1
-0.468338 0.868562 -0.195516 1
-0.423558 0.791349 -0.214735 1
-0.501105 0.860260 -0.114146 1
-0.463066 0.713122 -0.119022 1
-0.439860 0.850580 -0.211845 1
-0.433203 0.752898 -0.201479 1
-0.484975 0.875290 -0.176536 1
-0.424871 0.816731 -0.223307 1
-0.506009 0.841815 -0.052872 1
-0.449565 0.719424 -0.157796 1
-0.458986 0.868244 -0.211407 1
-0.421969 0.774406 -0.215267 1
-0.501236 0.873602 -0.147481 1
-0.468245 0.699281 -0.078184 1
-0.429914 0.841628 -0.221534 1
-0.437160 0.735103 -0.191833 1
-0.479507 0.879301 -0.201895 1
-0.419542 0.801229 -0.227376 1
-0.506807 0.861804 -0.081247 1
-0.457052 0.703906 -0.132857 1
-0.448544 0.863671 -0.224845 1
-0.424983 0.756627 -0.214354 1
-0.496820 0.882914 -0.175695 1
-0.420843 0.828718 -0.228531 1
-0.442684 0.716833 -0.174710 1
-0.473412 0.814662 -0.144817 1
-0.477075 0.820506 -0.136841 1
-0.473105 0.801841 -0.146022 1
-0.466112 0.827231 -0.152506 1
-0.482650 0.809897 -0.119586 1
-0.464853 0.805151 -0.165590 1
-0.475353 0.835968 -0.136335 1
-0.477980 0.791041 -0.125373 1
-0.456416 0.823804 -0.164924 1
-0.487800 0.824013 -0.113078 1
-0.468331 0.790004 -0.160885 1
-0.466093 0.843305 -0.152127 1
-0.485887 0.794565 -0.099381 1
-0.455688 0.809548 -0.179044 1
-0.485713 0.842504 -0.125316 1
-0.470418 0.775780 -0.124091 1
-0.454312 0.838092 -0.169186 1
-0.489449 0.812061 -0.078411 1
-0.459728 0.790172 -0.176330 1
-0.474663 0.854189 -0.145797 1
-0.476333 0.773355 -0.076299 1
-0.448431 0.821491 -0.184465 1
-0.493749 0.838519 -0.100934 1
-0.465486 0.771122 -0.147913 1
-0.459335 0.852862 -0.167748 1
-0.449143 0.797986 -0.186377 1
-0.488468 0.858548 -0.137044 1
-0.470199 0.758669 -0.089581 1
-0.444929 0.837509 -0.182781 1
-0.494215 0.823597 -0.056313 1
-0.457081 0.774023 -0.170653 1
-0.475866 0.864582 -0.173178 1
-0.473259 0.762960 -0.013518 1
-0.442382 0.812603 -0.195120 1
-0.494882 0.854609 -0.100987 1
-0.464385 0.753528 -0.121553 1
-0.457233 0.854996 -0.193624 1
-0.446037 0.783458 -0.186404 1
-0.486054 0.870835 -0.152431 1
-0.470980 0.745697 -0.043122 1
-0.438391 0.831011 -0.196159 1
-0.498333 0.840474 -0.052886 1
-0.455086 0.756284 -0.152129 1
-0.468439 0.869362 -0.187993 1
-0.438204 0.799695 -0.199805 1
-0.499076 0.869601 -0.127949 1
-0.468348 0.739509 -0.092182 1
-0.444390 0.851227 -0.198877 1
-0.446099 0.767362 -0.180724 1
-0.487115 0.878347 -0.184489 1
-0.432877 0.820042 -0.205142 1
-0.505051 0.859077 -0.078355 1
-0.457455 0.739634 -0.129094 1
-0.465232 0.869010 -0.212318 1
-0.435476 0.783805 -0.197999 1
-0.501799 0.880830 -0.162710 1
-0.467143 0.723762 -0.035328 1
-0.435203 0.842837 -0.207770 1
-0.447295 0.749807 -0.166015 1
-0.478269 0.882192 -0.199088 1
-0.429723 0.805843 -0.210925 1
-0.510189 0.875292 -0.115830 1
-0.463733 0.725415 -0.101587 1
-0.451332 0.864585 -0.216843 1
-0.437241 0.766935 -0.194236 1
-0.497233 0.888545 -0.186041 1
-0.428201 0.830536 -0.215444 1
-0.513753 0.858134 -0.048361 1
-0.451936 0.732820 -0.146233 1
-0.469242 0.881659 -0.215233 1
-0.426345 0.788496 -0.208767 1
-0.514333 0.887065 -0.160820 1
-0.464517 0.708145 -0.046656 1
-0.441169 0.855803 -0.225655 1
-0.440450 0.748875 -0.183139 1
-0.489173 0.892481 -0.205447 1
-0.424307 0.815222 -0.221683 1
-0.516022 0.877420 -0.082457 1
-0.459964 0.717726 -0.121456 1
-0.459102 0.877033 -0.228728 1
-0.428532 0.770407 -0.206619 1
-0.507350 0.896123 -0.181895 1
-0.427911 0.842873 -0.226181 1
-0.445442 0.730408 -0.164593 1
-0.475792 0.822977 -0.133399 1
-0.479233 0.828934 -0.124383 1
-0.475936 0.810051 -0.135704 1
-0.469618 0.835923 -0.144099 1
-0.485533 0.818400 -0.107867 1
-0.467288 0.813203 -0.155436 1
-0.480222 0.845024 -0.130326 1
-0.481661 0.799518 -0.116090 1
-0.460247 0.832448 -0.157738 1
-0.492848 0.833186 -0.106602 1
-0.469063 0.797242 -0.146793 1
-0.474672 0.852503 -0.154693 1
-0.487258 0.802403 -0.082397 1
-0.458803 0.817777 -0.170913 1
-0.490120 0.851636 -0.117629 1
-0.473003 0.783722 -0.112317 1
-0.459220 0.846919 -0.164274 1
-0.492068 0.820863 -0.063408 1
-0.461707 0.797815 -0.165792 1
-0.484175 0.863268 -0.150796 1
-0.482843 0.783304 -0.072619 1
-0.449785 0.829564 -0.173409 1
-0.498061 0.847822 -0.091739 1
-0.466139 0.778029 -0.133101 1
-0.470357 0.861798 -0.175108 1
-0.453676 0.806477 -0.181102 1
-0.494013 0.867666 -0.132656 1
-0.474700 0.767574 -0.081096 1
-0.451461 0.846369 -0.181090 1
-0.502235 0.833868 -0.056641 1
-0.458315 0.781195 -0.158455 1
-0.483460 0.873212 -0.174246 1
-0.444152 0.820540 -0.185317 1
-0.503107 0.864118 -0.102990 1
-0.469141 0.762392 -0.114872 1
-0.462944 0.863572 -0.190872 1
-0.449790 0.791677 -0.179685 1
-0.497250 0.879274 -0.162188 1
-0.471746 0.752585 -0.022125 1
-0.443349 0.839614 -0.191876 1
-0.501215 0.850211 -0.036355 1
-0.457889 0.764067 -0.142351 1
-0.479344 0.877545 -0.195637 1
-0.442210 0.808002 -0.193916 1
-0.508591 0.878451 -0.134244 1
-0.470653 0.746959 -0.078313 1
-0.455445 0.859912 -0.205218 1
-0.448228 0.774868 -0.170853 1
-0.494517 0.886644 -0.185679 1
-0.436645 0.828383 -0.199058 1
-0.508831 0.868924 -0.065776 1
-0.460683 0.747597 -0.119304 1
-0.470931 0.877288 -0.210057 1
-0.438955 0.791921 -0.191136 1
-0.509228 0.889305 -0.164057 1
-0.474126 0.734479 -0.031717 1
-0.440607 0.851367 -0.204457 1
-0.451356 0.758160 -0.159222 1
-0.487096 0.890096 -0.203116 1
-0.434194 0.814225 -0.206013 1
-0.514633 0.884844 -0.107091 1
-0.465788 0.732509 -0.087761 1
-0.459141 0.872794 -0.218008 1
-0.439218 0.774371 -0.184691 1
-0.503173 0.896967 -0.184127 1
-0.433841 0.839057 -0.212488 1
-0.520378 0.868216 -0.043714 1
-0.455719 0.741030 -0.138265 1
-0.477241 0.889540 -0.217373 1
-0.431662 0.797146 -0.205021 1
-0.518329 0.896211 -0.152796 1
-0.466472 0.715078 -0.029715 1
-0.447130 0.864071 -0.223646 1
-0.442659 0.756255 -0.173525 1
-0.495098 0.900664 -0.203866 1
-0.427616 0.823341 -0.215280 1
-0.518348 0.887836 -0.064285 1
-0.465063 0.726812 -0.115559 1
-0.465865 0.885000 -0.228496 1
-0.430404 0.777840 -0.197416 1
-0.515069 0.904063 -0.184531 1
-0.432300 0.851173 -0.221596 1
-0.448140 0.737929 -0.155145 1
-0.477505 0.833109 -0.124500 1
-0.482350 0.839449 -0.118485 1
-0.476632 0.819728 -0.124532 1
-0.473432 0.846373 -0.140331 1
-0.488013 0.828861 -0.099771 1
-0.468301 0.822861 -0.145966 1
-0.485236 0.855686 -0.129135 1
-0.482893 0.809339 -0.105264 1
-0.462507 0.842589 -0.151059 1
-0.497475 0.844062 -0.104118 1
-0.469397 0.806543 -0.135501 1
-0.480100 0.862850 -0.154714 1
-0.490643 0.813272 -0.075976 1
-0.458830 0.827200 -0.160227 1
-0.497513 0.862452 -0.122601 1
-0.474838 0.793708 -0.103154 1
-0.464259 0.857253 -0.163324 1
-0.496892 0.832342 -0.060507 1
-0.463590 0.807460 -0.158543 1
-0.490028 0.873529 -0.151945 1
-0.485158 0.793795 -0.063061 1
-0.452031 0.839558 -0.167211 1
-0.501552 0.858808 -0.085500 1
-0.467955 0.787806 -0.124710 1
-0.476407 0.871815 -0.176547 1
-0.455626 0.816103 -0.174477 1
-0.504281 0.877782 -0.145349 1
-0.475920 0.777407 -0.069240 1
-0.456339 0.856518 -0.179915 1
-0.506128 0.845229 -0.050477 1
-0.460662 0.791006 -0.151978 1
-0.489232 0.883065 -0.175429 1
-0.446155 0.830318 -0.178995 1
-0.507721 0.874994 -0.100258 1
-0.468952 0.771192 -0.101145 1
-0.469038 0.873399 -0.192303 1
-0.453011 0.801650 -0.175355 1
-0.503096 0.889146 -0.163773 1
-0.473913 0.763366 -0.010760 1
-0.447191 0.849617 -0.188908 1
-0.508695 0.862101 -0.041408 1
-0.463674 0.775562 -0.142661 1
-0.484079 0.887195 -0.194796 1
-0.444642 0.817695 -0.188500 1
-0.513018 0.888875 -0.131712 1
-0.471209 0.756227 -0.064861 1
-0.461435 0.869625 -0.206334 1
-0.452949 0.785537 -0.169118 1
-0.499618 0.896256 -0.185720 1
-0.439715 0.838241 -0.194855 1
-0.515816 0.880117 -0.069821 1
-0.462531 0.757362 -0.110701 1
-0.475601 0.886790 -0.209164 1
-0.442644 0.801982 -0.187746 1
-0.513869 0.899238 -0.162774 1
-0.468430 0.739790 0.001971 1
-0.451186 0.861395 -0.212684 1
-0.453675 0.767925 -0.152736 1
-0.491635 0.899589 -0.202080 1
-0.436070 0.823754 -0.199988 1
-0.516791 0.896141 -0.096543 1
-0.468589 0.743005 -0.080467 1
-0.467202 0.882011 -0.222854 1
-0.442152 0.784265 -0.179874 1
-0.510919 0.905822 -0.190698 1
-0.439061 0.848958 -0.211864 1
-0.457182 0.750415 -0.129465 1
-0.481720 0.898891 -0.216311 1
-0.435273 0.807061 -0.201645 1
-0.521532 0.906685 -0.147090 1
-0.452435 0.873562 -0.223553 1
-0.445025 0.765975 -0.167465 1
-0.499424 0.910143 -0.202462 1
-0.430450 0.833008 -0.210938 1
-0.465284 0.735332 -0.103051 1
-0.470751 0.894210 -0.228131 1
-0.434525 0.788076 -0.194680 1
-0.521223 0.913135 -0.187653 1
-0.442842 0.861023 -0.229008 1
-0.451531 0.748318 -0.150631 1
-0.481137 0.846911 -0.118928 1
-0.487644 0.853507 -0.116824 1
-0.478502 0.833112 -0.114818 1
-0.481627 0.860299 -0.145497 1
-0.492442 0.843067 -0.095518 1
-0.468661 0.835766 -0.133935 1
-0.494075 0.869531 -0.136445 1
-0.486185 0.823190 -0.098350 1
-0.468229 0.856304 -0.150575 1
-0.502657 0.858199 -0.101979 1
-0.469522 0.819217 -0.122511 1
-0.490968 0.876081 -0.166236 1
-0.496340 0.828135 -0.074828 1
-0.461633 0.840454 -0.153975 1
-0.506511 0.876135 -0.131125 1
-0.477605 0.807431 -0.095056 1
-0.475310 0.870673 -0.173861 1
-0.503513 0.847441 -0.061753 1
-0.464058 0.819968 -0.147445 1
-0.500823 0.886339 -0.164169 1
-0.491304 0.809194 -0.062993 1
-0.458422 0.853173 -0.167986 1
-0.510023 0.873195 -0.092698 1
-0.469866 0.800955 -0.115454 1
-0.486847 0.884433 -0.186521 1
-0.455108 0.828409 -0.162322 1
-0.513556 0.890569 -0.154986 1
-0.480885 0.792447 -0.065984 1
-0.467602 0.869751 -0.190027 1
-0.509837 0.860094 -0.041854 1
-0.463464 0.804181 -0.145547 1
-0.498327 0.895382 -0.183352 1
-0.449648 0.843506 -0.174514 1
-0.516983 0.888642 -0.110226 1
-0.474045 0.785950 -0.098825 1
-0.478575 0.885843 -0.199794 1
-0.455829 0.814602 -0.169547 1
-0.511521 0.901477 -0.170992 1
-0.457430 0.862962 -0.196450 1
-0.515331 0.877211 -0.042217 1
-0.465455 0.788358 -0.133824 1
-0.491964 0.899317 -0.199745 1
-0.445599 0.830240 -0.179795 1
-0.521766 0.901621 -0.140490 1
-0.476278 0.771551 -0.061883 1
-0.470608 0.882019 -0.212604 1
-0.456645 0.798849 -0.164832 1
-0.506598 0.908410 -0.189281 1
-0.446337 0.851533 -0.195876 1
-0.517308 0.895388 -0.053538 1
-0.465641 0.771152 -0.103950 1
-0.483511 0.898748 -0.213773 1
-0.446035 0.815010 -0.183209 1
-0.522353 0.911206 -0.170816 1
-0.460293 0.873976 -0.218271 1
-0.457520 0.781573 -0.148452 1
-0.497680 0.911712 -0.203439 1
-0.439041 0.836605 -0.195009 1
-0.526392 0.909135 -0.108169 1
-0.468903 0.755423 -0.065843 1
-0.474505 0.893968 -0.226015 1
-0.446486 0.797748 -0.176819 1
-0.516894 0.917940 -0.192216 1
-0.447801 0.861934 -0.216297 1
-0.459286 0.763491 -0.121072 1
-0.488124 0.910769 -0.218267 1
-0.438104 0.819818 -0.196429 1
-0.529760 0.918780 -0.154837 1
-0.460827 0.885709 -0.227969 1
-0.448277 0.779257 -0.162276 1
-0.505198 0.922202 -0.203384 1
-0.437195 0.846187 -0.211938 1
-0.468129 0.749021 -0.095556 1
-0.477183 0.906019 -0.229907 1
-0.439315 0.801527 -0.192466 1
-0.527431 0.925072 -0.189981 1
-0.451807 0.873408 -0.233852 1
-0.453741 0.761245 -0.143085 1
-0.485815 0.857705 -0.127537 1
-0.490315 0.864018 -0.120717 1
-0.479750 0.843701 -0.115237 1
-0.486029 0.870464 -0.152944 1
-0.495788 0.854009 -0.101607 1
-0.469308 0.846092 -0.132971 1
-0.498155 0.879538 -0.143756 1
-0.485594 0.833545 -0.094124 1
-0.477926 0.866805 -0.168474 1
-0.506071 0.868758 -0.108451 1
-0.471712 0.830060 -0.125075 1
-0.494939 0.885629 -0.172687 1
-0.497649 0.839121 -0.075569 1
-0.463975 0.850785 -0.156459 1
-0.510081 0.886012 -0.137671 1
-0.479517 0.818607 -0.097319 1
-0.479367 0.880350 -0.179847 1
-0.507158 0.858697 -0.069564 1
-0.463844 0.829990 -0.144831 1
-0.503455 0.895825 -0.167733 1
-0.491009 0.819967 -0.059276 1
-0.462434 0.863340 -0.173486 1
-0.518140 0.883306 -0.113736 1
-0.470732 0.811647 -0.115151 1
-0.490218 0.893694 -0.191232 1
-0.500521 0.838716 -0.024151 1
-0.454989 0.838364 -0.160026 1
-0.516496 0.899962 -0.159711 1
-0.483891 0.804546 -0.071514 1
-0.471193 0.879315 -0.194677 1
-0.514122 0.871353 -0.052235 1
-0.463808 0.814376 -0.144150 1
-0.502293 0.904328 -0.189723 1
-0.453147 0.853756 -0.178780 1
-0.519605 0.898657 -0.114456 1
-0.475057 0.796956 -0.098988 1
-0.484999 0.894654 -0.210067 1
-0.453592 0.823923 -0.163373 1
-0.514708 0.910519 -0.176060 1
-0.465201 0.872659 -0.208127 1
-0.465415 0.798573 -0.131643 1
-0.494172 0.908416 -0.201962 1
-0.446512 0.840227 -0.179448 1
-0.524518 0.911058 -0.144919 1
-0.480700 0.784778 -0.071237 1
-0.474091 0.891117 -0.216862 1
-0.456740 0.808792 -0.163047 1
-0.509644 0.917238 -0.193646 1
-0.451080 0.861507 -0.201909 1
-0.467989 0.782887 -0.107206 1
-0.485808 0.907729 -0.216017 1
-0.444702 0.824482 -0.179024 1
-0.527587 0.919345 -0.181805 1
-0.463883 0.883188 -0.222431 1
-0.457959 0.791883 -0.147347 1
-0.499140 0.920875 -0.204055 1
-0.440748 0.846538 -0.195938 1
-0.528160 0.919217 -0.109580 1
-0.473310 0.768994 -0.074805 1
-0.476338 0.902967 -0.227304 1
-0.448747 0.808302 -0.178904 1
-0.518251 0.927137 -0.192546 1
-0.451167 0.871427 -0.219862 1
-0.463005 0.775827 -0.127024 1
-0.490340 0.919620 -0.220357 1
-0.437202 0.829323 -0.193176 1
-0.534566 0.926976 -0.165438 1
-0.466115 0.894478 -0.234791 1
-0.450546 0.790206 -0.164543 1
-0.507327 0.931082 -0.205457 1
-0.440770 0.856024 -0.215666 1
-0.467842 0.759647 -0.092860 1
-0.480282 0.914644 -0.233415 1
-0.439990 0.811440 -0.191754 1
-0.530128 0.933647 -0.193869 1
-0.457144 0.882436 -0.240340 1
-0.454241 0.771780 -0.142157 1
-0.487322 0.868140 -0.135310 1
-0.494515 0.874453 -0.135478 1
-0.481393 0.854590 -0.123498 1
-0.491085 0.880332 -0.168082 1
-0.498205 0.864832 -0.112875 1
-0.472879 0.856996 -0.144619 1
-0.502597 0.889113 -0.158706 1
-0.487443 0.844904 -0.103760 1
-0.478009 0.876644 -0.172114 1
-0.510568 0.879054 -0.125857 1
-0.469004 0.840279 -0.123204 1
-0.497662 0.894875 -0.182331 1
-0.501093 0.850803 -0.090875 1
-0.470250 0.861537 -0.172475 1
-0.514137 0.895346 -0.152820 1
-0.478943 0.829638 -0.100724 1
-0.484630 0.889612 -0.193814 1
-0.516713 0.870108 -0.104557 1
-0.461881 0.840166 -0.144595 1
-0.506575 0.904745 -0.178831 1
-0.494764 0.832573 -0.075742 1
-0.468668 0.873415 -0.188542 1
-0.518007 0.893357 -0.118065 1
-0.469244 0.822303 -0.116196 1
-0.492196 0.902713 -0.198558 1
-0.507140 0.851581 -0.051998 1
-0.456019 0.848849 -0.165414 1
-0.519552 0.908711 -0.171713 1
-0.483940 0.816243 -0.077148 1
-0.476521 0.888515 -0.207686 1
-0.518327 0.882156 -0.072145 1
-0.460705 0.824268 -0.141662 1
-0.502228 0.913509 -0.192824 1
-0.459513 0.864189 -0.193288 1
-0.523876 0.907660 -0.132007 1
-0.472527 0.807483 -0.097784 1
-0.484635 0.903828 -0.212314 1
-0.452193 0.834067 -0.164211 1
-0.515900 0.919370 -0.182570 1
-0.486927 0.807032 -0.033943 1
-0.466083 0.882063 -0.212567 1
-0.524774 0.898038 -0.076338 1
-0.463798 0.809069 -0.132360 1
-0.495802 0.917124 -0.208378 1
-0.448070 0.850568 -0.185269 1
-0.527950 0.919452 -0.159024 1
-0.479244 0.796118 -0.073029 1
-0.476583 0.899977 -0.224122 1
-0.453588 0.818470 -0.160630 1
-0.509544 0.926282 -0.196591 1
-0.456931 0.871375 -0.214497 1
-0.526735 0.914788 -0.086700 1
-0.468221 0.794565 -0.112423 1
-0.487912 0.916273 -0.222866 1
-0.444280 0.834689 -0.181457 1
-0.526129 0.928848 -0.181299 1
-0.467022 0.892169 -0.230383 1
-0.458217 0.802946 -0.151689 1
-0.500749 0.929356 -0.210451 1
-0.445187 0.856900 -0.205974 1
-0.530743 0.928021 -0.122537 1
-0.476719 0.782944 -0.088844 1
-0.479133 0.911429 -0.234897 1
-0.446171 0.818010 -0.177645 1
-0.518160 0.936096 -0.195503 1
-0.456295 0.880761 -0.230642 1
-0.461059 0.786378 -0.127204 1
-0.491892 0.928053 -0.226129 1
-0.439125 0.839773 -0.199168 1
-0.530799 0.937730 -0.157801 1
-0.474174 0.767058 -0.021096 1
-0.469573 0.903028 -0.243008 1
-0.449743 0.800714 -0.166572 1
-0.508688 0.939424 -0.211439 1
-0.446536 0.865969 -0.227131 1
-0.468031 0.771880 -0.098400 1
-0.483895 0.922582 -0.242389 1
-0.439054 0.821482 -0.193226 1
-0.527994 0.943458 -0.191322 1
-0.458305 0.891411 -0.244657 1
-0.455248 0.783556 -0.148070 1
-0.493024 0.881411 -0.165221 1
-0.497448 0.887326 -0.159669 1
-0.483044 0.868630 -0.144396 1
-0.491334 0.892625 -0.183645 1
-0.498253 0.878443 -0.131859 1
-0.474429 0.870638 -0.163308 1
-0.503623 0.901041 -0.177338 1
-0.485732 0.859228 -0.118267 1
-0.482181 0.888984 -0.194707 1
-0.510344 0.891844 -0.144162 1
-0.472736 0.855270 -0.147731 1
-0.495744 0.906754 -0.192659 1
-0.501946 0.865377 -0.113945 1
-0.469104 0.874459 -0.184145 1
-0.514857 0.907000 -0.172005 1
-0.479186 0.844873 -0.119748 1
-0.484341 0.901382 -0.206602 1
-0.514915 0.883499 -0.120319 1
-0.464808 0.854697 -0.165379 1
-0.504834 0.916361 -0.189929 1
-0.494520 0.848022 -0.096414 1
-0.469595 0.885808 -0.203282 1
-0.521118 0.905134 -0.147091 1
-0.468549 0.837320 -0.131617 1
-0.490191 0.914323 -0.207884 1
-0.517371 0.867709 -0.107892 1
-0.457381 0.862526 -0.181607 1
-0.516770 0.920437 -0.180932 1
-0.482267 0.831905 -0.093264 1
-0.474458 0.900367 -0.216349 1
-0.521086 0.895277 -0.104545 1
-0.459950 0.838768 -0.155276 1
-0.501014 0.924717 -0.204277 1
-0.504072 0.846188 -0.072889 1
-0.460046 0.876852 -0.206740 1
-0.526421 0.918463 -0.158888 1
-0.469454 0.822587 -0.108955 1
-0.483418 0.915177 -0.222485 1
-0.514651 0.876249 -0.053461 1
-0.453056 0.848206 -0.179403 1
-0.513700 0.930701 -0.192592 1
-0.496448 0.827546 -0.084857 1
-0.467634 0.893822 -0.227080 1
-0.527388 0.910066 -0.108833 1
-0.460594 0.823461 -0.141564 1
-0.493206 0.928534 -0.216158 1
-0.514597 0.851804 -0.052208 1
-0.453675 0.864273 -0.207219 1
-0.526994 0.930446 -0.174134 1
-0.478460 0.812836 -0.091513 1
-0.474297 0.911481 -0.231840 1
-0.451884 0.832575 -0.171379 1
-0.507783 0.937294 -0.206812 1
-0.458265 0.883524 -0.228203 1
-0.531067 0.925112 -0.123983 1
-0.465434 0.809777 -0.123526 1
-0.484440 0.927814 -0.228503 1
-0.446070 0.848683 -0.197032 1
-0.523750 0.939983 -0.191144 1
-0.490657 0.808007 -0.071906 1
-0.465622 0.903664 -0.239285 1
-0.454449 0.816915 -0.159009 1
-0.498728 0.940383 -0.219354 1
-0.448307 0.869818 -0.222460 1
-0.531250 0.938532 -0.144681 1
-0.471773 0.797968 -0.096212 1
-0.475564 0.922926 -0.240122 1
-0.445586 0.832102 -0.189470 1
-0.514760 0.947567 -0.202013 1
-0.455732 0.892488 -0.240682 1
-0.460227 0.802263 -0.141520 1
-0.488956 0.939319 -0.232651 1
-0.440551 0.853262 -0.213093 1
-0.534667 0.945844 -0.186972 1
-0.479493 0.789093 -0.059405 1
-0.465432 0.914610 -0.247212 1
-0.448179 0.815163 -0.177261 1
-0.505338 0.950801 -0.217518 1
-0.445957 0.878123 -0.237086 1
-0.467016 0.788794 -0.114283 1
-0.479049 0.934285 -0.245232 1
-0.439653 0.835480 -0.206106 1
-0.524751 0.954752 -0.198378 1
-0.455625 0.902923 -0.251111 1
-0.453660 0.798789 -0.159682 1
-0.494623 0.896826 -0.181082 1
-0.498861 0.902610 -0.175554 1
-0.487898 0.885051 -0.168179 1
-0.491522 0.907563 -0.195361 1
-0.502535 0.894396 -0.156634 1
-0.478151 0.886712 -0.182718 1
-0.502704 0.915908 -0.187065 1
-0.491493 0.876664 -0.146481 1
-0.483096 0.903870 -0.207194 1
-0.514197 0.906729 -0.168157 1
-0.477471 0.872397 -0.170224 1
-0.497656 0.920844 -0.207704 1
-0.504288 0.882222 -0.135496 1
-0.473994 0.890044 -0.204230 1
-0.514092 0.921651 -0.182534 1
-0.481828 0.862736 -0.139987 1
-0.487243 0.915430 -0.222424 1
-0.516154 0.899353 -0.139278 1
-0.463612 0.871088 -0.174603 1
-0.506304 0.930163 -0.204492 1
-0.496563 0.866005 -0.117861 1
-0.476123 0.900426 -0.225161 1
-0.522863 0.919567 -0.166005 1
-0.471090 0.855321 -0.150268 1
-0.492176 0.928048 -0.222019 1
-0.514141 0.884232 -0.114769 1
-0.460715 0.878773 -0.198306 1
-0.516372 0.934615 -0.191865 1
-0.482283 0.850308 -0.108979 1
-0.478889 0.914239 -0.233941 1
-0.523325 0.910739 -0.127865 1
-0.461032 0.856070 -0.169302 1
-0.500127 0.938915 -0.212831 1
-0.507974 0.864924 -0.102449 1
-0.466468 0.892007 -0.227531 1
-0.525373 0.933059 -0.169307 1
-0.469514 0.841062 -0.123495 1
-0.483083 0.929306 -0.231438 1
-0.519638 0.893493 -0.089116 1
-0.454509 0.864862 -0.192753 1
-0.513589 0.944519 -0.203504 1
-0.494141 0.845573 -0.095628 1
-0.468014 0.908301 -0.237010 1
-0.528255 0.925091 -0.127820 1
-0.459574 0.841037 -0.152141 1
-0.494883 0.941818 -0.229312 1
-0.513100 0.869908 -0.067216 1
-0.457345 0.880013 -0.223060 1
-0.528798 0.943472 -0.191614 1
-0.475125 0.830904 -0.099159 1
-0.475906 0.925247 -0.243743 1
-0.527647 0.907838 -0.084063 1
-0.450411 0.849339 -0.179872 1
-0.506337 0.951480 -0.213980 1
-0.502145 0.845529 -0.064800 1
-0.462099 0.898123 -0.243442 1
-0.531010 0.939737 -0.139036 1
-0.463169 0.827652 -0.132405 1
-0.485396 0.941316 -0.239545 1
-0.449372 0.865244 -0.212471 1
-0.522044 0.954252 -0.198169 1
-0.487686 0.826591 -0.081573 1
-0.466359 0.917748 -0.249331 1
-0.452055 0.833968 -0.166320 1
-0.500383 0.953262 -0.232431 1
-0.456355 0.885195 -0.244058 1
-0.531928 0.952227 -0.160616 1
-0.470562 0.817037 -0.108854 1
-0.477191 0.936298 -0.251725 1
-0.443927 0.848532 -0.197067 1
-0.514147 0.961293 -0.211152 1
-0.490900 0.823714 -0.027907 1
-0.457915 0.906759 -0.252722 1
-0.458144 0.819994 -0.150186 1
-0.491418 0.951927 -0.246347 1
-0.443585 0.869384 -0.227144 1
-0.533618 0.959616 -0.195949 1
-0.480219 0.810060 -0.079354 1
-0.465033 0.928628 -0.255214 1
-0.446012 0.831975 -0.184444 1
-0.505402 0.964131 -0.227444 1
-0.452579 0.892857 -0.255485 1
-0.464350 0.807145 -0.122909 1
-0.478729 0.947941 -0.253426 1
-0.437974 0.851582 -0.213189 1
-0.523949 0.968400 -0.207234 1
-0.486617 0.805617 -0.029057 1
-0.456061 0.917015 -0.260198 1
-0.451867 0.816342 -0.168246 1
-0.494988 0.911444 -0.191206 1
-0.501369 0.916868 -0.190942 1
-0.489472 0.900168 -0.181185 1
-0.492616 0.921635 -0.206493 1
-0.504374 0.909310 -0.171506 1
-0.482619 0.901450 -0.200624 1
-0.504609 0.929638 -0.200759 1
-0.494977 0.892417 -0.165104 1
-0.482124 0.918176 -0.213661 1
-0.514266 0.921244 -0.178620 1
-0.479882 0.887911 -0.184441 1
-0.496004 0.935047 -0.212840 1
-0.506835 0.897881 -0.153366 1
-0.476455 0.904391 -0.217070 1
-0.513585 0.935836 -0.191002 1
-0.486133 0.879299 -0.160094 1
-0.483776 0.929833 -0.223896 1
-0.519073 0.914125 -0.158941 1
-0.470507 0.886813 -0.196568 1
-0.504179 0.944490 -0.208591 1
-0.499507 0.882709 -0.137104 1
-0.473344 0.914668 -0.228035 1
-0.523044 0.933771 -0.177101 1
-0.475450 0.872044 -0.169093 1
-0.491020 0.941882 -0.227926 1
-0.515823 0.900182 -0.132071 1
-0.465466 0.893671 -0.214863 1
-0.516275 0.948325 -0.201088 1
-0.489883 0.868537 -0.139027 1
-0.475820 0.928390 -0.236243 1
-0.524255 0.925668 -0.142753 1
-0.463579 0.872229 -0.183010 1
-0.501128 0.952021 -0.223469 1
-0.509629 0.881821 -0.119931 1
-0.466339 0.906088 -0.234912 1
-0.526806 0.946464 -0.183802 1
-0.471582 0.858563 -0.138500 1
-0.482022 0.943031 -0.237351 1
-0.523464 0.909349 -0.115063 1
-0.457592 0.880351 -0.206260 1
-0.512131 0.958568 -0.209081 1
-0.496385 0.863453 -0.114066 1
-0.467025 0.922138 -0.242860 1
-0.530362 0.939185 -0.146629 1
-0.460976 0.857838 -0.164177 1
-0.493325 0.955614 -0.234330 1
-0.517524 0.887449 -0.095887 1
-0.457907 0.894418 -0.231501 1
-0.528252 0.957117 -0.199928 1
-0.480280 0.849977 -0.123085 1
-0.474613 0.938872 -0.249061 1
-0.527813 0.923824 -0.098718 1
-0.451860 0.865394 -0.190762 1
-0.507795 0.964072 -0.225760 1
-0.507096 0.864553 -0.093828 1
-0.461258 0.911923 -0.249363 1
-0.531641 0.953815 -0.152700 1
-0.463975 0.845090 -0.144048 1
-0.484406 0.954815 -0.245492 1
-0.521213 0.899416 -0.060945 1
-0.450857 0.880245 -0.222455 1
-0.522126 0.967496 -0.207709 1
-0.489197 0.845311 -0.098325 1
-0.464515 0.931483 -0.253696 1
-0.535049 0.939816 -0.108754 1
-0.450629 0.850105 -0.172356 1
-0.500856 0.966046 -0.241443 1
-0.516812 0.871448 -0.068272 1
-0.455571 0.899127 -0.249968 1
-0.532184 0.965898 -0.172211 1
-0.469286 0.834637 -0.116871 1
-0.475985 0.949721 -0.257125 1
-0.444992 0.864222 -0.206608 1
-0.514339 0.974325 -0.220375 1
-0.502591 0.846690 -0.078540 1
-0.456293 0.920474 -0.257372 1
-0.534602 0.958110 -0.110415 1
-0.455592 0.836321 -0.154394 1
-0.489834 0.965475 -0.251144 1
-0.450176 0.884237 -0.244288 1
-0.530991 0.974341 -0.198313 1
-0.482771 0.829765 -0.098467 1
-0.464094 0.942054 -0.260967 1
-0.443903 0.847630 -0.188900 1
-0.507856 0.975767 -0.240820 1
-0.448667 0.906744 -0.256750 1
-0.461858 0.824204 -0.127794 1
-0.479829 0.960465 -0.262651 1
-0.438998 0.866898 -0.222110 1
-0.524016 0.981360 -0.216453 1
-0.495567 0.829139 -0.070488 1
-0.454180 0.930641 -0.264466 1
-0.448380 0.832068 -0.170425 1
-0.496423 0.923066 -0.196828 1
-0.501278 0.928705 -0.193187 1
-0.492706 0.911942 -0.190730 1
-0.491664 0.933440 -0.206941 1
-0.506676 0.921092 -0.179689 1
-0.481980 0.913270 -0.201679 1
-0.503714 0.941530 -0.201191 1
-0.497695 0.904613 -0.173987 1
-0.483035 0.929540 -0.217852 1
-0.514095 0.933250 -0.180668 1
-0.483110 0.899932 -0.193454 1
-0.495247 0.946760 -0.213755 1
-0.510061 0.910055 -0.164370 1
-0.474651 0.916082 -0.216035 1
-0.514700 0.947222 -0.196309 1
-0.492289 0.891963 -0.176545 1
-0.483866 0.941162 -0.226552 1
-0.518756 0.926472 -0.160567 1
-0.473766 0.898699 -0.205051 1
-0.504007 0.956090 -0.210750 1
-0.504704 0.895564 -0.153204 1
-0.472657 0.926101 -0.229197 1
-0.523661 0.945509 -0.181329 1
-0.479915 0.884750 -0.180771 1
-0.489889 0.953517 -0.228259 1
-0.517638 0.912763 -0.140001 1
-0.466101 0.905259 -0.218233 1
-0.516227 0.959956 -0.203504 1
-0.493074 0.881699 -0.149278 1
-0.474593 0.939851 -0.236563 1
-0.524377 0.938178 -0.145687 1
-0.468757 0.884780 -0.195100 1
-0.500531 0.963579 -0.224795 1
-0.512890 0.894927 -0.131997 1
-0.465565 0.917415 -0.235921 1
-0.526575 0.958420 -0.185665 1
-0.478007 0.872435 -0.155093 1
-0.482484 0.954030 -0.240752 1
-0.522658 0.922536 -0.115093 1
-0.463221 0.892309 -0.218239 1
-0.512316 0.970006 -0.212096 1
-0.502221 0.877461 -0.132397 1
-0.467720 0.933112 -0.246422 1
-0.527064 0.953039 -0.138729 1
-0.465506 0.871056 -0.175299 1
-0.493243 0.966821 -0.236795 1
-0.522877 0.900731 -0.115908 1
-0.460649 0.905658 -0.238164 1
-0.530306 0.967604 -0.208017 1
-0.483331 0.863824 -0.132811 1
-0.473280 0.950224 -0.249375 1
-0.523316 0.938496 -0.085801 1
-0.458137 0.878144 -0.203956 1
-0.507123 0.975695 -0.226912 1
-0.512311 0.878781 -0.112295 1
-0.460590 0.923029 -0.250653 1
-0.529099 0.967582 -0.147205 1
-0.470335 0.859348 -0.159653 1
-0.485413 0.965442 -0.249936 1
-0.521654 0.913388 -0.065337 1
-0.455287 0.891932 -0.231706 1
-0.522463 0.978838 -0.211129 1
-0.495651 0.860422 -0.118176 1
-0.464003 0.942539 -0.255387 1
-0.456130 0.863555 -0.184544 1
-0.499464 0.977789 -0.241335 1
-0.516885 0.885437 -0.071371 1
-0.454016 0.910272 -0.249829 1
-0.529729 0.979556 -0.167312 1
-0.474404 0.849453 -0.130962 1
-0.474845 0.960961 -0.257879 1
-0.451353 0.876762 -0.219060 1
-0.514058 0.985888 -0.222358 1
-0.508973 0.862115 -0.100646 1
-0.455818 0.931464 -0.259067 1
-0.459634 0.850165 -0.164416 1
-0.490326 0.976176 -0.254741 1
-0.448749 0.895421 -0.244236 1
-0.530059 0.986684 -0.198238 1
-0.484917 0.844216 -0.106444 1
-0.463926 0.952931 -0.263291 1
-0.449160 0.860829 -0.199844 1
-0.506089 0.987874 -0.239821 1
-0.509465 0.866872 -0.036460 1
-0.449713 0.917602 -0.260525 1
-0.532601 0.987428 -0.127852 1
-0.466129 0.838886 -0.139182 1
-0.479399 0.971402 -0.264647 1
-0.444706 0.879050 -0.232811 1
-0.523346 0.993289 -0.217366 1
-0.504541 0.846276 -0.099724 1
-0.454473 0.941384 -0.267374 1
-0.450191 0.845192 -0.175648 1
-0.498120 0.933162 -0.200378 1
-0.503390 0.938695 -0.197779 1
-0.495609 0.922052 -0.196919 1
-0.494651 0.943050 -0.213130 1
-0.509676 0.931115 -0.186692 1
-0.484755 0.923303 -0.207199 1
-0.505715 0.951335 -0.205532 1
-0.501518 0.914942 -0.182714 1
-0.484284 0.939493 -0.220311 1
-0.514718 0.943727 -0.181718 1
-0.484770 0.910291 -0.196735 1
-0.498508 0.955993 -0.220569 1
-0.511028 0.920701 -0.166322 1
-0.476217 0.926097 -0.219003 1
-0.515751 0.957346 -0.198481 1
-0.494023 0.902560 -0.180183 1
-0.485730 0.950791 -0.230215 1
-0.519091 0.937279 -0.160718 1
-0.475414 0.908955 -0.208150 1
-0.506086 0.965649 -0.215232 1
-0.506408 0.906402 -0.157085 1
-0.474910 0.935768 -0.233366 1
-0.523716 0.956202 -0.180728 1
-0.482091 0.895422 -0.185129 1
-0.493029 0.962558 -0.234519 1
-0.518897 0.923676 -0.142817 1
-0.470080 0.915158 -0.225360 1
-0.517316 0.969968 -0.205776 1
-0.498433 0.892930 -0.162013 1
-0.477080 0.949242 -0.241174 1
-0.525042 0.949135 -0.146640 1
-0.470882 0.895308 -0.199056 1
-0.502454 0.972997 -0.228832 1
-0.514091 0.906050 -0.134665 1
-0.468554 0.926995 -0.241145 1
-0.526974 0.968986 -0.185985 1
-0.486122 0.884161 -0.172857 1
-0.484594 0.963324 -0.244833 1
-0.522914 0.934013 -0.114666 1
-0.464505 0.902476 -0.220516 1
-0.514214 0.979506 -0.216287 1
-0.504907 0.888825 -0.139031 1
-0.469129 0.942699 -0.249058 1
-0.526891 0.964558 -0.136894 1
-0.468736 0.882119 -0.181493 1
-0.496816 0.975361 -0.243926 1
-0.522144 0.912173 -0.112400 1
-0.462454 0.915462 -0.241290 1
-0.529762 0.978442 -0.205865 1
-0.489773 0.875994 -0.147934 1
-0.476315 0.959189 -0.254836 1
-0.532182 0.947399 -0.114957 1
-0.460975 0.888703 -0.208932 1
-0.508490 0.985298 -0.229826 1
-0.515266 0.890385 -0.120370 1
-0.462485 0.932546 -0.253949 1
-0.529005 0.979105 -0.145590 1
-0.473025 0.870712 -0.165025 1
-0.488071 0.974290 -0.255026 1
-0.522442 0.925478 -0.066513 1
-0.457573 0.901943 -0.235519 1
-0.523855 0.988562 -0.214175 1
-0.498454 0.872288 -0.125074 1
-0.465705 0.951926 -0.258491 1
-0.461194 0.874871 -0.193749 1
-0.501964 0.986618 -0.246482 1
-0.513840 0.897385 -0.059660 1
-0.457115 0.919801 -0.254828 1
-0.530434 0.990378 -0.168284 1
-0.477474 0.861430 -0.137609 1
-0.477169 0.969952 -0.262164 1
-0.454117 0.887149 -0.223623 1
-0.515638 0.995394 -0.225799 1
-0.510940 0.874012 -0.105770 1
-0.457872 0.940820 -0.262562 1
-0.462441 0.861647 -0.169689 1
-0.493549 0.984545 -0.260942 1
-0.452973 0.905215 -0.250809 1
-0.532197 0.996019 -0.203384 1
-0.490508 0.857238 -0.120346 1
-0.466063 0.962036 -0.267088 1
-0.451216 0.871600 -0.203263 1
-0.507643 0.997193 -0.243141 1
-0.513073 0.879881 -0.047693 1
-0.452711 0.926937 -0.265231 1
-0.468985 0.850882 -0.144983 1
-0.482396 0.979899 -0.270107 1
-0.447859 0.889266 -0.237732 1
-0.524599 1.003050 -0.220056 1
-0.506835 0.858473 -0.105758 1
-0.456032 0.950699 -0.270160 1
-0.452749 0.856561 -0.180108 1
-0.501220 0.941135 -0.202114 1
-0.505390 0.946953 -0.196954 1
-0.497404 0.930330 -0.195736 1
-0.496177 0.951333 -0.211487 1
-0.510068 0.939816 -0.181688 1
-0.487650 0.931360 -0.208427 1
-0.508057 0.959432 -0.205518 1
-0.502729 0.923389 -0.179947 1
-0.487857 0.947203 -0.222881 1
-0.517742 0.951805 -0.183277 1
-0.488482 0.918427 -0.199680 1
-0.500316 0.964167 -0.219545 1
-0.513211 0.929171 -0.165656 1
-0.480287 0.933876 -0.222413 1
-0.519497 0.964891 -0.201910 1
-0.497072 0.910904 -0.181815 1
-0.489333 0.958309 -0.232844 1
-0.520307 0.946134 -0.157009 1
-0.476629 0.917232 -0.206083 1
-0.509347 0.973267 -0.217337 1
-0.509340 0.914915 -0.158420 1
-0.477302 0.943678 -0.233688 1
-0.525001 0.965006 -0.177350 1
-0.486108 0.903824 -0.188728 1
-0.496179 0.970090 -0.236339 1
-0.520471 0.932516 -0.139939 1
-0.470282 0.923415 -0.221724 1
-0.521707 0.977015 -0.210795 1
-0.500131 0.901476 -0.160301 1
-0.480269 0.956831 -0.242951 1
-0.525056 0.958799 -0.138576 1
-0.474353 0.903638 -0.201312 1
-0.506304 0.980176 -0.232180 1
-0.516545 0.914805 -0.134500 1
-0.469717 0.935051 -0.239422 1
-0.526232 0.979030 -0.176721 1
-0.487187 0.892611 -0.169965 1
-0.489318 0.970187 -0.249481 1
-0.525039 0.943128 -0.112807 1
-0.468613 0.910539 -0.223791 1
-0.517824 0.986835 -0.219252 1
-0.508345 0.897628 -0.141755 1
-0.472948 0.950116 -0.251818 1
-0.528539 0.973881 -0.133465 1
-0.474584 0.890906 -0.188508 1
-0.499767 0.982833 -0.245395 1
-0.521941 0.921491 -0.103125 1
-0.466043 0.923234 -0.243591 1
-0.530143 0.987809 -0.200175 1
-0.492822 0.884854 -0.149512 1
-0.479209 0.966698 -0.256128 1
-0.464530 0.897040 -0.211198 1
-0.512350 0.992348 -0.233261 1
-0.514690 0.899206 -0.110880 1
-0.464866 0.940296 -0.254333 1
-0.530375 0.988698 -0.141225 1
-0.478885 0.879885 -0.172487 1
-0.491343 0.981541 -0.257069 1
-0.462052 0.909880 -0.239208 1
-0.527876 0.995523 -0.218305 1
-0.503319 0.881602 -0.131639 1
-0.469222 0.959296 -0.260704 1
-0.465234 0.883531 -0.196956 1
-0.504857 0.994070 -0.247850 1
-0.517111 0.906976 -0.061392 1
-0.460159 0.927496 -0.256203 1
-0.531262 1.000252 -0.162642 1
-0.483424 0.871084 -0.145850 1
-0.482021 0.976570 -0.266733 1
-0.457957 0.895393 -0.226246 1
-0.519879 1.002124 -0.230214 1
-0.511873 0.882913 -0.100902 1
-0.460670 0.948414 -0.263598 1
-0.468421 0.871022 -0.176906 1
-0.496352 0.991913 -0.262185 1
-0.455974 0.913048 -0.252067 1
-0.530975 1.007138 -0.192787 1
-0.494066 0.866609 -0.123264 1
-0.470695 0.968879 -0.271024 1
-0.457556 0.880507 -0.210230 1
-0.511935 1.003750 -0.247438 1
-0.514659 0.889525 -0.043591 1
-0.455184 0.934607 -0.265756 1
-0.474972 0.860724 -0.152854 1
-0.486691 0.986515 -0.273822 1
-0.451773 0.897381 -0.240324 1
-0.528321 1.010113 -0.223343 1
-0.509646 0.867721 -0.106803 1
-0.459874 0.957927 -0.272727 1
-0.458748 0.865972 -0.186851 1
-0.503794 0.948212 -0.202705 1
-0.509171 0.953703 -0.200358 1
-0.500051 0.937465 -0.196453 1
-0.499318 0.958173 -0.213344 1
-0.514052 0.946679 -0.185707 1
-0.491642 0.938163 -0.211962 1
-0.511135 0.966280 -0.207300 1
-0.505594 0.930621 -0.181105 1
-0.491083 0.953955 -0.224875 1
-0.520137 0.959096 -0.183204 1
-0.491096 0.925571 -0.200330 1
-0.503501 0.970861 -0.221557 1
-0.515590 0.936593 -0.165442 1
-0.482875 0.940838 -0.223114 1
-0.521634 0.972147 -0.201337 1
-0.499559 0.918192 -0.182088 1
-0.493735 0.964515 -0.237163 1
-0.522203 0.953847 -0.155172 1
-0.481022 0.924195 -0.210193 1
-0.513287 0.979550 -0.221148 1
-0.511865 0.922376 -0.158582 1
-0.481230 0.950219 -0.236871 1
-0.525272 0.973439 -0.171035 1
-0.489075 0.911084 -0.190074 1
-0.498926 0.976807 -0.237496 1
-0.521155 0.940601 -0.134204 1
-0.474934 0.930168 -0.226101 1
-0.524979 0.983610 -0.213176 1
-0.504010 0.908928 -0.163929 1
-0.484577 0.963049 -0.246857 1
-0.526658 0.966953 -0.135318 1
-0.477443 0.910834 -0.202844 1
-0.508865 0.987003 -0.232941 1
-0.516301 0.922790 -0.126119 1
-0.471432 0.942058 -0.238686 1
-0.527910 0.986946 -0.174319 1
-0.490216 0.900080 -0.171385 1
-0.492341 0.976679 -0.251194 1
-0.526456 0.951446 -0.108492 1
-0.469740 0.917641 -0.221838 1
-0.521888 0.992868 -0.223521 1
-0.510092 0.905240 -0.139656 1
-0.475227 0.956903 -0.252151 1
-0.478494 0.898304 -0.191668 1
-0.503345 0.989020 -0.248271 1
-0.522798 0.929753 -0.096992 1
-0.467691 0.930171 -0.242780 1
-0.530970 0.996132 -0.195714 1
-0.498168 0.892699 -0.156646 1
-0.481858 0.973320 -0.257148 1
-0.467434 0.904214 -0.212323 1
-0.515698 0.998692 -0.235777 1
-0.515743 0.907104 -0.106000 1
-0.466826 0.947142 -0.254147 1
-0.532439 0.996911 -0.139159 1
-0.482402 0.887467 -0.174907 1
-0.495008 0.987623 -0.259999 1
-0.464213 0.916799 -0.239193 1
-0.529941 1.002857 -0.217586 1
-0.505993 0.889354 -0.132073 1
-0.471778 0.965942 -0.261546 1
-0.468688 0.890920 -0.199070 1
-0.507941 1.000458 -0.249789 1
-0.519356 0.915373 -0.059358 1
-0.461987 0.934324 -0.255808 1
-0.532709 1.008818 -0.158972 1
-0.487615 0.879054 -0.149912 1
-0.484669 0.983075 -0.267831 1
-0.460869 0.902460 -0.227376 1
-0.522713 1.008821 -0.231561 1
-0.513226 0.890775 -0.096929 1
-0.464514 0.954748 -0.266344 1
-0.472213 0.878709 -0.179730 1
-0.498837 0.998524 -0.263017 1
-0.458259 0.919864 -0.252316 1
-0.532303 1.015531 -0.189436 1
-0.500059 0.875130 -0.132447 1
-0.473385 0.975370 -0.272148 1
-0.461003 0.887825 -0.212233 1
-0.514657 1.010362 -0.248649 1
-0.516800 0.898021 -0.041059 1
-0.458024 0.941211 -0.266929 1
-0.478792 0.868695 -0.155881 1
-0.489034 0.993087 -0.274478 1
-0.455085 0.904341 -0.242066 1
-0.530371 1.017545 -0.222602 1
-0.510921 0.875410 -0.102855 1
-0.462428 0.964492 -0.273585 1
-0.462660 0.873669 -0.189723 1
-0.508286 0.956713 -0.204243 1
-0.512515 0.962587 -0.199070 1
-0.504085 0.946173 -0.196983 1
-0.504611 0.966329 -0.216578 1
-0.516374 0.955952 -0.181539 1
-0.494943 0.946942 -0.211108 1
-0.516203 0.974446 -0.210074 1
-0.509130 0.939524 -0.180311 1
-0.496611 0.962013 -0.228531 1
-0.525335 0.967398 -0.186375 1
-0.495102 0.934301 -0.200961 1
-0.508656 0.978903 -0.224454 1
-0.519805 0.945456 -0.166058 1
