ply
format ascii 1.0
element vertex 1595
property float x
property float y
property float z
property uchar label
end_header
1.076399 0.506043 -0.942458 1
0.963400 0.516865 -0.890753 1
1.009205 0.503322 -1.003772 1
1.059606 0.513690 -0.893889 1
0.938967 0.521240 -0.946095 1
1.064494 0.501967 -0.975201 1
0.999111 0.512753 -0.873920 1
0.969806 0.510051 -0.998279 1
1.078768 0.509643 -0.921649 1
0.942020 0.517208 -0.906939 1
1.033987 0.500520 -1.000970 1
1.039340 0.509739 -0.878048 1
0.943044 0.521117 -0.970710 1
1.078817 0.504842 -0.956242 1
0.971722 0.514096 -0.877417 1
0.991508 0.503534 -1.009676 1
1.074057 0.516035 -0.901291 1
0.931641 0.521249 -0.930469 1
1.057259 0.499310 -0.989803 1
1.015057 0.511761 -0.868595 1
0.954436 0.515767 -0.993525 1
1.085497 0.507872 -0.934203 1
0.948559 0.519068 -0.890892 1
1.021654 0.505380 -1.010223 1
1.058450 0.515547 -0.882562 1
0.931444 0.523668 -0.957468 1
1.076358 0.501224 -0.971614 1
0.986152 0.513523 -0.867056 1
0.973387 0.507161 -1.010947 1
1.083984 0.511800 -0.911303 1
1.022478 0.518321 -0.919142 1
1.017129 0.518932 -0.924447 1
1.032328 0.515182 -0.918355 1
1.011097 0.518503 -0.911316 1
1.023131 0.514608 -0.933497 1
1.031711 0.516942 -0.905733 1
1.001638 0.517318 -0.923694 1
1.037070 0.509846 -0.928116 1
1.016304 0.521272 -0.899867 1
1.009270 0.512685 -0.939702 1
1.042874 0.512803 -0.909809 1
0.994159 0.516494 -0.911423 1
1.031296 0.508582 -0.941149 1
1.028975 0.518049 -0.893982 1
0.992168 0.512419 -0.935297 1
1.049384 0.510669 -0.922941 1
1.001768 0.519969 -0.896331 1
1.017006 0.511800 -0.949552 1
1.044375 0.513533 -0.898039 1
0.983221 0.516479 -0.920339 1
1.044414 0.507337 -0.940000 1
1.017932 0.518637 -0.886128 1
0.996240 0.513626 -0.948034 1
1.058019 0.515224 -0.912182 1
0.985883 0.518634 -0.900365 1
1.028905 0.507715 -0.954212 1
1.038331 0.514741 -0.886308 1
0.976803 0.513358 -0.934315 1
1.058319 0.511254 -0.932009 1
1.001787 0.518766 -0.883602 1
1.005460 0.510351 -0.958883 1
1.058901 0.516798 -0.898729 1
0.973739 0.519030 -0.911340 1
1.044517 0.506430 -0.952133 1
1.025825 0.516341 -0.877211 1
0.980329 0.512610 -0.949862 1
1.067017 0.513385 -0.919357 1
0.984019 0.519101 -0.887796 1
1.021323 0.508624 -0.964593 1
1.051441 0.515255 -0.884645 1
0.967179 0.518734 -0.927430 1
1.060514 0.508900 -0.943425 1
1.008116 0.517659 -0.872930 1
0.990181 0.508920 -0.963822 1
1.069639 0.515424 -0.903878 1
0.967477 0.518556 -0.899031 1
1.039983 0.507460 -0.963694 1
1.037724 0.515117 -0.872602 1
0.966848 0.515397 -0.946046 1
1.072520 0.511956 -0.929664 1
0.985615 0.515705 -0.874846 1
1.007645 0.506722 -0.972685 1
1.066174 0.519452 -0.887878 1
0.958131 0.520078 -0.916487 1
1.058780 0.508456 -0.955789 1
1.018193 0.515290 -0.864931 1
0.975214 0.511219 -0.963796 1
1.078279 0.514546 -0.912626 1
0.966822 0.518218 -0.885088 1
1.028503 0.504157 -0.974698 1
1.052020 0.515502 -0.872380 1
0.957285 0.521254 -0.937373 1
1.073741 0.509460 -0.942083 1
0.996851 0.518904 -0.864381 1
0.994337 0.511043 -0.976407 1
1.077620 0.518947 -0.894391 1
0.951903 0.519350 -0.902461 1
1.050491 0.503604 -0.968868 1
1.031615 0.513418 -0.860546 1
0.963168 0.517994 -0.958583 1
1.083241 0.511722 -0.924090 1
0.971533 0.517636 -0.871070 1
1.015492 0.505962 -0.982795 1
1.068011 0.519737 -0.876649 1
0.948690 0.524322 -0.925014 1
1.071540 0.508697 -0.955535 1
1.007286 0.514391 -0.855276 1
0.975668 0.510335 -0.977007 1
1.086713 0.517550 -0.904031 1
0.951574 0.519469 -0.886760 1
1.039295 0.502362 -0.980733 1
1.049334 0.517144 -0.861110 1
0.950235 0.521700 -0.949326 1
1.084929 0.509382 -0.937595 1
0.980743 0.516104 -0.858303 1
0.999070 0.507623 -0.987879 1
1.081984 0.522411 -0.884160 1
0.941094 0.523429 -0.909606 1
1.063915 0.505131 -0.969656 1
1.022730 0.512970 -0.850220 1
0.960799 0.516138 -0.971998 1
1.091861 0.512532 -0.916241 1
0.956219 0.518783 -0.870786 1
1.025275 0.503818 -0.990278 1
1.066683 0.520623 -0.865476 1
0.936823 0.521502 -0.936239 1
1.083293 0.508617 -0.952237 1
0.995757 0.516730 -0.848650 1
0.980331 0.509465 -0.989105 1
1.092239 0.520622 -0.894228 1
1.024164 0.519678 -0.901030 1
1.018599 0.519958 -0.906188 1
1.033669 0.516066 -0.900407 1
1.011923 0.518019 -0.892985 1
1.025283 0.517242 -0.915207 1
1.032731 0.516829 -0.887817 1
1.003814 0.519221 -0.905146 1
1.039087 0.512481 -0.910133 1
1.017006 0.520315 -0.881644 1
1.012675 0.517265 -0.920967 1
1.044418 0.514015 -0.892121 1
0.995591 0.516825 -0.892797 1
1.033870 0.512540 -0.922809 1
1.030697 0.518865 -0.876155 1
0.994850 0.515230 -0.916385 1
1.051113 0.512872 -0.905258 1
1.002027 0.518153 -0.877754 1
1.019821 0.515904 -0.930799 1
1.046441 0.515459 -0.880535 1
0.986271 0.519256 -0.901493 1
1.045794 0.509272 -0.922018 1
1.019439 0.518707 -0.868059 1
0.999300 0.517418 -0.928950 1
1.059873 0.517526 -0.894813 1
0.986312 0.517145 -0.881515 1
1.031217 0.511493 -0.935609 1
1.040140 0.515645 -0.868692 1
0.982030 0.519448 -0.915043 1
1.059975 0.513875 -0.914381 1
1.002277 0.517001 -0.865002 1
1.007661 0.513322 -0.939851 1
1.061266 0.519777 -0.881592 1
0.974992 0.518890 -0.892326 1
1.045162 0.507239 -0.934108 1
1.028395 0.518187 -0.859571 1
0.982594 0.514859 -0.930560 1
1.068773 0.516025 -0.902066 1
0.983825 0.516423 -0.868764 1
1.023470 0.512136 -0.945699 1
1.053433 0.516720 -0.867355 1
0.968721 0.519250 -0.908210 1
1.061439 0.510340 -0.925746 1
1.008700 0.515770 -0.854398 1
0.991474 0.510235 -0.944617 1
1.071611 0.518041 -0.886840 1
0.967889 0.516977 -0.879827 1
1.040401 0.508102 -0.945511 1
1.038978 0.514480 -0.854810 1
0.968847 0.516918 -0.926601 1
1.074108 0.514798 -0.912331 1
0.988346 0.517061 -0.856406 1
1.011933 0.513688 -0.952882 1
1.068029 0.521038 -0.870876 1
0.959033 0.519450 -0.897148 1
1.059259 0.509296 -0.938011 1
1.020708 0.516558 -0.847145 1
0.978174 0.514666 -0.944063 1
1.080926 0.519632 -0.895720 1
0.966482 0.515336 -0.865691 1
1.029658 0.506365 -0.955951 1
1.053828 0.516151 -0.855065 1
0.958432 0.521324 -0.917925 1
1.074503 0.510770 -0.924676 1
0.997204 0.516467 -0.845516 1
0.995531 0.512564 -0.957122 1
1.079733 0.521778 -0.877658 1
0.954781 0.520935 -0.883207 1
1.051289 0.505467 -0.950660 1
1.033703 0.513974 -0.842880 1
0.963898 0.517989 -0.939099 1
1.084254 0.513143 -0.907034 1
0.970997 0.514166 -0.851581 1
1.017837 0.510172 -0.963344 1
1.069559 0.520189 -0.859606 1
0.949299 0.523423 -0.905492 1
1.072130 0.510082 -0.937949 1
1.008550 0.513160 -0.836802 1
0.978250 0.513541 -0.957087 1
1.089225 0.522312 -0.887453 1
0.953311 0.519316 -0.867432 1
1.040001 0.504157 -0.962176 1
1.052410 0.520052 -0.844261 1
0.951993 0.522678 -0.929602 1
1.085647 0.510660 -0.920442 1
0.981341 0.513921 -0.839150 1
1.001745 0.511936 -0.967999 1
1.083173 0.522469 -0.867309 1
0.941938 0.522509 -0.889972 1
1.064554 0.507019 -0.951696 1
1.025108 0.513650 -0.832461 1
0.962641 0.517846 -0.952118 1
1.094194 0.517737 -0.899503 1
0.955096 0.514658 -0.850898 1
1.025663 0.504966 -0.971471 1
1.068576 0.521436 -0.848529 1
0.941364 0.525392 -0.916289 1
1.082847 0.507298 -0.935146 1
0.997394 0.515910 -0.830067 1
0.981649 0.511207 -0.969353 1
1.093699 0.522115 -0.877654 1
1.019327 0.514861 -0.882456 1
1.014924 0.517418 -0.887657 1
1.032091 0.517015 -0.882169 1
1.008597 0.515933 -0.874211 1
1.022918 0.517087 -0.896829 1
1.031152 0.517492 -0.869555 1
0.998932 0.515024 -0.886305 1
1.037582 0.513826 -0.891942 1
1.011099 0.513545 -0.862403 1
1.009562 0.516047 -0.902416 1
1.042919 0.514927 -0.874049 1
0.991279 0.513490 -0.873651 1
1.032004 0.513472 -0.904506 1
1.026674 0.514764 -0.857314 1
0.992344 0.515064 -0.897479 1
1.048512 0.511782 -0.887236 1
0.997330 0.513806 -0.858408 1
1.016811 0.514975 -0.912383 1
1.044732 0.515636 -0.862439 1
0.980235 0.513770 -0.882247 1
1.043567 0.509467 -0.903908 1
1.015099 0.514236 -0.848829 1
0.994591 0.513998 -0.910328 1
1.055923 0.512999 -0.876741 1
0.980513 0.511661 -0.861839 1
1.029795 0.513554 -0.917136 1
1.037534 0.513808 -0.850177 1
0.975786 0.514003 -0.895994 1
1.056988 0.512052 -0.896566 1
0.997576 0.512401 -0.845383 1
1.006119 0.515093 -0.921005 1
1.057193 0.514559 -0.863271 1
0.969491 0.514354 -0.872758 1
1.042979 0.507849 -0.915936 1
1.024303 0.513667 -0.840328 1
0.980846 0.516080 -0.911392 1
1.067448 0.517627 -0.884437 1
0.978346 0.511278 -0.848812 1
1.021839 0.513965 -0.927062 1
1.051652 0.516337 -0.849273 1
0.963232 0.515112 -0.888819 1
1.058413 0.508734 -0.907984 1
1.005932 0.513938 -0.835188 1
0.989496 0.511374 -0.925512 1
1.070050 0.518588 -0.869241 1
0.961668 0.511459 -0.859789 1
1.037675 0.507891 -0.927328 1
1.037528 0.514608 -0.836480 1
0.966306 0.516996 -0.907284 1
1.072811 0.516853 -0.894740 1
0.980746 0.508435 -0.835648 1
1.006983 0.509996 -0.934725 1
1.063663 0.514493 -0.852294 1
0.953484 0.515322 -0.877416 1
1.055961 0.507462 -0.920282 1
1.016666 0.512110 -0.827528 1
0.973914 0.512514 -0.925105 1
1.078267 0.517572 -0.878168 1
0.960463 0.509914 -0.845321 1
1.028232 0.508918 -0.937201 1
1.053151 0.517817 -0.837287 1
0.954912 0.520084 -0.898484 1
1.072680 0.511955 -0.907018 1
0.991877 0.510713 -0.825170 1
0.989398 0.507458 -0.938922 1
1.076921 0.518735 -0.859833 1
0.947023 0.513967 -0.862901 1
1.048233 0.504637 -0.932703 1
1.032840 0.514994 -0.824592 1
0.960171 0.516681 -0.919832 1
1.084116 0.518325 -0.889668 1
0.967565 0.511962 -0.831594 1
1.013676 0.507909 -0.945127 1
1.068059 0.520034 -0.841831 1
0.941865 0.517351 -0.885712 1
1.069865 0.510591 -0.920250 1
1.008443 0.515417 -0.818346 1
0.973414 0.510754 -0.938290 1
1.087395 0.522040 -0.870132 1
0.946016 0.512756 -0.846726 1
1.036867 0.503554 -0.944000 1
1.049639 0.516975 -0.825469 1
0.947932 0.520974 -0.910155 1
1.085049 0.515163 -0.902888 1
0.979299 0.513352 -0.819565 1
0.995444 0.506564 -0.950101 1
1.081244 0.521284 -0.849678 1
0.936525 0.518880 -0.869889 1
1.062149 0.507638 -0.933796 1
1.026232 0.518099 -0.814857 1
0.958437 0.516091 -0.932940 1
1.093713 0.521916 -0.882423 1
0.952029 0.513191 -0.830773 1
1.023561 0.506569 -0.952670 1
1.067626 0.522250 -0.830889 1
0.934064 0.519863 -0.896627 1
1.081201 0.509436 -0.917484 1
0.994759 0.514069 -0.810372 1
0.977532 0.509586 -0.950474 1
1.091345 0.519882 -0.860161 1
1.020011 0.522734 -0.863144 1
1.013631 0.521846 -0.868038 1
1.030640 0.521249 -0.862919 1
1.004371 0.515227 -0.854123 1
1.021565 0.521713 -0.877273 1
1.027782 0.517841 -0.850005 1
0.996989 0.518285 -0.866301 1
1.038225 0.522527 -0.872798 1
1.009470 0.516920 -0.842740 1
1.006989 0.518618 -0.882536 1
1.041254 0.518699 -0.855014 1
0.986741 0.512582 -0.853165 1
1.031781 0.520630 -0.884967 1
1.022005 0.512521 -0.837218 1
0.988952 0.516295 -0.877256 1
1.048466 0.519459 -0.868340 1
0.993658 0.513863 -0.838033 1
1.015206 0.519455 -0.892513 1
1.041358 0.515622 -0.843061 1
0.977065 0.515158 -0.861763 1
1.044510 0.519513 -0.884525 1
1.011728 0.514341 -0.828758 1
0.995621 0.522259 -0.889945 1
1.054951 0.518569 -0.858054 1
0.976379 0.511330 -0.841074 1
1.028789 0.519484 -0.897368 1
1.033990 0.513253 -0.830463 1
0.970722 0.512957 -0.875390 1
1.056321 0.518962 -0.877637 1
0.994729 0.513518 -0.825086 1
1.005092 0.520540 -0.900774 1
1.055047 0.517104 -0.844438 1
0.964234 0.512804 -0.851776 1
1.042900 0.516155 -0.896260 1
1.021469 0.514411 -0.820497 1
0.979853 0.521028 -0.890848 1
1.064546 0.519085 -0.865725 1
0.975336 0.512393 -0.828126 1
1.020183 0.518769 -0.907073 1
1.047763 0.514727 -0.829694 1
0.958359 0.514421 -0.867935 1
1.057799 0.516275 -0.888814 1
1.003758 0.515865 -0.815199 1
0.991847 0.521822 -0.904490 1
1.066137 0.517060 -0.850295 1
0.957375 0.511160 -0.838627 1
1.036797 0.514692 -0.907402 1
1.034798 0.515287 -0.816896 1
0.963172 0.518848 -0.886572 1
1.071516 0.522642 -0.876187 1
0.979220 0.511508 -0.815313 1
1.006864 0.517349 -0.914047 1
1.061786 0.517321 -0.833653 1
0.949173 0.515346 -0.856303 1
1.054679 0.513828 -0.900858 1
1.015757 0.516030 -0.808178 1
0.976626 0.522855 -0.903826 1
1.076600 0.521950 -0.859875 1
0.958146 0.512078 -0.824423 1
1.027042 0.515060 -0.916985 1
1.049224 0.515725 -0.817505 1
0.948459 0.517641 -0.877547 1
1.072603 0.521362 -0.888135 1
0.990546 0.513865 -0.805113 1
0.994111 0.521886 -0.916995 1
1.073774 0.518612 -0.841111 1
0.942993 0.514245 -0.841571 1
1.046323 0.509849 -0.912988 1
1.030643 0.516446 -0.805024 1
0.959525 0.521971 -0.898779 1
1.081785 0.521484 -0.871342 1
0.965857 0.514711 -0.810962 1
1.012411 0.513763 -0.924525 1
1.063933 0.517112 -0.822290 1
0.935731 0.515400 -0.864338 1
1.068700 0.517669 -0.901077 1
1.006122 0.516738 -0.798209 1
0.976743 0.522204 -0.916461 1
1.084227 0.522063 -0.851733 1
0.942321 0.513269 -0.825281 1
1.035603 0.510117 -0.923709 1
1.046534 0.516375 -0.805784 1
0.944393 0.522394 -0.889143 1
1.084092 0.522716 -0.884405 1
0.978475 0.517134 -0.799445 1
0.994886 0.513289 -0.928933 1
1.077553 0.519238 -0.830693 1
0.931503 0.518185 -0.848349 1
1.059329 0.511069 -0.914538 1
1.022517 0.516612 -0.794324 1
0.959620 0.523915 -0.911417 1
1.090420 0.522025 -0.864206 1
0.950216 0.515837 -0.809812 1
1.022791 0.513775 -0.931886 1
1.063378 0.518694 -0.811026 1
0.927544 0.517743 -0.875257 1
1.080906 0.519345 -0.898416 1
0.992036 0.514763 -0.789699 1
0.978432 0.517950 -0.928753 1
1.088273 0.519703 -0.841739 1
1.013217 0.515925 -0.844899 1
1.009802 0.520387 -0.850148 1
1.026193 0.518220 -0.845133 1
1.001011 0.514446 -0.835960 1
1.018667 0.521914 -0.859645 1
1.023555 0.515019 -0.831980 1
0.993254 0.517205 -0.848113 1
1.034521 0.520934 -0.855351 1
1.003892 0.512169 -0.824019 1
1.003773 0.518501 -0.864648 1
1.035727 0.512999 -0.836993 1
0.983542 0.512259 -0.834728 1
1.030011 0.523016 -0.867529 1
1.020131 0.513850 -0.819523 1
0.985491 0.515893 -0.859022 1
1.044203 0.516378 -0.850903 1
0.992095 0.515784 -0.819976 1
1.012559 0.520402 -0.874781 1
1.038948 0.515904 -0.825581 1
0.973250 0.514171 -0.843188 1
1.042807 0.522126 -0.867283 1
1.011016 0.517535 -0.811242 1
0.988030 0.515659 -0.871977 1
1.049926 0.513344 -0.840375 1
0.974639 0.513073 -0.822679 1
1.027013 0.522094 -0.879796 1
1.032245 0.514643 -0.812974 1
0.967106 0.512496 -0.856813 1
1.053838 0.519797 -0.860564 1
0.994396 0.517174 -0.807382 1
1.001547 0.520193 -0.882938 1
1.050781 0.513178 -0.826634 1
0.958739 0.509572 -0.832623 1
1.042128 0.520948 -0.878824 1
1.020186 0.516483 -0.802934 1
0.975184 0.519173 -0.872590 1
1.061599 0.518473 -0.848681 1
0.975011 0.515996 -0.810063 1
1.016913 0.518876 -0.889449 1
1.046368 0.516781 -0.812571 1
0.955354 0.514813 -0.849183 1
1.056022 0.519002 -0.871724 1
1.002601 0.518059 -0.797379 1
0.987013 0.519708 -0.886562 1
1.063560 0.516878 -0.833215 1
0.956184 0.513651 -0.820030 1
1.035067 0.517734 -0.889814 1
1.033808 0.517843 -0.799673 1
0.957925 0.516423 -0.867978 1
1.068638 0.522387 -0.859360 1
0.979784 0.516277 -0.797622 1
1.004256 0.518744 -0.896096 1
1.058816 0.515830 -0.816186 1
0.946230 0.515761 -0.837368 1
1.053658 0.518531 -0.883526 1
1.013665 0.516468 -0.790112 1
0.971291 0.520292 -0.885682 1
1.072816 0.518812 -0.842806 1
0.958332 0.516241 -0.806198 1
1.025163 0.517900 -0.899184 1
1.048221 0.518316 -0.800536 1
0.942429 0.514392 -0.858567 1
1.070430 0.523198 -0.871342 1
0.989583 0.516237 -0.787084 1
0.990216 0.521336 -0.899061 1
1.071519 0.518850 -0.824184 1
0.940406 0.515006 -0.822506 1
1.045737 0.515637 -0.895235 1
1.029253 0.517983 -0.787484 1
0.952792 0.517839 -0.880348 1
1.078709 0.520416 -0.854612 1
0.965283 0.517702 -0.792681 1
1.011184 0.517731 -0.906289 1
1.062918 0.519862 -0.805607 1
0.932597 0.515757 -0.845210 1
1.067852 0.523111 -0.883966 1
1.004430 0.517766 -0.780085 1
0.973363 0.522517 -0.898176 1
1.080656 0.518928 -0.834676 1
0.942776 0.517666 -0.806849 1
1.033840 0.513493 -0.905876 1
1.045912 0.519470 -0.788919 1
0.938790 0.519908 -0.870310 1
1.081939 0.524541 -0.867824 1
0.978073 0.520227 -0.781445 1
0.995338 0.519713 -0.910052 1
1.076059 0.521087 -0.814076 1
0.924707 0.514127 -0.828532 1
1.058372 0.516462 -0.897004 1
1.021062 0.517865 -0.776525 1
0.955243 0.522975 -0.892970 1
1.088003 0.522415 -0.847680 1
0.952626 0.522594 -0.792227 1
1.020896 0.516841 -0.913844 1
1.061950 0.520146 -0.794059 1
0.924357 0.518188 -0.856064 1
1.078958 0.522194 -0.881653 1
0.991159 0.517035 -0.771653 1
0.978787 0.523747 -0.909741 1
1.086443 0.521003 -0.825219 1
1.010017 0.512198 -0.828886 1
1.006670 0.516982 -0.834203 1
1.022974 0.514217 -0.829296 1
0.999042 0.512803 -0.819910 1
1.015357 0.518224 -0.843925 1
1.022029 0.513916 -0.816301 1
0.990606 0.514759 -0.831971 1
1.031158 0.516699 -0.839768 1
1.003655 0.513195 -0.808346 1
1.001083 0.516139 -0.848793 1
1.035897 0.515316 -0.821897 1
0.982602 0.512275 -0.818619 1
1.027486 0.520726 -0.852100 1
1.019303 0.513802 -0.803914 1
0.982775 0.513575 -0.842852 1
1.042874 0.515974 -0.835653 1
0.991872 0.516705 -0.804154 1
1.010631 0.519428 -0.859134 1
1.036980 0.513664 -0.809921 1
0.971793 0.513552 -0.826888 1
1.040074 0.519230 -0.852015 1
1.009209 0.515678 -0.795149 1
0.989133 0.519339 -0.855989 1
1.048402 0.512245 -0.825094 1
0.975113 0.514974 -0.806749 1
1.026272 0.523356 -0.864337 1
1.031010 0.513659 -0.797347 1
0.964923 0.511042 -0.840394 1
1.051846 0.518148 -0.845432 1
0.993136 0.516279 -0.791227 1
0.999412 0.519049 -0.867154 1
1.051294 0.516254 -0.811929 1
0.961155 0.514135 -0.816750 1
1.041217 0.522009 -0.863577 1
1.017812 0.513330 -0.786603 1
0.972497 0.517193 -0.856391 1
1.060281 0.518008 -0.833684 1
0.975389 0.517581 -0.794152 1
1.016189 0.520257 -0.873767 1
1.045319 0.516089 -0.797212 1
0.953702 0.514043 -0.832636 1
1.054607 0.518904 -0.856682 1
1.000723 0.515950 -0.780994 1
0.983748 0.516971 -0.870634 1
1.062024 0.515467 -0.818081 1
0.957425 0.516396 -0.804006 1
1.035310 0.521232 -0.874274 1
1.032305 0.516064 -0.783829 1
0.955210 0.514456 -0.851490 1
1.067073 0.521600 -0.844491 1
0.979951 0.517414 -0.781705 1
1.001653 0.517029 -0.880403 1
1.057927 0.515528 -0.801082 1
0.944740 0.515091 -0.820677 1
1.053310 0.521078 -0.868359 1
1.011934 0.514331 -0.773800 1
0.966548 0.515649 -0.869591 1
1.071536 0.518244 -0.827948 1
0.961276 0.521106 -0.790789 1
1.024469 0.519613 -0.883525 1
1.047587 0.518231 -0.785304 1
0.941354 0.514476 -0.841902 1
1.068880 0.522779 -0.856530 1
0.989256 0.516502 -0.771071 1
0.985750 0.516936 -0.883406 1
1.070651 0.518801 -0.809341 1
0.941949 0.517973 -0.806293 1
1.046005 0.519618 -0.879730 1
1.027508 0.515555 -0.771294 1
0.948951 0.514593 -0.863881 1
1.077443 0.520233 -0.839896 1
0.967682 0.521777 -0.777352 1
1.008777 0.516473 -0.890675 1
1.062532 0.520473 -0.790759 1
0.930305 0.514228 -0.828264 1
1.067197 0.525209 -0.869039 1
1.003077 0.516219 -0.763728 1
0.968178 0.517412 -0.882330 1
1.081193 0.523057 -0.820497 1
0.947022 0.523850 -0.791519 1
1.034859 0.518869 -0.889900 1
1.044540 0.517572 -0.773133 1
0.936534 0.518665 -0.853600 1
1.080564 0.524479 -0.853189 1
0.978666 0.521747 -0.765663 1
0.993253 0.519075 -0.894165 1
1.075582 0.521757 -0.799433 1
0.927362 0.518295 -0.812222 1
1.058479 0.520515 -0.881649 1
1.019343 0.515407 -0.760090 1
0.949408 0.517324 -0.876823 1
1.087318 0.523681 -0.833227 1
0.955896 0.527524 -0.777008 1
1.019856 0.518151 -0.898053 1
1.062166 0.521871 -0.779479 1
0.922342 0.517134 -0.839101 1
1.078130 0.524005 -0.866901 1
0.991145 0.517557 -0.755715 1
0.975769 0.521781 -0.893796 1
1.085851 0.521771 -0.810730 1
1.009437 0.516135 -0.815500 1
1.003612 0.516761 -0.820340 1
1.020394 0.514654 -0.815758 1
0.997015 0.513996 -0.806064 1
1.011685 0.517112 -0.830176 1
1.018994 0.513173 -0.802571 1
0.987889 0.515125 -0.817883 1
1.027578 0.515465 -0.826251 1
1.003052 0.516493 -0.794967 1
0.997465 0.515382 -0.834836 1
1.032785 0.514436 -0.808412 1
0.980819 0.513805 -0.804542 1
1.023083 0.518334 -0.838554 1
1.017268 0.514577 -0.790369 1
0.979382 0.513187 -0.828581 1
1.039883 0.515690 -0.822394 1
0.989751 0.517373 -0.790131 1
1.006670 0.518249 -0.845377 1
1.034407 0.513511 -0.796519 1
0.969219 0.514092 -0.812494 1
1.036016 0.517276 -0.838690 1
1.006386 0.514892 -0.781104 1
0.985097 0.518195 -0.841859 1
1.047467 0.516101 -0.812382 1
0.974297 0.517632 -0.792792 1
1.022247 0.522007 -0.850879 1
1.028271 0.512861 -0.783681 1
0.965937 0.516879 -0.826269 1
1.048410 0.517131 -0.832307 1
0.991395 0.517257 -0.777292 1
0.995214 0.517791 -0.853246 1
1.048708 0.516030 -0.798774 1
0.960698 0.517397 -0.802581 1
1.037445 0.520955 -0.850357 1
1.015298 0.512793 -0.772719 1
0.968514 0.516298 -0.841984 1
1.056816 0.516413 -0.820601 1
0.975569 0.521393 -0.780545 1
1.012495 0.519844 -0.860143 1
1.043142 0.516313 -0.784013 1
0.950275 0.513616 -0.817844 1
1.050740 0.517265 -0.843635 1
0.998557 0.515992 -0.766948 1
0.978632 0.514581 -0.856500 1
1.059075 0.514523 -0.805016 1
0.958575 0.521507 -0.790241 1
1.033622 0.524597 -0.860830 1
1.029656 0.515036 -0.770072 1
0.952479 0.515279 -0.836833 1
1.063923 0.521045 -0.831657 1
0.980580 0.521689 -0.768414 1
1.000381 0.520808 -0.866313 1
1.056912 0.518537 -0.788644 1
0.943591 0.517407 -0.806074 1
1.049594 0.520166 -0.855349 1
1.009634 0.513896 -0.759791 1
0.961640 0.513781 -0.855148 1
1.069387 0.519590 -0.815346 1
0.962700 0.526317 -0.777325 1
1.020652 0.519181 -0.870048 1
1.044964 0.517097 -0.771801 1
0.940103 0.517015 -0.827145 1
1.065377 0.521778 -0.843748 1
0.989871 0.520678 -0.758017 1
0.982935 0.518240 -0.869178 1
1.068156 0.518548 -0.796516 1
0.942791 0.522487 -0.792134 1
1.042736 0.520070 -0.866552 1
1.025151 0.514794 -0.757457 1
0.948467 0.518537 -0.849111 1
1.076075 0.524149 -0.827542 1
0.969136 0.526876 -0.764156 1
1.005971 0.518030 -0.876768 1
1.059828 0.519112 -0.777501 1
0.931032 0.518878 -0.813644 1
1.063679 0.524626 -0.856270 1
1.002081 0.517776 -0.750156 1
0.964493 0.517462 -0.867895 1
1.078365 0.522250 -0.807814 1
0.949881 0.530595 -0.778185 1
1.031184 0.518831 -0.876563 1
1.042018 0.516315 -0.759468 1
0.933268 0.518888 -0.838626 1
1.077425 0.524166 -0.840616 1
0.978903 0.525051 -0.752241 1
0.986666 0.514779 -0.880571 1
1.073004 0.520844 -0.786548 1
0.927531 0.521943 -0.797604 1
1.055392 0.521436 -0.868646 1
1.017919 0.516132 -0.746535 1
0.943917 0.515053 -0.862169 1
1.084374 0.523019 -0.820705 1
0.955978 0.530582 -0.763072 1
1.015148 0.516537 -0.884645 1
1.059686 0.520642 -0.766182 1
0.920487 0.518830 -0.823986 1
1.076066 0.527088 -0.854248 1
0.992833 0.523079 -0.743319 1
0.968006 0.516255 -0.880043 1
1.083981 0.523232 -0.798463 1
1.002797 0.514122 -0.802689 1
0.998706 0.517784 -0.807855 1
1.014720 0.514125 -0.803223 1
0.993082 0.516571 -0.793701 1
1.006385 0.517462 -0.817731 1
1.014113 0.514008 -0.790144 1
0.983814 0.517546 -0.805392 1
1.021557 0.514244 -0.813793 1
0.997101 0.515627 -0.782064 1
0.992124 0.515863 -0.822270 1
1.025486 0.510425 -0.795451 1
0.977530 0.517355 -0.792176 1
1.016665 0.516566 -0.826144 1
1.011226 0.513233 -0.777462 1
0.974441 0.514425 -0.815874 1
1.033025 0.512447 -0.809824 1
0.986535 0.520918 -0.777954 1
1.001006 0.518141 -0.832924 1
1.030392 0.515861 -0.784502 1
0.966365 0.518260 -0.800059 1
1.030035 0.516068 -0.826417 1
1.002158 0.516773 -0.768732 1
0.976553 0.514028 -0.829044 1
1.040723 0.512716 -0.799724 1
0.973086 0.524010 -0.781006 1
1.016147 0.520920 -0.838605 1
1.024029 0.514666 -0.771500 1
0.957258 0.513031 -0.813012 1
1.040839 0.512154 -0.819848 1
0.988022 0.520490 -0.765111 1
0.990002 0.518591 -0.840721 1
1.042611 0.513846 -0.786127 1
0.957156 0.520506 -0.789988 1
1.031133 0.519152 -0.838199 1
1.010735 0.513995 -0.760243 1
0.963671 0.517787 -0.829222 1
1.052016 0.517236 -0.808593 1
0.973725 0.526743 -0.768732 1
1.007754 0.521341 -0.847772 1
1.037362 0.514792 -0.771276 1
0.947252 0.517515 -0.805156 1
1.045394 0.517186 -0.831563 1
0.994699 0.518404 -0.754635 1
0.973927 0.516306 -0.843803 1
1.055237 0.517416 -0.793309 1
0.958355 0.528878 -0.778580 1
1.026418 0.521258 -0.848792 1
1.025447 0.516741 -0.757887 1
0.947421 0.516575 -0.823908 1
1.056548 0.515737 -0.819333 1
0.976923 0.524394 -0.756038 1
0.992523 0.517388 -0.854035 1
1.051519 0.517570 -0.776223 1
0.942254 0.523302 -0.793732 1
1.044195 0.520087 -0.843321 1
1.006562 0.517607 -0.747964 1
0.957009 0.515683 -0.842300 1
1.064104 0.518978 -0.803301 1
0.961112 0.531780 -0.765491 1
1.016700 0.522158 -0.857639 1
1.039377 0.515799 -0.759012 1
0.932319 0.514994 -0.813820 1
1.060444 0.522442 -0.831863 1
0.985343 0.521991 -0.745308 1
0.974525 0.514489 -0.856786 1
1.064208 0.521032 -0.784898 1
0.943186 0.530346 -0.780395 1
1.037844 0.521233 -0.854437 1
1.021308 0.517103 -0.745387 1
0.940902 0.516697 -0.836134 1
1.069561 0.520326 -0.815392 1
0.964605 0.528352 -0.751342 1
0.999905 0.517486 -0.864441 1
1.054420 0.517897 -0.764957 1
0.924841 0.518900 -0.800338 1
1.055799 0.518485 -0.844463 1
0.998510 0.520509 -0.737999 1
0.956653 0.514991 -0.855264 1
1.072578 0.519958 -0.795585 1
0.947725 0.535176 -0.766033 1
1.025481 0.518592 -0.864426 1
1.037696 0.517591 -0.747281 1
0.923354 0.514506 -0.825272 1
1.071058 0.520873 -0.828698 1
0.972676 0.523985 -0.738625 1
0.981704 0.516216 -0.867906 1
1.067851 0.520048 -0.774325 1
0.925324 0.526577 -0.785018 1
1.050598 0.522782 -0.856633 1
1.014973 0.519961 -0.734912 1
0.939519 0.517334 -0.849155 1
1.079095 0.522161 -0.808830 1
0.949772 0.530030 -0.749522 1
1.008378 0.514695 -0.872536 1
1.054071 0.518790 -0.753354 1
0.913048 0.517597 -0.810525 1
1.069324 0.523075 -0.842516 1
0.987426 0.522909 -0.730061 1
0.962054 0.516380 -0.867348 1
1.079183 0.523353 -0.786615 1
0.987614 0.516585 -0.791855 1
0.981073 0.516534 -0.796636 1
0.998204 0.513716 -0.792138 1
0.977276 0.518423 -0.782534 1
0.988023 0.514562 -0.806707 1
0.997863 0.514017 -0.778815 1
0.966552 0.517760 -0.794142 1
1.004707 0.512863 -0.802922 1
0.982323 0.518848 -0.771001 1
0.975878 0.517239 -0.811565 1
1.010227 0.511675 -0.784542 1
0.964208 0.523449 -0.781534 1
1.000176 0.516177 -0.815614 1
0.996078 0.515229 -0.766231 1
0.959200 0.518084 -0.805092 1
1.016379 0.510647 -0.798907 1
0.972163 0.525042 -0.766921 1
0.983262 0.516689 -0.822394 1
1.012082 0.510860 -0.772275 1
0.951107 0.522090 -0.789026 1
1.013747 0.515201 -0.815973 1
0.986918 0.518934 -0.757286 1
0.959743 0.515427 -0.818332 1
1.022699 0.507452 -0.788134 1
0.958269 0.527987 -0.769833 1
0.996837 0.515747 -0.828285 1
1.006335 0.511285 -0.759078 1
0.942937 0.518592 -0.802221 1
1.024554 0.510593 -0.809276 1
0.973782 0.524706 -0.753959 1
0.969720 0.514072 -0.830286 1
1.026798 0.512800 -0.774832 1
0.943874 0.527163 -0.779227 1
1.014868 0.518272 -0.828048 1
0.996178 0.516896 -0.748955 1
0.943106 0.514787 -0.818211 1
1.033556 0.509891 -0.797211 1
0.959371 0.531223 -0.757530 1
0.987407 0.515246 -0.837756 1
1.020116 0.511132 -0.758949 1
0.930674 0.520486 -0.793892 1
1.027143 0.511208 -0.821158 1
0.980322 0.522148 -0.743299 1
0.957093 0.517828 -0.833371 1
1.039758 0.516138 -0.782292 1
0.941878 0.531260 -0.766858 1
1.009578 0.519668 -0.838873 1
1.007496 0.512654 -0.744824 1
0.926522 0.514227 -0.812610 1
1.039798 0.511816 -0.808715 1
0.963077 0.529457 -0.744882 1
0.975082 0.517047 -0.843973 1
1.032853 0.509537 -0.763276 1
0.926542 0.527431 -0.782422 1
1.027062 0.516562 -0.833376 1
0.992060 0.520625 -0.736477 1
0.940691 0.518688 -0.831728 1
1.046010 0.510927 -0.791723 1
0.944417 0.533688 -0.753407 1
0.998209 0.518440 -0.847983 1
1.022501 0.512586 -0.746420 1
0.916406 0.519446 -0.802708 1
1.041475 0.513111 -0.821481 1
0.971534 0.526817 -0.734069 1
0.957628 0.515971 -0.846589 1
1.045846 0.512120 -0.772323 1
0.928295 0.535273 -0.769086 1
1.022261 0.521300 -0.844671 1
1.005663 0.517389 -0.733198 1
0.922971 0.518396 -0.825315 1
1.051744 0.512352 -0.804412 1
0.950319 0.533179 -0.739898 1
0.982185 0.516311 -0.854712 1
1.036213 0.510402 -0.751657 1
0.911750 0.526746 -0.789471 1
1.038268 0.513084 -0.834624 1
0.983799 0.523441 -0.726210 1
0.940358 0.518092 -0.844879 1
1.055296 0.512702 -0.783877 1
0.928550 0.534799 -0.753166 1
1.008507 0.516978 -0.854870 1
1.021548 0.515828 -0.734730 1
0.906007 0.517697 -0.814158 1
1.052203 0.510291 -0.818182 1
0.960284 0.531120 -0.727935 1
0.963729 0.515793 -0.858104 1
1.050216 0.512282 -0.761544 1
0.911195 0.533060 -0.773861 1
1.033250 0.518311 -0.847182 1
0.999823 0.521349 -0.722771 1
0.923407 0.521314 -0.838572 1
1.062027 0.514732 -0.797720 1
0.934848 0.534599 -0.737762 1
0.992116 0.515479 -0.862847 1
1.036015 0.511549 -0.739593 1
0.898523 0.524244 -0.799443 1
1.050907 0.513944 -0.832717 1
0.974901 0.529447 -0.719325 1
0.942474 0.514920 -0.857510 1
1.062134 0.515652 -0.774518 1
0.970052 0.520761 -0.785586 1
0.962206 0.519107 -0.790221 1
0.978996 0.514776 -0.785495 1
0.959383 0.522594 -0.776081 1
0.968516 0.515776 -0.800391 1
0.980862 0.518677 -0.772497 1
0.944461 0.516706 -0.787152 1
0.985286 0.513133 -0.796468 1
0.966435 0.525715 -0.764949 1
0.954576 0.516579 -0.805202 1
0.992262 0.514141 -0.778001 1
0.946801 0.528789 -0.775199 1
0.980337 0.515982 -0.809441 1
0.979702 0.520947 -0.759982 1
0.938329 0.519166 -0.798650 1
0.997103 0.510392 -0.792333 1
0.954954 0.530264 -0.760412 1
0.962037 0.515580 -0.816354 1
0.993852 0.512800 -0.765427 1
0.930089 0.523479 -0.782149 1
0.994813 0.515586 -0.809863 1
0.971261 0.525993 -0.751225 1
0.937672 0.514881 -0.812165 1
1.004221 0.508340 -0.781484 1
0.938150 0.530034 -0.762589 1
0.973719 0.510543 -0.822355 1
0.989365 0.515724 -0.752532 1
0.921457 0.519934 -0.795682 1
1.004879 0.508939 -0.802871 1
0.957067 0.530566 -0.747463 1
0.946901 0.511731 -0.824476 1
1.005668 0.508179 -0.766869 1
0.924353 0.530774 -0.772436 1
0.994322 0.515652 -0.822166 1
0.978482 0.520480 -0.741964 1
0.920402 0.514600 -0.812038 1
1.013236 0.506205 -0.790249 1
0.939670 0.533712 -0.750083 1
0.964944 0.511926 -0.832219 1
1.000676 0.510347 -0.751251 1
0.909996 0.523519 -0.787295 1
1.007843 0.510018 -0.815118 1
0.963799 0.528099 -0.736774 1
0.934560 0.516820 -0.827684 1
1.016658 0.505990 -0.773741 1
0.921582 0.534023 -0.759583 1
0.986002 0.512337 -0.833428 1
0.990458 0.516894 -0.738058 1
0.908467 0.520615 -0.806686 1
1.018861 0.506148 -0.801999 1
0.946934 0.536397 -0.738512 1
0.952897 0.515134 -0.838648 1
1.012210 0.505341 -0.755023 1
0.906978 0.531895 -0.775762 1
1.006430 0.512686 -0.827664 1
0.975190 0.525602 -0.729681 1
0.916719 0.517076 -0.825982 1
1.025487 0.505488 -0.784380 1
0.923322 0.535353 -0.745503 1
0.977876 0.517501 -0.842722 1
1.002637 0.510805 -0.738116 1
0.895946 0.523504 -0.796388 1
1.021677 0.509586 -0.815368 1
0.955832 0.534125 -0.727813 1
0.936028 0.516150 -0.841296 1
1.025709 0.507539 -0.764381 1
0.908118 0.538889 -0.761954 1
0.999452 0.513831 -0.839505 1
0.987434 0.519580 -0.725590 1
0.899042 0.518121 -0.819358 1
1.031002 0.505689 -0.797457 1
0.932804 0.538847 -0.732957 1
0.961822 0.516514 -0.849604 1
1.015667 0.506061 -0.742962 1
0.890524 0.530175 -0.782736 1
1.019028 0.510990 -0.828949 1
0.968294 0.530715 -0.720016 1
0.917429 0.517763 -0.839580 1
1.035668 0.508190 -0.776407 1
0.910308 0.540570 -0.746267 1
0.986517 0.512434 -0.850021 1
1.003429 0.517260 -0.727060 1
0.882920 0.519473 -0.807919 1
1.032838 0.506730 -0.811970 1
0.945216 0.539518 -0.721913 1
0.943371 0.517224 -0.853040 1
1.029841 0.506704 -0.753005 1
0.888782 0.535263 -0.766458 1
1.012999 0.514499 -0.841962 1
0.983623 0.527026 -0.716143 1
0.898161 0.519496 -0.833101 1
1.042003 0.508394 -0.790544 1
0.917367 0.540968 -0.730872 1
0.971967 0.515310 -0.857961 1
1.016675 0.509667 -0.731176 1
0.876215 0.527280 -0.792873 1
1.031407 0.510061 -0.826976 1
0.960765 0.538711 -0.713763 1
0.923927 0.519899 -0.852218 1
1.042359 0.509915 -0.766504 1
0.955149 0.521104 -0.779918 1
0.948800 0.521912 -0.784951 1
0.967332 0.519765 -0.780468 1
0.946480 0.526242 -0.770777 1
0.955487 0.518886 -0.795267 1
0.969017 0.523336 -0.767359 1
0.932397 0.521941 -0.782155 1
0.971935 0.515211 -0.791184 1
0.952415 0.527582 -0.759167 1
0.938712 0.516197 -0.799871 1
0.979627 0.517250 -0.772642 1
0.930603 0.528527 -0.769182 1
0.962300 0.510809 -0.803878 1
0.966894 0.524201 -0.754453 1
0.920769 0.517427 -0.793043 1
0.983672 0.511934 -0.786926 1
0.941205 0.532926 -0.754714 1
0.943198 0.510494 -0.811067 1
0.981789 0.516938 -0.760145 1
0.916639 0.527302 -0.776914 1
0.978347 0.511903 -0.804396 1
0.958141 0.529053 -0.745532 1
0.919956 0.512870 -0.806915 1
0.992172 0.512197 -0.776265 1
0.924667 0.533608 -0.757090 1
0.957170 0.508011 -0.817311 1
0.977066 0.519630 -0.747094 1
0.907561 0.523453 -0.790561 1
0.992734 0.512426 -0.797767 1
0.943831 0.533916 -0.741762 1
0.931938 0.512828 -0.819600 1
0.992732 0.510490 -0.761248 1
0.907816 0.531178 -0.766442 1
0.977052 0.510563 -0.817042 1
0.966069 0.524512 -0.736444 1
0.905903 0.517376 -0.807065 1
1.001146 0.509706 -0.785042 1
0.925601 0.536561 -0.744234 1
0.950094 0.512331 -0.827447 1
0.987489 0.512476 -0.745385 1
0.897431 0.528926 -0.782327 1
0.993779 0.509763 -0.809935 1
0.952267 0.533680 -0.731637 1
0.913966 0.511242 -0.822868 1
1.002962 0.506374 -0.767880 1
0.906730 0.536553 -0.753766 1
0.970766 0.511075 -0.828653 1
0.977143 0.519183 -0.732030 1
0.891462 0.520964 -0.801483 1
1.005527 0.506912 -0.796642 1
0.931920 0.537851 -0.732076 1
0.935164 0.512043 -0.834142 1
0.998097 0.505308 -0.748734 1
0.892856 0.535657 -0.770427 1
0.990623 0.509213 -0.822707 1
0.962744 0.529670 -0.724051 1
0.896550 0.513189 -0.821151 1
1.011514 0.504767 -0.778550 1
0.909733 0.539340 -0.739852 1
0.958718 0.510561 -0.838442 1
0.991040 0.515770 -0.732886 1
0.882267 0.528027 -0.791394 1
1.007407 0.508163 -0.810120 1
0.944397 0.539958 -0.722695 1
0.917568 0.513092 -0.836920 1
1.009630 0.502586 -0.757305 1
0.885336 0.533450 -0.754311 1
0.984537 0.512287 -0.834849 1
0.976591 0.525973 -0.720735 1
0.882124 0.518895 -0.814469 1
1.017143 0.504773 -0.791862 1
0.917500 0.540569 -0.726430 1
0.942762 0.510904 -0.845569 1
1.002026 0.506842 -0.736667 1
0.876090 0.534108 -0.777507 1
1.006086 0.512198 -0.824008 1
0.959634 0.540267 -0.716257 1
0.897252 0.513744 -0.835238 1
1.021117 0.505594 -0.770126 1
0.890848 0.538663 -0.738900 1
0.973887 0.515262 -0.845360 1
0.992805 0.523806 -0.722312 1
0.867122 0.522148 -0.802920 1
1.019471 0.506628 -0.806702 1
0.933422 0.545092 -0.716632 1
0.925559 0.514504 -0.848988 1
1.014944 0.503998 -0.746091 1
0.872747 0.537716 -0.760682 1
0.998946 0.513711 -0.837299 1
0.974443 0.535886 -0.712201 1
0.879999 0.518865 -0.828539 1
1.027264 0.504769 -0.784494 1
0.901604 0.542811 -0.724272 1
0.957322 0.515485 -0.853678 1
1.003910 0.512112 -0.725192 1
0.860584 0.530437 -0.787681 1
1.018275 0.510334 -0.821974 1
0.951893 0.547806 -0.709891 1
0.902907 0.514410 -0.848426 1
1.026118 0.503007 -0.759139 1
0.940765 0.526996 -0.778267 1
0.932210 0.524923 -0.783001 1
0.952679 0.524933 -0.778653 1
0.929439 0.528890 -0.768567 1
0.936681 0.518406 -0.793100 1
0.953688 0.527563 -0.765286 1
0.916945 0.527088 -0.780537 1
0.957014 0.519783 -0.789336 1
0.937268 0.532660 -0.757257 1
0.923213 0.520938 -0.798323 1
0.965945 0.523760 -0.770932 1
0.913793 0.532124 -0.767185 1
0.948717 0.517606 -0.802320 1
0.952022 0.529345 -0.752466 1
0.904752 0.522217 -0.791548 1
0.970440 0.519040 -0.785264 1
0.923019 0.534500 -0.752001 1
0.929146 0.517010 -0.809645 1
0.967424 0.522526 -0.758219 1
0.899845 0.531382 -0.775171 1
0.962791 0.515120 -0.802510 1
0.942028 0.532783 -0.743144 1
0.905132 0.519048 -0.805633 1
0.978483 0.518526 -0.774455 1
0.905735 0.535050 -0.754451 1
0.941872 0.512312 -0.815744 1
0.962682 0.525449 -0.745183 1
0.893822 0.531218 -0.789449 1
0.977977 0.516523 -0.795788 1
0.926662 0.536822 -0.739129 1
0.911063 0.510656 -0.818185 1
0.979042 0.517135 -0.759475 1
0.892115 0.536888 -0.764898 1
0.959789 0.510938 -0.815238 1
0.951793 0.530810 -0.734651 1
0.890152 0.522805 -0.805859 1
0.986320 0.513707 -0.782902 1
0.907370 0.538928 -0.741536 1
0.929805 0.509654 -0.826119 1
0.973706 0.519276 -0.743662 1
0.879907 0.532857 -0.780743 1
0.979057 0.513754 -0.808026 1
0.936906 0.538739 -0.729482 1
0.899781 0.518191 -0.821727 1
0.988972 0.512294 -0.765925 1
0.885516 0.536406 -0.750723 1
0.955435 0.514565 -0.827090 1
0.963055 0.525716 -0.730257 1
0.873981 0.525015 -0.800232 1
0.991582 0.512288 -0.794667 1
0.914802 0.541402 -0.729484 1
0.918642 0.515162 -0.832973 1
0.983519 0.510684 -0.746628 1
0.874931 0.539437 -0.768647 1
0.975594 0.512580 -0.820911 1
0.949507 0.537542 -0.722739 1
0.881554 0.519670 -0.820148 1
0.996874 0.509072 -0.776338 1
0.893470 0.544578 -0.737905 1
0.943643 0.514738 -0.837058 1
0.975932 0.520357 -0.730523 1
0.864544 0.532242 -0.790074 1
0.993247 0.512776 -0.808135 1
0.928648 0.544790 -0.720382 1
0.901160 0.516998 -0.835926 1
0.995068 0.507604 -0.755112 1
0.867711 0.538046 -0.752459 1
0.969267 0.515192 -0.833247 1
0.963210 0.533539 -0.719299 1
0.864796 0.523329 -0.813491 1
1.002525 0.508667 -0.789651 1
0.901242 0.545692 -0.724275 1
0.928052 0.516019 -0.844343 1
0.987666 0.512668 -0.734626 1
0.852307 0.532741 -0.775138 1
0.989816 0.512527 -0.822101 1
0.944067 0.544879 -0.713792 1
0.884878 0.522968 -0.834219 1
1.005164 0.507008 -0.767345 1
0.871786 0.541730 -0.736349 1
0.956931 0.515734 -0.844149 1
0.976059 0.525555 -0.718944 1
0.849068 0.526526 -0.801883 1
1.005028 0.510420 -0.804567 1
0.916229 0.548611 -0.713757 1
0.908878 0.517565 -0.848136 1
0.999462 0.507193 -0.743406 1
0.852536 0.540199 -0.758523 1
0.981645 0.512317 -0.835767 1
0.960707 0.542767 -0.710550 1
0.862526 0.523057 -0.827783 1
1.011156 0.505254 -0.781765 1
0.889022 0.552296 -0.723591 1
0.940825 0.517322 -0.852677 1
0.990269 0.519199 -0.723518 1
0.835993 0.529023 -0.785762 1
1.002898 0.511839 -0.819935 1
0.888747 0.521282 -0.847501 1
1.010778 0.505806 -0.756454 1
0.924731 0.528115 -0.777077 1
0.918653 0.529566 -0.782374 1
0.939389 0.529399 -0.777881 1
0.915452 0.533164 -0.767789 1
0.923940 0.524026 -0.792594 1
0.941336 0.533425 -0.764684 1
0.900262 0.528396 -0.779522 1
0.944083 0.524634 -0.788637 1
0.921133 0.534001 -0.755737 1
0.909868 0.526004 -0.797876 1
0.952772 0.528149 -0.770045 1
0.897031 0.533592 -0.765952 1
0.934601 0.520883 -0.801626 1
0.938117 0.533209 -0.751395 1
0.893763 0.530576 -0.791475 1
0.958271 0.524796 -0.784585 1
0.908690 0.538651 -0.751068 1
0.912927 0.518110 -0.809066 1
0.956410 0.530361 -0.757950 1
0.884659 0.535094 -0.774490 1
0.949814 0.519693 -0.801808 1
0.929733 0.539112 -0.742649 1
0.890461 0.522996 -0.805281 1
0.965992 0.523759 -0.773653 1
0.890001 0.538129 -0.753350 1
0.927446 0.515320 -0.815210 1
0.951008 0.532435 -0.744791 1
0.875521 0.531598 -0.788626 1
0.965897 0.522198 -0.795062 1
0.912973 0.541742 -0.738272 1
0.893712 0.511076 -0.817863 1
0.967473 0.524130 -0.758979 1
0.875004 0.538869 -0.763787 1
0.946559 0.515148 -0.814597 1
0.939997 0.537774 -0.734305 1
0.873931 0.525472 -0.805546 1
0.975449 0.521586 -0.782389 1
0.891276 0.541650 -0.740138 1
0.914517 0.511844 -0.825789 1
0.961928 0.526159 -0.743205 1
0.858285 0.530537 -0.779413 1
0.965426 0.516750 -0.807174 1
0.922995 0.543160 -0.728389 1
0.882227 0.518806 -0.821579 1
0.977581 0.519561 -0.765403 1
0.866827 0.537163 -0.749064 1
0.941616 0.517783 -0.826574 1
0.951874 0.533609 -0.730160 1
0.857283 0.527825 -0.799940 1
0.980110 0.518940 -0.793938 1
0.900932 0.546477 -0.728613 1
0.903068 0.517261 -0.832846 1
0.972516 0.519024 -0.746450 1
0.847162 0.531508 -0.765905 1
0.961702 0.515111 -0.820187 1
0.937805 0.544620 -0.722463 1
0.860664 0.517487 -0.820093 1
0.985349 0.515980 -0.775672 1
0.870583 0.540769 -0.734581 1
0.928792 0.516771 -0.836785 1
0.963761 0.526723 -0.729945 1
0.839712 0.527504 -0.788891 1
0.980437 0.516772 -0.807235 1
0.913923 0.548492 -0.718959 1
0.885082 0.519120 -0.835992 1
0.983279 0.514443 -0.754518 1
0.850422 0.540923 -0.751373 1
0.953507 0.514774 -0.832804 1
0.951650 0.540754 -0.719056 1
0.844266 0.522490 -0.813384 1
0.990543 0.514436 -0.788785 1
0.886525 0.550239 -0.723189 1
0.913128 0.518443 -0.844280 1
0.975113 0.518383 -0.733828 1
0.835115 0.536078 -0.774597 1
0.976408 0.515356 -0.821286 1
0.932634 0.552295 -0.713671 1
0.865528 0.522145 -0.834531 1
0.992219 0.511290 -0.766242 1
0.847792 0.538095 -0.733065 1
0.943834 0.519717 -0.843722 1
0.964504 0.532872 -0.718700 1
0.826585 0.524726 -0.801483 1
0.993142 0.516015 -0.803660 1
0.895132 0.522041 -0.848130 1
0.986172 0.511352 -0.742200 1
0.829113 0.537956 -0.756501 1
0.969187 0.516834 -0.835054 1
0.949352 0.550121 -0.710412 1
0.841386 0.521572 -0.828112 1
0.998821 0.510441 -0.780787 1
0.864907 0.547818 -0.719375 1
0.926481 0.519923 -0.852590 1
0.977203 0.523910 -0.722415 1
0.818081 0.532202 -0.785462 1
0.990586 0.516351 -0.819019 1
0.873417 0.524549 -0.847782 1
0.997400 0.509298 -0.755136 1
0.920854 0.532224 -0.778487 1
0.913109 0.531497 -0.783512 1
0.932953 0.529967 -0.778742 1
0.911723 0.537421 -0.769337 1
0.919320 0.527120 -0.793805 1
0.934736 0.533809 -0.765454 1
0.897027 0.533233 -0.781118 1
0.936201 0.523019 -0.789301 1
0.917066 0.537907 -0.757284 1
0.903828 0.527328 -0.799012 1
0.948006 0.531073 -0.771199 1
0.894893 0.539668 -0.767908 1
0.926823 0.519536 -0.802491 1
0.933692 0.536690 -0.752812 1
0.887625 0.531962 -0.792680 1
0.952109 0.525507 -0.785401 1
0.904225 0.542045 -0.752581 1
0.908832 0.521884 -0.810292 1
0.950613 0.531802 -0.758847 1
0.879094 0.537274 -0.775813 1
0.945345 0.522948 -0.802858 1
0.922969 0.539562 -0.743377 1
0.883276 0.523175 -0.806481 1
0.961487 0.527126 -0.774798 1
0.885889 0.541963 -0.755017 1
0.919990 0.514477 -0.816254 1
0.944719 0.533293 -0.745561 1
0.868638 0.532395 -0.789852 1
0.959609 0.522547 -0.795840 1
0.907258 0.543679 -0.739438 1
0.891468 0.517179 -0.819159 1
0.962241 0.526453 -0.760004 1
0.870427 0.542183 -0.765359 1
0.941042 0.516816 -0.815573 1
0.935007 0.540541 -0.735620 1
0.864534 0.523494 -0.806737 1
0.969557 0.522592 -0.783157 1
0.887244 0.545594 -0.741912 1
0.914440 0.520885 -0.826817 1
0.956638 0.528515 -0.744302 1
0.852543 0.532768 -0.780861 1
0.959353 0.517403 -0.808011 1
0.917781 0.545682 -0.729707 1
0.876094 0.520223 -0.822919 1
0.972240 0.521677 -0.766332 1
0.861998 0.540363 -0.750692 1
0.933061 0.514959 -0.827668 1
0.946265 0.535543 -0.731206 1
0.846317 0.524662 -0.801064 1
0.973743 0.518993 -0.794620 1
0.894802 0.548064 -0.729708 1
0.899284 0.521285 -0.833983 1
0.966789 0.520699 -0.747341 1
0.845472 0.537839 -0.768105 1
0.954202 0.513419 -0.821079 1
0.931093 0.545133 -0.723092 1
0.855765 0.520468 -0.821548 1
0.979781 0.517613 -0.776476 1
0.866119 0.544358 -0.736353 1
0.921742 0.516290 -0.837978 1
0.958150 0.528675 -0.730958 1
0.835486 0.531332 -0.790589 1
0.973107 0.515016 -0.807896 1
0.908833 0.551203 -0.720392 1
0.881222 0.523028 -0.837222 1
0.977951 0.516757 -0.755489 1
0.836350 0.535360 -0.751060 1
0.949102 0.517953 -0.833679 1
0.946021 0.542654 -0.720106 1
0.837163 0.523376 -0.814900 1
0.985063 0.516091 -0.789553 1
0.882333 0.553992 -0.725035 1
0.910742 0.524156 -0.845156 1
0.969237 0.519915 -0.734683 1
0.828153 0.537371 -0.776004 1
0.969000 0.513438 -0.822106 1
0.928284 0.555821 -0.715376 1
0.861326 0.525702 -0.835900 1
0.986345 0.512475 -0.766954 1
0.840502 0.539127 -0.734182 1
0.935993 0.517734 -0.844981 1
0.959634 0.535966 -0.720106 1
0.817684 0.524221 -0.802949 1
0.986627 0.515510 -0.804285 1
0.895360 0.554361 -0.713480 1
0.890403 0.524779 -0.849333 1
0.979956 0.512201 -0.742851 1
0.823583 0.540693 -0.758155 1
0.962414 0.516020 -0.836007 1
0.836003 0.524115 -0.829675 1
0.993003 0.511533 -0.781460 1
0.863484 0.554386 -0.722261 1
0.921154 0.521677 -0.853684 1
0.972548 0.527515 -0.723908 1
0.811192 0.533728 -0.787022 1
0.983869 0.515353 -0.819739 1
0.868731 0.527439 -0.849109 1
0.991106 0.509760 -0.755684 1
0.932966 0.536463 -0.778165 1
0.922755 0.532106 -0.782552 1
0.942876 0.531862 -0.778100 1
0.920486 0.536767 -0.768498 1
0.927416 0.525959 -0.792463 1
0.944481 0.535461 -0.765125 1
0.907709 0.534421 -0.780259 1
0.946664 0.525964 -0.788484 1
0.928579 0.540977 -0.757461 1
0.912002 0.525747 -0.797510 1
0.956337 0.531295 -0.770507 1
0.907586 0.543037 -0.767796 1
0.937069 0.521750 -0.801224 1
0.943109 0.537760 -0.752678 1
0.897605 0.531967 -0.791393 1
0.960648 0.526299 -0.784493 1
0.912744 0.540749 -0.751920 1
0.916464 0.519793 -0.808604 1
0.957482 0.529827 -0.757953 1
0.890701 0.538691 -0.775105 1
0.952780 0.521812 -0.801448 1
0.932005 0.539597 -0.743207 1
0.893571 0.523472 -0.804879 1
0.968191 0.525291 -0.773740 1
0.895265 0.541030 -0.754379 1
0.930722 0.517124 -0.814607 1
0.951844 0.531455 -0.744861 1
0.881153 0.534456 -0.788792 1
0.967054 0.521940 -0.794618 1
0.916914 0.543830 -0.739403 1
0.897942 0.513110 -0.817257 1
0.968205 0.523322 -0.758867 1
0.880723 0.541733 -0.764596 1
0.948860 0.516130 -0.813959 1
0.941219 0.537124 -0.734631 1
0.876154 0.524541 -0.805104 1
0.975844 0.520306 -0.781954 1
0.896640 0.544677 -0.741546 1
0.921578 0.518374 -0.824935 1
0.961216 0.522957 -0.742690 1
0.865867 0.534926 -0.780040 1
0.967692 0.518317 -0.806652 1
0.925961 0.544354 -0.729435 1
0.884719 0.518349 -0.820925 1
0.978055 0.518521 -0.765147 1
0.874005 0.541363 -0.750561 1
0.942460 0.516379 -0.825788 1
0.952721 0.532708 -0.730405 1
0.863378 0.530636 -0.799851 1
0.980333 0.517405 -0.793365 1
0.906665 0.550205 -0.730538 1
0.905848 0.517624 -0.831987 1
0.972240 0.516636 -0.746071 1
0.856129 0.536900 -0.767137 1
0.962426 0.513955 -0.819429 1
0.938859 0.543702 -0.722880 1
0.866569 0.520334 -0.819499 1
0.985835 0.515105 -0.775317 1
0.876926 0.544182 -0.736295 1
0.931966 0.518395 -0.835777 1
0.962814 0.523212 -0.729375 1
0.846279 0.530288 -0.789102 1
0.981605 0.516912 -0.806625 1
0.919909 0.553017 -0.721401 1
0.887618 0.518739 -0.835139 1
0.983695 0.513464 -0.754346 1
0.855713 0.542611 -0.752300 1
0.957630 0.518829 -0.831755 1
0.952669 0.540117 -0.719540 1
0.848813 0.523386 -0.812935 1
0.991523 0.514601 -0.788392 1
0.890903 0.551927 -0.724670 1
0.915905 0.519024 -0.843220 1
0.974601 0.515662 -0.733416 1
0.840798 0.537758 -0.775039 1
0.977484 0.515165 -0.820496 1
0.933296 0.550763 -0.714018 1
0.867564 0.520793 -0.833763 1
0.993099 0.511398 -0.766112 1
0.853803 0.540507 -0.734579 1
0.944993 0.518778 -0.842744 1
0.966154 0.533578 -0.719549 1
0.831351 0.525417 -0.801273 1
0.992776 0.513557 -0.802932 1
0.908111 0.557389 -0.715183 1
0.896546 0.520466 -0.847203 1
0.987239 0.511726 -0.742445 1
0.831254 0.536207 -0.756635 1
0.969365 0.514860 -0.834180 1
0.948800 0.547236 -0.710207 1
0.842974 0.519371 -0.827464 1
0.999991 0.511302 -0.780553 1
0.928519 0.519817 -0.851451 1
0.979719 0.526589 -0.723723 1
0.822303 0.532148 -0.785495 1
0.991106 0.515512 -0.818232 1
0.875076 0.522875 -0.846888 1
0.998831 0.510747 -0.755388 1
0.947688 0.534871 -0.774154 1
0.940468 0.533994 -0.778825 1
0.958265 0.531824 -0.774290 1
0.939041 0.539608 -0.765501 1
0.945784 0.529147 -0.788458 1
0.956603 0.530673 -0.760799 1
0.929287 0.540187 -0.777163 1
0.962886 0.527435 -0.784502 1
0.942065 0.537508 -0.753561 1
0.931752 0.529609 -0.793302 1
0.967443 0.525302 -0.765889 1
0.924472 0.542810 -0.764326 1
0.955363 0.525642 -0.796922 1
0.952793 0.529382 -0.747669 1
0.917171 0.534427 -0.787325 1
0.973095 0.522560 -0.780026 1
0.929324 0.540489 -0.748868 1
0.935804 0.523513 -0.803875 1
0.966986 0.521230 -0.752844 1
0.909992 0.540289 -0.771614 1
0.968266 0.522539 -0.796976 1
0.944644 0.535114 -0.739244 1
0.911978 0.524268 -0.800057 1
0.979062 0.519148 -0.769042 1
0.916502 0.545270 -0.752295 1
0.949521 0.521267 -0.809690 1
0.960772 0.521888 -0.739478 1
0.901192 0.536298 -0.784732 1
0.979244 0.517973 -0.789962 1
0.931512 0.541301 -0.736103 1
0.920376 0.519530 -0.812067 1
0.978356 0.515836 -0.753944 1
0.901753 0.544617 -0.761779 1
0.966159 0.519486 -0.809127 1
0.952434 0.530927 -0.730226 1
0.895748 0.525612 -0.800223 1
0.986819 0.514466 -0.777223 1
0.914948 0.545525 -0.739160 1
0.937461 0.517591 -0.819541 1
0.972258 0.516762 -0.738087 1
0.889059 0.539216 -0.776636 1
0.981312 0.516838 -0.801939 1
0.939904 0.541448 -0.726204 1
0.902973 0.518380 -0.815441 1
0.989220 0.513026 -0.760559 1
0.894356 0.543074 -0.748023 1
0.957420 0.515526 -0.820480 1
0.964795 0.528143 -0.726454 1
0.885582 0.533702 -0.795340 1
0.992423 0.513781 -0.788764 1
0.923947 0.550449 -0.728412 1
0.921784 0.515952 -0.826305 1
0.985146 0.514015 -0.742254 1
0.881954 0.543226 -0.764736 1
0.979607 0.518323 -0.814462 1
0.952898 0.541593 -0.719997 1
0.885983 0.520587 -0.813983 1
0.998377 0.512546 -0.771092 1
0.899074 0.548058 -0.734975 1
0.948154 0.518733 -0.830112 1
0.978150 0.524385 -0.727013 1
0.872717 0.536612 -0.785370 1
0.994369 0.514664 -0.801922 1
0.933725 0.549750 -0.718329 1
0.903277 0.515701 -0.829302 1
0.997670 0.513518 -0.750955 1
0.880536 0.547733 -0.750529 1
0.971045 0.516424 -0.826444 1
0.966269 0.538060 -0.716650 1
0.871431 0.525985 -0.807677 1
1.004689 0.513674 -0.784162 1
0.912219 0.555776 -0.724013 1
